# .PCD v0.7 - Point Cloud Data file format
VERSION 0.7
FIELDS x y z
SIZE 4 4 4
TYPE F F F
COUNT 1 1 1
WIDTH 1903
HEIGHT 1
VIEWPOINT 0 0 0 1 0 0 0
POINTS 1903
DATA ascii
30.683071 54.624187 15
-136.19206 -125.18353 15
225 296.85419 44.95948
-205 38.163841 112.16325
205 -115.22919 42.22897
209 136.67001 75.997467
181.49608 124.91003 0
-136.38562 -339 76.843498
36.54763 -194.79974 0
180.98239 224.62355 0
155.65863 -343.06195 120
168.36107 124.06314 0
-219.92517 41.498238 27
197.71886 -143.23233 35
-225 265.75076 95.328888
-55 -351.4306 86.593102
-215.289 301.88071 120
24.846081 -67.320305 15
112.9953 -339 73.719872
3.9724464 161.86505 35
-61.731571 -277.70862 33.112499
119.47176 -71.613846 14.999999
117.78661 -353.12228 120
91.267921 319.78232 0
38.853111 -15.570127 0
-73.866302 -28.560101 15
-192.0253 -324.84442 15
205 -131.1113 47.517448
-114.8147 -1.4206686 0
-216.23575 263.8974 27
33.368454 343 76.319954
209 246.16321 7.8633242
30.734024 339 82.108826
-112.72427 -49.147953 0
77.33429 -19.265604 0
205 -302.31149 79.858543
-205 281.30988 66.693359
-75.825378 7.8607173 0
159.16328 301.86868 15
86.296814 135.06291 15
-55 349.29199 77.377502
209 92.198792 49.684647
30.152971 -334.94394 0
137.86916 -354.00027 96
209 93.758942 97.577003
-209.1908 55.964588 116
-64.047523 -343 105.00189
-225 -119.69012 24.614487
-150.55841 -283.74341 15
-209 -123.47938 33.579647
225 308.45923 114.81228
-143.09999 349.07324 109.79005
-154.93692 -304.30048 15
23.579784 55.362602 0
-222.59937 215.66507 12.044676
213.60468 -206.84198 120
-116.47362 -195.87978 15
-20.303619 -356.74463 12.022343
225 -275.68552 91.723831
-56.357582 -359 101.05048
-35.917984 -343 77.584244
31.108139 -136.9942 15
206.82259 358.65302 118.82761
-68.291153 -141.02264 15
205 121.01467 68.198776
93.101257 217.685 15
168.13873 -77.766037 0
202.85207 97.188278 15.13331
111.74246 -252.54327 0
26.075336 343 52.528774
-2.1714096 150.892 0
112.71072 -126.11021 0
-95.515411 -339 86.270035
-18.287624 89.474617 0
-37.432999 113.76923 15
156.11581 327.82834 28.392185
93.444984 182.90782 15
205 -21.896011 47.887035
-221 -258.76141 18.525015
205 51.499992 68.337883
205 -42.927872 114.2369
-144.92357 359 93.83342
-145.37668 -51.68293 0
-216.9342 30.657595 116
-168.85942 -273.91168 15
-223.49248 -191.13483 93.76281
10.638786 -74.97464 0
-209 -255.0616 95.350365
-209 125.44346 10.500113
-55.379936 -70.95974 0
66.878021 156.02216 0
-64.433006 16.354694 15
-209 56.759659 13.15054
-54.841171 142.70245 19
-213.61914 -114.14177 90.762802
111.01125 -356.69717 120
-205 -52.04332 89.666412
223.83069 40.138485 116
209 -214.69595 60.454498
221.32416 -350.42294 110.14165
-209 -119.22765 51.383904
221 199.03632 25.41814
67.86953 -236.95064 15
205 -176.366 89.760063
-217.92758 -150.01442 93.76281
-205 140.48154 37.831749
-217.15781 -110 88.779335
-46.957764 345.49402 116
205 -123.89212 51.973454
-130.40359 138.96445 0
-225 -325.70099 112.40091
-208.70143 -330.33356 7.1262183
225 313.86304 53.500263
44.807552 -44.547131 0
205 104.55239 36.149677
-187.26253 324.08942 35
225.00002 31.857788 28.623755
-72.61087 0.96658659 15
-38.723549 -111.50255 15
144.1337 339.00003 107.6135
219.88907 195.64169 120
-123.30115 343 54.308502
124.18571 213.82083 15
-36.170124 -171.98883 15
188.97243 -8.5994854 8
114.40079 79.053802 0
-205 222.12335 35.020538
131.59731 -319.19138 0
-209 -215.02988 54.328865
-5.7630768 339 90.96154
-193.06454 123.90684 0
55.19305 -236.21152 15
-100.95407 14.985804 0
-209 -185.10678 26.571465
-205 -61.542038 38.713936
-189.72772 40.767685 0
70.825157 3.1748137 15
50.315243 -2.7000463 34.881981
-165.35037 123.41876 15
90.43026 -124.54424 0
151.73792 50.003036 0
-68.740463 -269.71982 23.006119
-209 -146.38324 98.555153
209 205.1483 114.24118
-205 292.0925 64.185921
152.00038 252.20618 0
-225 -285.10117 98.348473
209 -146.12895 53.230339
-160.78702 -247.93509 0
140.72498 28.018557 0
-47.41037 -285.10281 0
72.837563 -114.06599 0
-213.95889 -12.634429 31
118.11391 -351.78662 96
84.202957 -138.61195 0
209 2.7717824 66.158852
217.90497 107 64.748428
-190.37971 0.71150315 18.297533
144.53436 -201.64403 15.000001
-221.27481 -185.22264 12.990211
-122.59607 -343 6.3547335
222.33305 208.125 97.842438
-209 238.30063 13.994934
-87.134201 -349.69885 120
205 -177.10695 111.70114
-225 313.51059 62.633549
-132.39656 -264.6821 15
-219.62433 -135 99.974258
-209 175.55887 39.039661
190.28198 295.88812 35
209 236.412 96.160965
-205 62.373131 43.738121
-215.32291 -168.65689 31
209 172.44183 107.57919
171.90929 -6.0255804 8
-149.6427 -131.27455 15
-38.396225 -326.85406 0
17.494904 -339 52.499126
-33.508888 202.67061 0
220.77974 -174.54559 27
-209 -199.51447 18.509941
45.76712 -339 95.590057
-123.7 348.90555 110.83348
205 150.8035 60.082169
-219.9375 123.21239 27
90.825317 238.68924 0
49.021275 -85.923317 0
-53.39362 -359 19.696785
-52.36219 -265.94717 0
-225 -332.67987 24.855568
38.258129 267.46466 15
-37.952995 -106.94637 15
-65.624237 299.98196 15
140.97943 -33.97625 15
60.015911 199.33694 0
-183.84274 -187.4794 17.418043
224.65073 117.62544 90.762802
193.03909 -359 37.059292
126.52097 26.576939 15
-209 45.844723 65.741226
9.3038578 -87.55455 0
127.34204 343 113.50636
68.028442 343 96.542892
-213.63226 148.80602 90.762802
221 246.09569 23.60323
-37.459888 33.748764 15
187.90369 321.71469 1.4815865
77.454697 339 47.778801
109.2781 339 113.98286
-224.4108 -153.47133 116
218.22421 159.375 103.83079
-68.825226 -339 22.466612
-225 -28.553308 15.049462
149.5274 354.32428 96
-177.50345 268.16629 15
221.54163 -60.254852 120
23.397301 277.86386 0
-6.1063538 230.4588 0
-225 -308.58264 113.5694
186.08569 -251.43181 0
-205 80.05928 88.301895
-84.691444 305.09772 15
225 80.569878 14.121635
-33.374413 -339 18.518579
125.89388 -308.90131 15
-224.63852 -137.5 98.208382
42.08638 -53.079044 0
-205 169.50764 59.097923
218.36404 108.99745 120
205 302.56836 47.644554
-176.20204 359 49.021877
225 -335.76154 115.28062
74.248207 -310.86981 15
207.91074 -118.43648 120
-210.53433 142.87007 31
225 -316.43851 64.084305
-27.447601 339.85471 0.36821872
138.95605 -343 37.941261
224.34833 -159.375 104.22865
-56.863029 -359 82.41523
209.81055 181.71346 120
109.90147 40.447174 25.241798
194.75255 212.07526 35
-97.926453 338.69 16.697109
-165 357.82004 107.07251
-219.20541 260 78.675323
-199.79735 146.82553 0
221 -85.439339 26.911842
130.13541 214.03546 14.999999
-172.2215 339 87.108971
-196.84781 252.58565 0
85.505814 -101.50187 15
96.265442 -339 45.127258
-75.155754 -339 51.21225
133.5473 -46.051064 15
144.27802 84.238777 15
-173.29561 -359 58.367302
-53.541882 330.69473 0
-225 273.7626 94.342216
-218.16522 -121.7043 27
-6.9481258 -157.20813 34.352516
-141.31677 238.34528 19
-209 -207.96454 67.52021
225 -280.31622 40.206001
-148.96753 341.40302 120
-205 294.81622 79.942703
-145.60001 -349.91278 112.84354
-113.6824 144.21013 0
-205 53.203751 19.895897
-209.9451 -186.25 106.43124
-24.032534 -314.03876 0
-139.85059 347.67874 96
-209 -93.399582 88.989815
-172.2392 211.98779 0
-25.80933 -222.56651 0
-213.75354 -163.09149 120
-80.115158 -219.00455 15
-96.54908 194.19008 0
-165 353.08618 46.686913
-126.25647 -308.08487 0
205 -256.45764 105.26702
-187.91925 339.07281 118.50561
-2.3404408 -9.4092627 35
-63.251686 -28.930403 0
225 -197.86348 26.213602
-210.01675 24.652283 120
-94.167999 76.982201 15
43.291252 174.02231 0
-173.97638 359 89.020088
205 42.561386 21.445654
-205 32.89954 39.020061
210.60516 -235.4662 90.762802
147.73494 355.52344 93.5
-60.323322 150.16141 0
-60.174438 113.28658 15
205 -248.49742 57.936943
6.2255383 351.88446 116
133.47992 338.51312 0.044377547
55.154213 65.105713 0
174.2086 121.17354 0
208.99998 42.633102 6.7977014
-45.177788 -20.746281 15
-205 78.887939 66.738899
-209.04108 183.75 94.211464
-205 105.40566 105.90755
-89.623512 -354.74384 93.5
-131.47191 -332.71341 0
-72.469154 -313.87418 0
-39.212822 89.052811 0
-209 -186.86337 106.97313
-11.926744 296.03986 15.837328
102.05635 -343 74.686005
-163.28809 -339 29.40321
225 -58.350754 19.138954
2.3997335 114.01971 0
205 328.10629 32.692509
-110.22701 50.044937 0
46.935753 -34.422382 15
-159.33379 -272.73193 0
-205.11948 354.98956 20.710505
-52.939278 -346.78564 27.000002
-19.175652 -339 108.21892
19.182671 315.04504 0
58.725075 -90.599533 19
-10.080955 -125.20542 26.636044
-221 -43.570587 24.568174
-96.019485 137.00647 15
157.07375 -156.58368 0
205 235.79929 42.227982
199.9937 47.573895 15
-205 159.32483 36.303238
152.57079 260.0462 0
-225 291.25864 67.59346
-211.15628 260 48.079277
-19.473171 -173.99614 15
-137.76096 339 111.5731
-209 113.86266 17.681774
-30.144453 183.09221 0
205 72.002304 76.854492
-216.94299 256.25067 31
-0.79957789 138.84109 15.000001
96.334732 314.97989 0
-225 303.55524 44.234116
-116.3195 -162.07768 0
-163.35893 80.778923 15
225 -188.47182 25.912407
-225 -21.934967 24.777052
212.85072 41.712891 31
203.4447 -359 97.081245
44.347614 -68.164192 0
-225 79.145248 117.51483
221.83467 -107 78.316864
209.77875 30.701134 31
-215.14984 -243.30023 120
161.42729 343 60.43058
75.796913 -234.43701 15
-52.705791 -6.2178531 35
-0.44828033 -218.66188 0
-25.856258 14.082648 0
-53.293999 -39.520473 15
211.25354 191.31424 90.762802
-22.139208 344.71091 116
-148.21082 282.93192 15
-0.24162579 -284.56158 15
66.110046 343 52.646687
-225 39.59314 15.541206
225 158.73227 23.370575
107.60983 346.74051 93.5
-209 114.4079 65.373055
-84.415543 -288.82916 16.95277
224.80136 107 50.494282
144.8526 -158.36949 15
-204.94714 -266.42584 17.451809
-24.696556 348.03149 31
-75.289551 339 49.164825
205 177.35483 35.704163
-127.30803 -356.80273 116
-220.45038 -224.94142 120
42.843544 119.21622 0
24.016712 91.249886 0
205 115.68943 68.048103
-205 -169.46881 51.733669
-114.63241 -343 31.893448
-83.573784 -247.5334 0
-97.236298 141.83472 15
-129.66927 53.923794 32.539959
-209 -39.780819 91.750664
211.90561 227.21953 90.762802
131.73474 -62.289177 15
-209 17.275457 100.35742
-205 -303.03018 80.545441
-199.7894 -57.457474 35
-145.27051 -339 110.32211
-169.08618 -339 75.764122
116.77857 18.244539 0
-205 57.287064 40.465664
-209 33.464211 110.24347
-198.79886 -314.41852 15
54.415894 170.724 0
209 104.84185 44.563465
24.540228 -245.83228 15
-105.54655 -104.65692 15
-8.8698063 201.35399 30.214624
118.94493 -273.79453 34.135117
-209 -117.2606 24.634724
73.248566 -324.71127 15
-55.948833 -339 33.962254
-142.82559 351.15109 31
-154.01076 320.2204 0
-63.495148 -8.3983965 32.200565
-209 137.83838 6.4485478
103.25111 -31.456835 0
-116.04958 -359 116.05438
92.6091 58.914169 15.98105
-91.819382 92.91877 0
-82.708649 -151.37637 0
-11.835546 165.71422 16.879709
-7.7045708 -85.422218 0
225 290.20422 26.798534
-138.45731 318.25714 15
225 279.1611 102.96606
78.308578 -325.88715 0
-5.2766371 -318.10486 15
-220.18071 -291.35507 120
-67.624176 -343 58.11475
-10.957861 -20.518389 25.104322
-29.129633 -209.3485 15
205 15.810297 28.867405
163.43649 339 90.231293
-123.26525 270.32849 15
-35.574448 351.06668 120
-55.234341 -135.13567 0
-48.405289 142.66701 0
222.2502 58.423271 31
-205 92.574425 79.14563
-163.01379 209.38007 0
-187.67892 -253.13792 15
8.530488 -112.16699 31.217211
5.1934662 -170.84943 0
-205 -127.79903 57.207359
173.81133 -314.81113 0
-12.085278 343 66.118515
147.83711 -94.902153 15
71.130936 359 116.32246
-123.24553 -326.15057 0
68.292221 218.41763 0
-220.64705 181.56584 30.999998
-205 -93.618614 75.981255
-23.660603 68.020576 0
-140.10889 -12.25582 16.244604
-123.7 -358.48987 113.57363
-50.098896 232.62723 18.851173
133.56709 -237.05153 0
-179.27315 -245.42313 15
-21.320248 -250.65306 15
225 -300.7041 104.76202
-151.99013 1.5138566 15
-205 318.02493 77.009232
-205 -13.54454 114.02234
55.819206 359 85.769028
-149.68953 183.10553 15
-129.42966 9.7683268 15
-120.24797 77.151047 15
153.7657 238.97501 15
-209.2137 -227.26012 90.762802
-130.81548 343 71.969482
198.63132 359 77.645874
220.48309 235 100.68443
224.03981 344.92252 103.61282
211.24669 -204.14493 93.76281
69.512672 253.33429 0
168.90001 312.3573 30.885649
42.578564 -343 99.670273
225 107.41823 34.15667
-59.976562 332.04929 0
-101.7595 261.94104 0
95.299927 171.35112 15
223.91196 252.89076 90.76281
209 -300.51169 23.279512
131.23965 -24.144604 15
-154.8027 -66.054855 0
-89.345413 241.04996 0
-184.28979 -206.28947 15
-112.22663 -195.24037 0
-180.06145 -270.3345 15
221 -329.06232 23.602001
-43.311737 -343 42.03899
209 140.78467 50.760437
-169.69275 339 58.434162
-8.2271004 215.18668 32.113632
209 -207.12624 83.814461
-145.67068 7.5028248 15
-205 328.66928 80.554344
-151.81172 -345.34531 93.5
225 291.21567 21.057171
-209 176.10677 53.864868
-33.917686 131.93225 15
-23.120934 220.88254 0
223.02454 -110 80.098267
221 323.35538 15.103731
-6.0329037 -359 23.484024
213.20288 107 97.157669
-201.58003 -336.50824 40.892654
-223.76086 -150.95418 90.762802
-205 118.51989 100.22069
-215.41324 -135 108.33168
11.858181 212.53339 16.621004
48.196953 319.01254 0
205 120.38662 25.808161
118.41246 -205.54147 0
61.703278 -206.55042 0
197.88382 -359 85.615822
157.22375 -314.5592 15
-173.55899 -339 30.848145
-148.35739 -344.76984 93.5
29.953518 -333.01312 15
11.103073 217.75537 23.615992
-75.021225 219.12061 15
-156.60718 -358.95895 13.612879
-152.67517 -80.40065 0
-209 60.023743 101.08913
26.615221 -349.46198 116
215.02783 -224.7897 31
-72.077469 -3.5083945 15
-225 -65.404022 18.846409
-136.33362 -343 20.979666
129.45058 343 107.63716
18.235622 343 7.5297627
38.984959 13.702442 15
-184.67734 -156.64996 28.876574
-7.5755844 217.82913 0
-7.9883394 -252.68378 15
225 324.83612 78.65049
182.71732 247.48657 22.989374
-212.07112 -161.875 108.83339
-111.33298 -306.61411 0
183.19133 -105.9594 24.485832
-128.24582 -355 16.031628
28.910072 263.86664 15
-113.31787 -234.98332 0
-3.1800864 333.17688 15
-54.368534 -90.073891 19
49.980743 -26.156219 0
153.32993 16.973885 15
205 145.16805 49.555103
209 -74.068512 42.073494
73.523499 -162.65938 15
-68.070282 340.91519 119.99258
-194.47003 160.47075 0
-217.53125 210.625 98.079308
-184.42418 66.02034 15
-209 239.41457 82.076088
-191.85272 -339 50.544044
220.50502 297.20566 119.99999
-5.0864468 -115.68349 35
225 -93.859184 15.359568
-46.66777 -85.772041 0
-206.97845 -358.8269 100.31836
-225 -265.91891 81.157211
158.46777 -355 18.031752
48.767029 -146.70892 15
205 15.808685 49.647217
-144.50877 154.26472 15
-182.46474 170.32172 20.312016
-102.40054 -343 23.285566
-221.00002 290.92734 21.617205
33.499252 -342.84073 3.8208241
-161.40266 -128.95433 15
174.41446 -106.84239 0
187.4147 -55.083878 34.596184
209 -223.89481 24.85605
-18.812424 -34.252136 15
-163.07274 352.73117 31
-182.73164 191.41908 23.065525
-172.8474 22.518393 15
103.72582 339 81.597008
-122.26256 -359 115.55856
-122.3902 -157.34114 15
59.803764 -100.50441 0
-156.76668 243.83386 15
215.59996 311.01877 27
221 280.40524 15.825345
-196.18565 -319.25079 15
33.63916 69.053436 15
-49.138443 18.105953 15
-224.55716 -246.52469 116
-198.13159 171.79187 0
-205 314.09259 98.224396
124.49013 110.65256 0
-211.84253 142.48178 90.762802
108.15236 -339 21.989643
141.31918 -97.30378 0
-205 -266.04556 28.7901
-9.1658697 -335.98166 0
190.98486 63.398647 15
-140.14908 337.94083 0
-91.98896 284.21954 15
19.930424 1.160217 15
33.226391 103.86617 15
-210.00018 -189.07788 90.762802
205 -251.85338 27.187159
182.7047 -153.13303 22.904123
-209 -5.1629105 106.2209
-186.25993 -143.81592 33.417011
177.8566 359 112.31786
209 229.26541 102.2667
-204.43452 332.27985 107.66329
27.084221 -255.61963 0
212.19437 8.2471466 120
-172.2419 -359 66.103432
-209 -2.32866 78.048538
-169.33884 359 20.643291
211.12912 -110 85.529633
-210.18959 61.43618 120
42.336273 -339 60.508274
-209 -18.714016 77.423904
77.810898 339 116.45679
3.9390259 355.63873 12.543585
209 -31.147892 70.170525
-154.24004 -269.89905 15
-209.27994 110 107.17081
205 -210.33261 99.76342
-31.691761 351.582 116
49.449112 -343 101.67258
-209 191.75819 33.859169
-14.691851 90.076363 15
205 252.51947 71.156113
110.71432 210.56773 15
-209 -218.6344 95.657791
205 -323.87442 97.676437
-209 153.59712 79.635437
221.75845 182.89737 120
-96.462357 343 26.136536
-46.161175 19.019814 0
-190.94664 33.73278 15
225 -308.57495 54.605206
215.72931 107 49.44735
186.11462 -177.84457 33.089596
-205 -49.959072 49.99176
-146.106 258.86398 15
166.38669 18.180937 0.38787863
2.4678044 -119.98897 35
-74.582207 -327.11624 15
209 -193.8472 33.992706
65.711334 -269.52548 21.006084
-205 -99.099304 59.842388
-166.49532 6.4810381 15
32.641628 -299.88257 15
219.24112 -12.04121 27
108.80346 339 71.515335
209 185.48993 6.0826416
174.71246 -268.43103 0
17.302925 -358.2937 116
-218.13942 221.7399 31
209 155.55164 11.379933
-225 -105.04887 30.376806
-73.048866 289.56482 15
209 -84.805756 50.603046
-36.592731 -187.21806 0
-59.035843 217.45944 15
-18.734722 -339 42.602592
168.16368 -358.97266 13.687175
144.97099 310.02908 0
121.20001 -350.03131 110.09879
-170.19977 117.71622 0
115.21117 -36.260761 0
-74.976799 -339 28.589844
-45.43285 25.967108 15
-216.98578 -73.001358 116
86.356293 -339 99.454636
-205 -207.99864 100.65401
11.973722 71.036407 15
-9.7142544 175.92734 27.719536
-225 204.08768 24.964355
-209.55446 -311.89725 120
30.683645 -296.40305 15
-205 -91.151871 92.891045
-161.0112 343 68.177811
-92.001091 -213.53963 15
109.69681 184.49854 15
188.66515 -343 12.111217
31.879646 333.56335 15
-11.783936 84.344704 0
192.93982 -190.67493 15
47.243881 98.369423 0
9.1334629 -160.43826 29.4356
-209 -58.589123 14.914948
-58.755131 222.13879 15
-132.00375 47.967018 26.386963
208.55923 -90.874199 2.9717124
225 -125.82069 16.332531
-209 177.84833 24.74868
-208.99998 67.167755 5.4340091
-205.60208 44.029438 119.41974
-202.98822 -246.02802 0
-225 -297.16617 80.534996
-135.55713 193.99335 15
-106.18976 58.851051 16.702465
-225 160.43179 115.62116
-205 186.13974 59.490929
48.465961 -269.67096 0
204.02522 333.21732 75.266472
4.3665199 -66.664841 0
-205 203.28619 94.517647
168.45425 333.44516 4.5228152
-225 269.94308 55.559029
3.1337585 6.1765928 0
205 -49.406609 38.532761
66.593628 -343.06827 31
154.42245 -343 65.686943
205 -98.839966 103.08053
106.15084 118.51473 15
-205 233.71359 112.33018
-217.89423 0.68493271 31
177.65457 311.88495 0
41.190365 -92.309555 15
205 -244.8837 91.737556
-209 -242.70839 85.906296
51.926868 81.293976 0
-148.157 57.299019 0
-205 243.0177 44.439693
-222.35101 57.024139 116
215.33244 272.73315 120
-204.444 -248.84607 16.279947
-223.25592 -169.74706 119.97761
106.41739 -75.241135 0
78.454559 39.264259 18.020515
205 18.301708 23.280313
215.24197 -110 59.70026
205 -221.59018 30.186007
183.24791 -121.92241 24.653034
-205 -263.50525 45.389038
156.19052 -67.802139 15
196.31125 124.27537 0
67.501465 -312.68625 0
223.4183 232.5 114.82452
-138.18753 -91.927391 19
-205 327.72876 59.693047
219.91147 -231.86511 27
-129.3781 -90.949097 0
-49.142864 9.8370714 0
-221.38615 -249.94992 120
-128.79141 139.53204 16.792582
168.95662 240.23094 0
-215.65466 -148.22871 116
-189.4799 269.38583 35
218.48672 -129.56664 27
-219.64174 211.59723 93.76281
205 -110.45135 102.2579
-192.8855 -339 114.21233
94.53923 343 21.930672
214.17577 -137.5 111.85032
-61.673405 -139.02972 0
-17.349319 227.97455 0
91.910652 98.231262 0
-219.58148 -110 94.437759
-55.303265 -153.42065 0
47.657654 355.54849 12.633857
-141.97688 346.92584 120
-13.293849 58.141575 15
-209 44.996548 65.117546
3.8848839 343 112.76328
10.292347 -273.97128 0
-209 126.97791 58.410851
-4.6875486 -155.52991 0
-205 -282.24207 25.684277
33.970741 -317.87726 15
190.55321 305.91873 35
-62.205765 326.83508 26.406994
-46.583366 86.978569 0
-204.46516 -147.42749 0.036830071
131.54379 115.2216 0
-225 133.814 27.995678
-205.80777 -49.034729 119.59746
-124.21054 -339 74.363388
204.86688 136.19254 17.152346
-209 -41.292934 105.88216
67.476227 -339 73.665634
225 -322.23026 111.50891
-106.97208 339 37.528591
-209 21.425892 104.91768
94.530037 343.41806 93.5
93.871872 134.18642 0
-57.999996 -343.63678 88.938332
-54.468887 241.00598 0
-209 11.48518 17.415379
205 -317.93564 69.834297
39.144409 -339 100.30107
205 245.27994 59.010147
-73.01384 -239.75052 0
58 345.69122 92.364586
209 92.733032 9.3272352
-34.439735 -127.85952 0
-39.696007 -339 40.260494
-3.7446365 224.95456 0
61.794708 -286.77884 21.124357
-29.554247 0.35989302 0
210.37386 -260 35.050907
194.78146 217.32376 0
-197.13062 -315.92993 0.049493108
-147.35632 339 48.031769
209 155.40662 60.625099
-209 44.156002 62.047039
58.289204 -357.51083 96
-209 32.719345 48.846096
-179.47385 -339 106.31886
-212.75569 -174.64529 90.762802
-58.000004 354.5358 96.005196
15.448902 317.80728 35
204.99998 218.95316 113.43714
183.78397 -339 68.980003
-129.21637 339.14661 118.73972
-11.303574 192.14215 0
112.59567 343 67.245941
-205 328.11722 74.37336
216.28726 -350.25403 14.735506
183.16953 307.68005 0
10.426285 -339 115.56625
84.094223 -261.60516 15
166.27805 -216.6116 0
98.174065 -343 18.043304
55.528198 -14.004337 0
-137.24045 -77.732384 15
-209 -256.86273 73.803535
-209 -327.82202 8.5899935
49.185619 130.14343 15
221 -179.94016 25.89819
108.40024 -312.00107 0
-209 118.14443 22.370407
-104.27569 358.11935 119.64848
-11.682434 201.25528 18.629797
209 30.569315 37.890869
63.772644 343 39.487747
-168.79381 133.97504 0
49.24295 -91.013016 15
-190.77429 -223.95648 15
-217.78674 235 108.86847
-218.98466 117.28432 31
-50.812706 339 33.826244
-204.71846 -331.22028 67.276558
70.981705 -353.02109 93.5
75.610382 -70.855293 0
-117.842 -316.82425 0
54.330582 -339 47.75779
-115.85455 -339 108.35499
225 -320.74225 69.574738
221.0387 159.2841 13.621716
107.67568 184.52504 15
-90.126335 -215.88596 0
221.25076 295.83493 120
209 71.68148 35.568233
214.87503 16.17004 31
192.4231 194.59753 0
100.17747 306.54413 0
100.2943 175.0439 15
-71.863533 -307.69153 15
209 111.0482 61.450859
79.616135 -94.63488 15
-151.9976 115.13552 0
-15.145294 -44.98325 0
225 128.25717 116.906
109.69667 -85.019333 15
-103.27074 -262.62256 0
157.4008 69.558769 0
-209 143.51215 51.732243
-11.863571 253.2813 16.559383
48.094902 -216.25687 0
46.886005 31.956917 15
65.653275 -351.02805 120
-67.682457 -316.70068 0
-57.646713 -153.91504 0
56.176258 2.5554171 0
-7.1556778 -182.41397 0
-225 -286.08234 20.714127
209 -86.114685 12.890613
-88.578529 339 64.715836
-185.74188 -157.349 32.021992
165.2552 359 54.7472
159.94025 -214.52007 0
192.39621 266.35803 35
203.08324 -18.480568 0.26281914
-218.75177 128.65204 120
60.792625 -343 110.35486
40.815109 -343 14.696749
-61.884346 104.41924 15.000001
148.30569 197.61472 15
-140.2132 -31.861923 15
-188.29675 74.528091 15
-98.123795 311.14331 0
-221.57269 -145.50948 120
225 19.38299 17.672962
-225.00002 -129.7373 18.503006
-212.41498 -48.992134 116
20.985825 312.95035 32.637947
74.584206 -221.01183 0
52.523048 -170.46069 0
198.60985 218.25717 0
138.15738 348.18073 93.5
-154.75041 110.14394 0
30.364933 34.695629 15
18.706493 -105.88792 0
-123.7 -358.03961 107.29128
0.80989581 -253.69856 15
-225 -312.65973 97.066605
-5.2070951 -306.85394 0
146.50879 -0.20270614 28.746994
209 -218.6194 18.542744
-182.27019 250.02774 0
-180.5636 162.33005 0
-96.224823 271.54385 14.999999
225 146.85446 29.017036
221 -121.39606 19.386902
-221.17435 350.63687 99.739487
213.12576 -155.86839 116
129.18962 118.69781 0
-30.967537 -280.18542 15
-130.05594 -350.70023 96
-171.26175 180.8427 0
-108.57034 300.49042 0
-62.684841 213.54492 15
212.83398 32.324135 27
-211.63075 -183.75 98.718239
-125.75021 339 77.639908
221 287.21033 22.92222
55 -345.92453 114.35514
56.724873 127.8477 15
-209 -236.60194 77.85466
191.97089 231.39862 35
-149.38562 285.61261 15
123.81783 -337.98807 15.761581
217.98285 -232.5 115.08531
-121.98837 -357.43808 93.5
-3.0893159 343 44.002846
-225 -174.03641 24.633356
-49.469276 204.9279 0
132.70731 46.558937 18.34549
-205 -172.19586 39.921734
105.78075 6.1748376 15
49.616745 -274.3248 0
42.523663 171.14864 15
-205 -224.67267 75.05854
208.19409 -126.63533 2.2929907
225 -307.18744 33.493271
218.00195 -63.477303 116
221 279.19772 21.414429
-221.29121 -105.74225 116
70.764885 343 61.033112
-209 -187.58046 67.251335
-209.00002 62.314529 48.938107
-162.66556 358.82306 96
-225 94.346817 27.840183
214.92889 -184.54755 31
-214.86179 -140.01088 27
-154.6637 -2.1016951 34.652287
64.506363 314.38654 20.562984
-1.1357269 -351.34805 120
-222.11273 201.47076 31
-205 111.80975 33.160667
-225 -320.73074 72.26355
-31.856081 -125.26178 0
-102.0768 -67.423546 0
38.964787 29.602976 0
-14.340485 -339 37.26796
66.496483 180.8215 15
-74.9291 -339 97.922493
-137.19987 123.32063 15
205 129.6132 40.900471
213.03577 268.49426 119.99999
-209 239.84932 97.951431
-209 -91.928764 106.73309
205.9577 358.70508 118.87815
209.46574 -107 33.28112
-155.66788 -176.76968 15
139.65817 319.84448 0
-197.7402 -56.876221 0
187.85643 359 16.40414
-85.914238 -17.979446 0
-209 -228.87199 64.313766
-209 99.516312 103.31598
205 120.48996 68.850525
66.509834 188.76773 0
-155.24268 -339 94.430077
160.35109 -343 106.61681
167.45114 134.42906 0
-140.89107 -61.652554 15
133.86786 -117.64371 15
-87.527412 5.6453433 0
-169.99863 12.801052 15
-137.17667 -339 109.41666
205 35.825768 40.764713
-224.80127 -33.631058 31
-225 -335.80664 69.587143
-31.501049 288.43292 0
205.89343 -37.478989 119.65742
45.492584 333.37912 0
204.61548 -16.764465 35
-209 249.01425 53.654869
-152.68883 -339 91.613342
-24.75872 236.24139 0
174.65057 -291.21179 15
-140.53423 -40.756535 0
179.30035 -359 94.753227
-220.74298 184.75629 31.000002
-94.146683 343 115.89064
-9.6786528 -15.774432 33.290752
166.60345 328.67233 18.745401
71.101364 339 24.591167
130.54004 -350.1951 31
-173.24843 275.27481 0
-41.78093 -220.92183 15
-224.08118 60.262405 119.67521
-186.8559 -343 14.440643
-88.249985 -348.97626 27
-157.72377 -333.21777 0.068977617
-35.219269 -294.53955 15
87.452652 107.81148 0
-7.7644272 -358.99255 13.915014
221.24884 250.15236 90.762802
85.733444 163.65576 15
-29.23579 252.03798 15
91.656746 -220.8284 15
8.2195501 359 17.732944
32.91111 69.865921 15
166.36945 -339 50.176254
-69.869171 271.97482 0
82.918633 -339 32.006317
150.31158 343 53.50243
122.86398 346.84344 93.5
24.409172 -230.9603 15
-139.03674 -114.54799 0
65.336349 212.02481 0
-209 -119.36069 51.499908
-9.7817554 99.619087 15
-190.87119 -336.06866 5.2029824
192.88623 346.97046 27
2.4496942 -160.27234 35
-149.5612 57.59454 0
-80.88903 -237.33612 0
-56.691608 93.807671 15
-138.62999 -294.9549 15
-10.270515 -339 84.721115
-133.02937 202.82349 0
151.37485 77.434662 15
225 -178.36047 21.858566
7.2813644 -353.7262 120
112.74072 55.313564 31.858154
-225 -322.1312 80.170174
205 -232.49181 95.492607
220.22192 -343.77499 26.766815
-39.603443 -339 29.567722
-205 -180.34631 114.2646
214.11818 356.73169 57.936642
-134.34274 -330.33911 15
-119.31659 192.38629 0
-88.436684 -199.05939 0
-126.71327 -343 67.588036
104.75352 290.90781 15
-180.04718 276.95139 0
225 -284.24252 115.70891
-116.30089 -37.257561 0
122.70949 339 54.992775
-30.668106 74.900627 15
224.99998 -327.38971 88.524254
-108.11582 302.03284 15
-34.961594 -339 48.451721
51.378765 268.28952 15
85.393478 -59.342968 15
150.9751 242.80835 0
-112.54747 152.9436 15
52.482864 -65.952072 0
184.75244 241.2822 29.098473
31.318436 -339 71.990311
143.09999 355.91559 106.62405
-77.999741 -355 20.140152
129.4339 138.61446 16.323353
84.328125 -172.53117 0
-57.763134 359 50.440762
-113.97865 -165.4774 0
-148.30145 102.53057 0
182.68851 154.74396 22.794773
90.036377 354.32593 116
210.04929 -149.84052 116
-205 -4.7778244 85.732239
183.617 -20.106815 26.685238
-101.8038 352.16846 116
-13.279499 324.48813 0
205 -192.97624 82.100769
137.63916 -339 88.758804
-224.40802 343.54828 89.918777
221 -324.54776 22.269466
167.82674 -359 71.70002
-9.768486 -10.024306 35
4.9531093 -167.76624 35
-140.08342 179.51913 15
-209 -221.36121 53.650452
-216.91701 -260 62.338913
76.069565 249.29282 0
-188.84337 260.51672 0
-110.19508 350.94748 31
-109.88954 -213.23305 15
-188.37775 -271.66241 0
79.240036 -6.184166 15
146.54739 -296.24911 0
-218.89052 -64.207298 120.00001
49.413864 -74.525108 15
221 297.54776 19.891848
-145.70335 -342.71469 3.3504441
-4.7184105 -101.12352 0
-129.42433 -247.98865 15
-197.39015 139.19133 17.186794
205 -285.15894 68.971573
-2.0534511 318.83585 35
44.670513 -343 112.22257
-43.499771 -339 78.135941
-205 22.899673 30.438116
209 -159.20631 86.101166
209 31.190929 82.847443
-17.944351 -194.40417 0
-154.98447 -48.494873 15
209 -38.556507 88.526962
-196.0491 -330.6077 3.7871861
79.587631 174.67188 0
-60.211735 -167.72891 0
48.026443 262.87814 15
-59.676994 324.32672 0
-213.78011 260 66.137115
69.41304 -316.8555 15
-205 141.53235 59.229324
169.49075 -22.956894 15
-223.08273 -200.20456 12.007238
117.41644 -25.955235 15
-217.22693 307.45135 120
-84.411407 343 12.247179
222.20811 14.518003 116
-208.32748 -104.46397 120
212.32925 186.25 106.40871
-225 -338.46405 97.499603
209 -177.31757 44.926552
15.933008 355 19.324221
-184.88727 -203.0545 15
-33.578094 355 14.656208
-205 111.14629 78.395493
-225 28.23716 17.273586
-209 -158.42165 13.828639
-225 145.81793 18.761738
14.617348 168.31712 0
158.05118 -229.47169 0
205 -149.72552 93.55407
9.5090227 240.50673 28.325933
205.00002 -77.909912 42.942894
209 -240.22958 100.5455
-166.65379 -108.0759 0
66.823441 142.77243 14.999999
2.4702301 343 104.55548
-225 263.24902 82.311661
205 -5.2696133 41.834812
130.34717 -43.908073 0
14.722366 239.76596 0
-187.62079 -49.516644 0
184.86189 262.04449 29.421844
113.86059 -343 58.531475
52.103615 137.92131 17.92981
133.89452 -325.30615 0
-180.451 -329.98431 3.6255667
48.087479 -120.15364 15
205 -302.48578 100.5423
-22.020435 -28.802401 0
-104.77548 343 35.063755
58.119545 -213.8266 15
156.76669 286.6694 0
-220.15347 188.46304 27
118.50722 54.864227 0
163.05069 282.25232 0
-122.70264 175.4346 15
213.5369 -238.78467 120
62.913265 -51.454002 15
-43.847923 183.62053 0
-79.095505 41.982407 29.777969
-138.99966 -339 34.95808
-4.2923317 45.88562 0
209 -48.44453 59.088493
205 95.72818 109.83208
-209 -311.28156 21.272047
117.2271 -339 35.332382
-225 283.5191 32.399052
183.98407 -162.14642 0
-24.32 307.57254 15
-205 69.141716 23.24028
126.71411 -315.42639 0
165 -353.57407 50.285198
-225 338.75012 85.655365
205 305.1489 72.936729
-209 90.590332 60.571999
169.83257 -256.522 0
-74.989166 -148.90088 0
158.62025 -339 115.60632
-106.61897 338.80905 16.952374
55 -357.41687 71.135925
-205 -10.076861 53.379692
34.628242 -25.570513 15
-67.076431 -343 60.550537
225 -311.05914 82.027824
205.30933 -317.52243 119.0591
209 -200.47202 89.475372
74.761734 -312.37622 15
-120.18871 273.0459 15
173.31451 314.49023 34.641888
0.36611176 342.3786 120
-69.906952 106.83284 15
123.27544 -269.29413 18.361698
-209 98.338562 65.663696
161.81982 126.12717 15
221 -138.50281 24.39546
-144.3804 -339 68.852684
107.00621 169.15028 15
-74.194382 264.65659 15
-205 264.15567 40.798889
-72.822815 -32.297737 0
107.78474 -334.14542 15
217.68195 78.245979 31
-205 -135.35492 106.78403
-178.91608 -215.70348 0
66.936028 -111.63522 15
205 -241.03433 44.222435
-205.6617 -358.94214 42.120865
-4.7264709 -343 8.0132999
-138.71017 -75.088455 15.000001
-9.3989258 -65.669952 0
-168.33434 -22.763905 15
-225 83.976112 26.205215
214.55051 159.375 107.88239
164.46289 -102.83434 15
194.8103 136.41446 15
162.2124 103.30331 0
126.95966 352.65436 31
75.399521 219.28236 0
-49.748447 267.1702 0
-213.68225 210.625 102.31183
-225 -334.56415 74.564087
-96.428833 -338.91971 17.349506
-205 170.18939 80.61348
-60.037201 -167.57683 15
96.951447 354.13782 27
-220.92923 350.98697 66.397957
-208.84865 298.07001 3.8442039
-29.157366 318.55908 35
205 -91.163994 107.29188
218.42923 155.06998 93.76281
-96.281876 239.54742 0
-217.81635 -195.57404 27
201.06662 308.89249 35
160.97066 318.97803 0.76149541
62.09568 74.781853 15
24.606966 208.90196 15
224.11722 -194.85571 116
-194.70541 -10.593227 7.4067717
205 -291.65063 64.519104
-225 -337.92123 68.322266
209 -237.88373 63.116936
183.04861 146.33395 24.064148
-60.279587 55.523449 15.304289
63.562641 -354.04959 31
-11.368431 -170.3004 0
-225 328.36526 72.587105
-6.7764564 234.30679 34.480423
-95.995422 343 24.018776
-164.65935 343 56.880501
-43.636032 -117.02811 15
-75.364922 -279.38812 35
-54.819778 136.13995 15.768264
209 229.93752 54.714748
-43.146313 169.65617 15
37.623035 -44.689926 0
222.95117 -225.06064 31
30.242172 339 87.633453
209 36.103481 93.577309
137.75363 -88.581459 0
24.213642 -250.73315 0
-205 43.877007 114.59029
-225 -308.15427 27.718513
-205 277.61017 67.116974
-154.26233 -339 70.21553
-79.899994 355.08179 105.36271
224.99998 -304.70615 85.014313
205 -245.52353 108.58134
-79.899994 -353.50726 102.74565
19.702641 286.05133 15
-119.10624 344.52783 93.5
209 41.726978 103.36581
-7.9532852 343 109.91198
-9.9242182 -359 20.677065
221.23465 -196.49562 31
123.39104 -72.557236 0
-214.74998 72.671486 31
44.37788 -257.42542 15
-221 -120.91142 19.975029
-224.40134 -133.31468 12.583679
-3.1349869 -339 105.8903
154.12653 47.510868 15
17.300503 -290.80185 0
-151.81204 -139.52826 0
13.042002 345.87537 30.999998
-205 266.69788 56.449226
-41.690643 -313.45825 0
-76.740524 306.00027 0
10.503868 -359 27.02813
156.49605 173.33879 15
138.15982 -251.66559 15
-209 -158.70929 111.01151
-81.599838 240.31815 15
208.26199 -97.034767 2.4081278
-141.9137 202.82027 15
-199.43115 -184.04901 0
-82.967888 339 69.726273
-168.23151 0.5594303 20.035736
156.26912 198.20036 0
-205 220.48 116.21653
-213.8923 -194.12003 120
-205 -302.43478 54.115772
-215.87979 -128.57797 27
-218.86763 128.64391 31
-147.99071 -341.68085 1.636677
187.74756 -14.761539 35
-134.13962 -258.35391 15
-12.654884 -343 34.676849
-158.41466 256.06686 15.000001
209 316.82205 18.623394
-21.858166 311.69839 28.938805
-133.6974 -267.05606 15
-221.07816 350.77426 80.416901
-182.46625 287.39777 20.3291
-209 -294.974 20.529142
152.0508 -161.2421 0
-209 -148.84204 96.810211
-203.25107 -193.29015 15.274887
114.83198 -270.52496 0
-205 -114.0377 83.215729
174.3849 -42.815491 0
-162.38826 -15.16975 2.8302505
-8.0247393 -138.70041 32.711548
108.6076 235.79514 15
-73.251572 -359 21.182121
52.959633 161.78046 15
143.79489 -97.319954 16.636068
223.77219 -164.64011 119.83829
-114.51758 -293.40741 0
-115.15629 -31.466806 0
10.119364 343 88.862717
178.01849 -339 105.26908
43.416092 -339 74.8936
-221.72577 35.507645 12.459961
-222.90942 126.98883 116
127.13424 -289.71545 15
98.480408 -355.39099 12.824322
-85.903366 169.32747 0
157.60754 355 24.677824
215.19833 356.18161 64.079529
205 -111.18419 52.511929
-225 285.64163 77.797653
207.25658 358.80258 56.931198
182.64334 53.516453 15
30.358273 164.31633 15
106.12572 -35.046482 15
58 -351.60181 99.860916
-211.58638 260 43.723049
209 36.504421 17.894218
-102.7673 -68.613167 0
-225 7.2826118 27.961004
-155.38132 -359 30.774839
209 -186.40762 47.816746
-135.81174 -330.27325 0
98.512634 -292.17084 0
-108.29814 -118.1924 0
43.170834 -27.31876 15
205 207.64464 101.28547
-102.30121 48.525078 35
-71.056534 -356.48859 116
-12.84882 6.8076239 0
205 175.12337 90.795364
-212.58386 39.344292 120
-205 242.11183 71.734482
-58.280701 130.57033 15
-19.740789 343 64.339958
133.89023 107.88771 0
45.724659 339 25.722231
205 67.464767 52.244553
223.28233 183.75 96.573853
-209 -121.88783 51.840019
191.98247 -168.22046 35
209 202.19374 68.663376
205 -241.89012 97.362831
19.519321 217.38153 15
41.637371 -343 85.672432
-209 98.390198 77.430847
205 -290.07123 83.334061
221 11.671707 18.321949
-205 10.741234 76.534111
-29.316814 -279.47055 0
-205 -133.27426 62.989166
21.2644 97.252487 0
-66.937851 -12.523428 0
64.997765 -92.287506 0
221 200.63568 26.487785
205 154.8687 58.961319
-206.15761 -104.7597 0.4993051
-196.13449 59.810074 15
4.5504608 339 72.628593
-223.79874 -164.71442 12.174097
221.17166 207.19724 31
-81.449379 -108.14804 0
-224.07977 -344.77335 22.155956
-22.175819 218.04785 0
-28.380554 349.64813 120
212.25717 122.1116 93.76281
49.051109 245.89252 15.000001
145.67094 -343 71.437897
-209 207.73149 65.992325
10.083055 55.339821 15
-205 -77.637794 92.035988
-201.90219 359 33.806622
181.90808 -17.82605 26.795618
205 -115.2811 110.46185
192.88655 -358.98367 118.18687
112.93483 223.1405 15
37.561157 -221.80011 15
-215.065 -142.03339 93.76281
140.16562 37.996571 15
-219.17386 -231.0466 120
-58 -346.96469 35.622719
-136.08017 -9.1954622 15
225 -274.65472 14.264835
-105.15314 -343 56.055916
-72.818115 343 40.053261
213.604 220.3934 120
26.521317 -359 24.694872
161.38885 309.71341 22.962997
209 -256.28107 70.02346
-209 45.506191 113.56502
-200.34668 -118.53493 0
-23.001587 109.0107 0
-191.968 248.23151 0
-150.64444 46.552734 15
111.97937 -94.856682 0
146.40259 -165.89577 0
209 -179.95023 35.925915
169.30183 230.0137 0
-209.28076 -136.34175 27
-112.39639 -139.94902 15
-12.86314 -61.630222 0
220.87575 -279.10678 27
-211.81665 127.83625 90.762802
205 317.88861 68.617462
225 -52.248425 29.285654
-55 354.1868 92.38195
-55 -349.32025 41.923523
-219.80919 212.23734 116
138.20544 339 103.1209
19.587044 343.00003 105.39511
-223.37628 -65.660477 12.038154
183.69928 -312.6561 0
209 159.54395 24.986824
26.753845 -246.28798 0
-205 -136.92499 44.140877
224.88826 -260 39.256363
-204.91248 140.47328 31.839605
199.30127 -258.35977 0
-106.14098 355 15.401007
131.72421 -339 89.900146
205 -35.869606 47.451206
-66.798622 330.36603 0
-209 -249.42108 55.274384
-91.056679 151.70367 0
43.324936 -310.22418 0
-206.75879 201.57137 119.9789
131.3985 -55.178444 0
44.468437 -207.78162 15
-221 -35.513412 14.216082
79.899994 348.26727 106.97618
205 -21.756023 78.778084
217.74037 -159.375 98.360535
-99.915817 22.806711 0
225 -67.575623 24.384153
-165.97452 339 89.082214
205 139.65714 102.71803
-33.908012 97.175613 15
-28.411194 -343 56.796867
205 83.453445 66.561752
-205 -265.94608 21.503666
12.308454 343.35498 27
-63.400291 -272.80273 29.543213
-146.05817 343 112.00449
197.7045 338.58871 101.71429
-79.814323 -142.65364 0
17.445856 42.105259 15
209 135.44389 22.057888
-102.33694 241.32426 15
119.88164 98.280815 14.999999
105.65083 358.82083 116
137.52486 21.664185 0
40.393387 -339 92.96048
73.240372 -337.14948 15.238472
-207.00681 23.425186 120
225 -329.65775 66.116348
218.21756 107 96.925262
74.313087 -57.489311 15
-117.15109 99.024879 15
221.31364 -158.66055 93.76281
127.83749 339 102.54156
36.93338 343 54.170319
55 355.60065 37.030521
-124.24455 -42.289463 0
-16.885029 242.6093 15
-28.013205 247.13629 15
204.98322 -306.57755 17.800663
222.66191 -237.70587 115.99999
-105.71844 -347.8002 93.5
221 -11.46689 14.473723
103.77703 343 36.813709
-225 323.24573 26.835434
100.32315 58.872284 16.459757
89.277191 343 92.235214
218.71719 12.409548 31.000002
205 -172.57881 107.93573
152.65688 304.20013 0
-205 -178.88692 87.707916
209.00002 -207.34106 61.237011
213.47874 260 84.359726
-146.3242 -216.57607 0
-204.91281 329.99664 32.614197
-147.99094 -339 95.407051
207.85303 264.90674 120
154.3873 -276.3837 15
126.51297 267.30063 0
182.20151 -36.105892 17.303205
209 -81.411499 74.369453
205 49.403564 117.18982
209 84.862015 39.937672
149.79501 128.32324 0
7.6094437 268.14587 0
225 -284.78497 102.93365
-225 318.01569 38.68663
-223.42007 -260 38.068745
225 302.39471 63.840977
115.87383 -344.88809 120
-54.165531 -232.39714 0
209 130.08884 81.974266
-115.26154 90.601242 15
-19.580462 -276.59055 15
-60.840969 -262.83286 0
12.532539 -57.762245 15
141.60257 230.90321 19
57.827427 -171.72089 0
190.93658 -339.91675 119.67376
164.75891 176.57217 15
173.97267 -359 54.347488
-101.38081 359 26.607002
-151.91544 -338.70483 16.728947
-122.67848 -28.667719 0
-195.18231 358.42126 12.603594
-191.87386 329.47369 15
-15.216282 -250.29556 0
-58 -356.22992 40.433777
209 281.82629 23.901335
84.544685 270.42169 0
-54.99297 128.89095 0
183.02072 -359 37.330376
214.21593 113.30872 120
15.059202 -3.0765653 34.965126
-61.478111 352.51929 27
-7.21419 335.83969 15
-225 162.66147 23.821428
212.32495 13.759571 116
218.75461 -107 76.429863
56.103249 0.024988294 26.144436
205 297.55768 92.50383
205 247.65416 95.16893
2.595108 327.56885 0
209 -51.63932 12.867726
-209 272.56802 8.8990974
61.615776 -304.73196 15
24.272894 -74.314339 15
205 -113.27893 80.197411
-74.419907 221.84564 15
221 157.78491 26.365541
-48.049507 -343 41.151989
-166.17201 136.10123 0
-209 250.87347 82.328049
9.3237915 294.07291 0
155.34865 33.494232 0
-46.652721 333.59506 0
114.89588 -352.38327 27
98.547577 -141.8024 15
-10.349426 343 44.14492
205 -178.7374 82.474274
215.2739 10.219505 120
-221 -155.72757 20.679071
221 83.021004 24.967346
-205 -175.11357 35.690403
141.13254 -4.6478477 27.557362
-171.5607 -45.638466 15
-72.09285 -355.07513 116
-18.591005 -357.67944 12.119377
-181.52766 -344.89276 120
182.30533 -21.682148 21.971455
148.92033 -217.08786 0
-147.62871 25.77424 15
-166.10873 -217.50536 0
-98.993912 -345.36096 27
-216.85327 -355.02283 35.084679
18.185747 343.20865 31
135.78717 345.83105 96
-100.15498 80.193451 0
224.46565 204.81541 119.35201
87.689659 -227.74147 15
-209.6356 -107 32.808575
-209 17.790461 83.708092
225 -305.1532 80.201851
-36.403625 343 113.03455
-209.67108 223.32913 31
108.54234 -57.383148 0
-225 -303.26794 22.035292
-150.89548 90.348412 15
24.074287 -293.44345 0
-135.44556 100.11072 0
-205 -301.56351 82.901489
205 70.950661 113.09352
55.071144 192.10699 15
-163.76897 343 107.44973
-135.9238 -335.36304 0
-55 -349.52661 32.140381
-98.669373 343 105.51015
-164.17854 -343 60.306011
-190.28056 -139.10747 0
-225 281.76846 16.143349
225 -304.93924 91.539543
180.2966 -62.566727 0
86.438744 -135.24738 0
-177.84601 -357.45245 12.058558
39.363827 339 29.821598
-39.471241 275.95441 15
-216.93137 183.75 113.26506
209 176.76788 83.04248
-205 18.93084 101.63722
154.1337 -26.298016 15
40.148933 346.86517 116
-204.24922 -347.56302 120
205 177.01167 108.21644
54.326378 291.11292 15
-132.84833 254.00851 0
98.712097 -174.89655 15
-150.84152 -147.07535 0
32.517864 9.5806999 15
83.181824 231.9538 15
3.3019767 -262.46857 15
-76.852295 -95.191368 0
-119.15063 -11.92576 15
-53.158821 -352.24936 27
-164.47672 54.23867 15
-99.412292 -166.86975 15
58.405819 -229.92012 15
122.64638 237.22232 0
6.5363045 -221.99904 0
-66.472252 -359 18.428312
-222.17252 -134.8759 90.762802
-209 -244.79759 90.243683
46.077965 352.88226 27
-128.47415 -188.56244 0
168.83475 335.29193 15
-209 48.013107 79.413223
210.5275 -209.25014 27
-49.818916 236.18428 17.224588
137.80997 -339.00003 110.5668
-225 306.24353 110.58308
-205.08954 31.583038 118.56807
-222.80206 -347.96732 70.044571
-193.80284 -355.02267 13.740944
201.68973 -130.34335 0
31.124588 -255.07578 15
209 -18.424301 66.779434
-103.13734 346.22928 120
-185.15366 201.27792 30.283932
38.521523 -143.24048 15
73.840225 -43.617069 15
88.624054 318.53082 0
26.892265 126.46257 0
9.0541468 -224.90446 15
127.13526 -148.31834 0
-170.86755 -1.902889 8
-69.026985 -343 21.968481
-173.59448 -353.92059 27
93.921204 349.18274 119.99999
-138.14394 -94.286964 0
225 -64.015961 26.521816
131.73793 -277.09839 29.425451
-77.804741 -102.5668 15
22.003548 -208.63104 0
-186.99503 -138.78714 34.304626
-56.6824 292.26105 0
-209 307.87045 18.574133
58 351.65311 31.722153
-41.812168 333.10834 0
-13.946325 -257.72101 15
192.94754 -339 87.550095
-8.3164892 -101.63794 31.849512
209 -91.665894 41.11132
-80.484894 -275.83234 34.994602
-221.01828 -147.53748 13.791086
-11.086729 343 84.008858
129.77658 -302.05582 0
-176.32953 -274.71707 0
205 -196.93559 64.455734
-161.89264 339 32.29229
-112.32527 -6.7592173 0
144.32758 327.9317 24.498554
153.33336 119.0593 15
25.408432 276.3064 0
-94.515518 343 63.122475
-11.745288 147.11049 17.911373
131.35577 77.077728 15
-225 282.42816 14.732721
224.00621 14.783783 119.72771
-60.441803 29.829983 0
-222.97104 -72.456711 116
-197.82202 -44.696304 35
-205 304.8595 68.456429
-121.30106 343 33.832676
207.09079 -279.19073 120
-115.82898 339 86.750877
128.40242 149.47966 15
-46.957539 -137.17091 15
169.22266 339 69.426025
136.20638 343 33.0256
-219.42157 232.5 94.559898
-23.642736 77.864456 15
147.71007 343 51.487522
-23.692299 -274.04294 0
209 122.31606 102.36685
185.65817 139.9366 21.3624
213.30418 -136.62469 120
189.5368 -339 43.970367
-57.999996 -345.30057 88.36042
161.29926 -338.99997 115.82034
-30.920906 -138.29741 0
205.2178 159.7569 118.89245
-38.118401 274.90179 15
57.183414 151.79758 0
-84.29155 -104.39869 0
-155.22929 343 24.395512
-219.78217 117.22789 27
163.18515 74.786369 15
-198.91144 -145.08078 35
209 -35.99091 90.429962
-58.032196 -79.107529 15
-218.26958 -347.83807 24.716629
-103.22047 -128.14006 15
-112.05058 182.83336 0
127.51906 -286.70209 27.649626
102.31852 343.61981 93.5
-209 193.77922 26.228491
199.65091 359 80.811852
88.891945 154.1575 15
-162.98151 -232.86671 0
-126.59999 176.09123 15
14.982651 339 29.831549
-94.090897 -234.96884 15
69.460114 -229.21065 0
11.635983 -65.802383 19.160725
40.113384 -353.64505 27
-181.31012 299.27795 0
93.75425 -145.94437 15
-74.260513 -110.02738 15
23.134016 324.98495 34.960045
-123.49918 57.216145 26.236595
225 -295.44757 38.369114
80.555008 -161.98625 0
125.13535 343 56.947323
-87.796585 -229.17035 0
-204.51176 223.23499 35
221 -116.362 17.225109
-109.69884 -117.09525 15
-112.13898 151.58076 0
55 355.21967 58.479195
155.87697 -359 29.896368
-143.33266 -38.607769 0
58 -355.48892 111.15913
209 -6.4128475 49.96183
182.72813 -119.43235 23.052723
41.585781 -316.97797 15
-223.79414 154.31174 90.762802
205.36584 310.9165 119.13981
-176.61481 339 70.610634
-9.0505104 -300.77994 15
80.140434 75.080444 0
-130.45349 343 64.810051
-5.6358032 -355 21.273403
-17.914614 -139.96452 0
-107.48263 -343 81.717316
46.637653 293.22046 0
26.77673 -154.09631 0
-176.37976 -209.41293 15
205 177.40976 71.867165
-48.92852 161.11728 15
-33.676483 40.768478 0
79.026329 -123.80322 15
-182.32782 223.30032 18.746811
144.91782 34.16037 15.000001
22.784172 -140.42181 0
-174.28607 2.2930388 8
-0.6639207 68.763474 15
-91.292282 177.54828 0
-182.02341 291.63049 15.267536
-175.14127 343 12.402088
-63.280914 339 76.652168
-225 114.27017 116.82216
11.433924 279.28177 21.470268
10.098166 -343 49.911293
8.5833817 -339 43.167847
-104.66715 -82.08252 0
137.96251 -353.82358 27
-4.6842575 339 31.340837
-205 -194.96106 74.656349
77.400002 -347.00586 108.08483
-103.83178 -151.31216 15
-165 -357.27267 96.063408
-221.18608 246.57654 93.76281
-118.85275 339 109.7313
-209 -16.433739 91.049873
-25.249958 280.03888 15
1.943611 -157.64049 35
220.46564 105.62296 31
205 -132.09161 47.329517
44.271667 -339 92.992355
223.08353 110 106.88315
-225 242.76205 27.029808
103.18854 216.6917 15
209 -48.194366 85.843399
-173.54272 296.78461 0
205 -13.942863 68.272102
-225 -328.28577 46.003551
-184.94252 40.094475 0
100.48789 42.120964 30.187349
101.8 355.90656 103.24115
-77.477837 -26.550907 0
-142.09941 250.54848 15
-47.494022 -339 32.857559
-3.8152943 343 72.929077
190.98764 -188.35388 22.385265
31.54155 136.87271 15
-220.37503 -349.86749 12.221191
-69.280685 15.911278 0
35.943428 -261.47568 15
-38.370228 -278.65109 0
209 63.918911 101.87035
127.69089 112.36554 0
-205 180.87613 79.481949
-217.5835 -125.11213 27
21.557442 -242.07397 15
-130.48991 -70.528603 0
-224.66858 -217.79559 31
-131.0675 218.30893 15
90.160606 -343 46.991867
209 80.367165 47.180565
-205 -4.0238113 101.07343
-51.779686 -339 64.034073
-214.67505 210.625 95.268547
-204.99998 -165.54765 39.443657
13.447105 358.94379 118.44363
205 33.628193 28.952082
-88.296509 -245.1998 0
-54.949745 -191.92065 16.429256
223.96567 -127.96388 90.762802
-137.09926 -320.46814 15
-162.96658 236.32118 0
160.68277 -357.12497 12.010932
18.496014 -81.530167 0
138.8042 236.88358 0
12.326054 339 66.029297
219.33017 -107 96.362839
142.27019 -313.97391 0
4.2214813 343 76.626518
-209 -206.34735 76.942886
19.325792 184.08234 15
-205 -205.09171 97.623543
97.462837 -287.21548 26.23859
-200.79523 280.86179 35
-71.431335 -343 72.600487
-171.72464 -235.49026 0
-210.96161 212.87674 93.76281
119.72904 339 47.080063
99.300003 345.1488 107.36946
218.17798 208.125 108.18311
142.58997 -14.159111 30.262705
151.68623 71.83062 0
209 73.497192 40.03714
220.13786 -60.119991 27
-225.00002 -247.82213 117.03749
217.26497 27.894436 116
-83.933006 39.888885 0
223.65404 338.96768 119.88743
65.368431 -98.23452 17.411627
-209 -297.81964 20.646307
-51.501556 76.921074 15
-181.90701 -339 91.047119
