# .PCD v0.7 - Point Cloud Data file format
VERSION 0.7
FIELDS x y z
SIZE 4 4 4
TYPE F F F
COUNT 1 1 1
WIDTH 1354
HEIGHT 1
VIEWPOINT 0 0 0 1 0 0 0
POINTS 1354
DATA ascii
0.068207636 0.050633732 0.0043495521
0.090015545 0.053557821 0.0041191513
0.11087649 0.052646145 0.0057484466
0.13147712 0.050995257 0.0066137132
0.1509373 0.049278684 0.0082835779
0.16993576 0.05060219 0.0084210485
0.18976814 0.049676295 0.0078409072
0.20612082 0.049034543 0.0094146337
0.22245008 0.051245831 0.015366619
-0.22300029 0.070763752 0.015217295
-0.2063098 0.069921568 0.0090431534
-0.19067033 0.070924051 0.0059433952
-0.17020546 0.069824845 0.0061111096
-0.15088312 0.070364021 0.0077678538
-0.13037755 0.068975024 0.0091836695
-0.11016481 0.069356591 0.0095238043
-0.089376383 0.070718974 0.0073255799
-0.070457838 0.069765553 0.0067741908
-0.048770756 0.06942784 0.0069565186
-0.031304371 0.069880024 0.0068382323
-0.0099340128 0.0691493 0.0060638292
0.010660643 0.070072137 0.0074999975
0.030933294 0.070621595 0.0073333317
0.051821973 0.069772497 0.00833333
0.069142953 0.070489854 0.0083076879
0.089939117 0.069444843 0.0093103405
0.10834833 0.070995025 0.0062499992
0.13031164 0.069971196 0.008181816
0.14998309 0.071069628 0.006461536
0.17036068 0.068853453 0.0071739098
0.18961403 0.070514016 0.0069230748
0.2065855 0.069553398 0.0089070108
0.22285047 0.069451891 0.016407933
-0.22275749 0.087011375 0.015746117
-0.20719819 0.08901161 0.0076724351
-0.19041665 0.0896376 0.0081249969
-0.16984586 0.089530289 0.0069827558
-0.15044522 0.089531332 0.0084782559
-0.13126568 0.090263762 0.0063157878
-0.11040755 0.0895743 0.0068644043
-0.089626327 0.090947509 0.0052702702
-0.070958056 0.090242378 0.0068918918
-0.050260037 0.090009473 0.007808215
-0.031300042 0.090635009 0.0058064498
-0.0096040983 0.089442752 0.0084210485
0.0095254835 0.089604221 0.0084782578
0.028580455 0.088302068 0.0070161261
0.049978923 0.089605257 0.0067241355
0.069214344 0.08950194 0.0067647039
0.089309238 0.088874012 0.0071428539
0.11151732 0.088870265 0.0069999974
0.1296242 0.091269642 0.007499997
0.15122233 0.090204984 0.0067741908
0.16858853 0.089246243 0.0059302323
0.19004872 0.090459488 0.007391301
0.20687184 0.09095905 0.010202241
0.22382656 0.090160958 0.015829016
-0.22290194 0.10900036 0.015527943
-0.20660876 0.10932539 0.0088994112
-0.18963346 0.11022007 0.0093749966
-0.17097615 0.11272455 0.0083653815
-0.15039465 0.11030398 0.0070909066
-0.12922677 0.10975455 0.0079545416
-0.1100534 0.10963038 0.0077272691
-0.090415396 0.10998616 0.0064655151
-0.069514737 0.10980862 0.0054545444
-0.050213158 0.10958672 0.0068749986
-0.029961141 0.1106476 0.0093749957
-0.010698094 0.11098575 0.0076229475
0.011509256 0.11004888 0.0066176443
0.030601587 0.10986861 0.0063461522
0.050643787 0.10902056 0.0079411734
0.071165316 0.1094944 0.0076470561
0.090560332 0.10951766 0.0074999975
0.10994714 0.11068116 0.0059016375
0.13014385 0.11027617 0.0074999966
0.14985955 0.11049145 0.0062068948
0.16831851 0.1101842 0.007183095
0.19089413 0.110613 0.0094852885
0.20708248 0.11039372 0.0093783466
0.22265331 0.10948209 0.015006787
-0.22363113 0.132661 0.01553154
-0.20632993 0.13031296 0.0099150557
-0.19097741 0.13032551 0.010247957
-0.16998109 0.1303771 0.0063043451
-0.14973202 0.13015674 0.009446634
-0.13031073 0.13052681 0.0095444173
-0.10955025 0.12895486 0.0064925347
-0.089676723 0.13002205 0.0062999986
-0.070857123 0.13090543 0.0076262383
-0.048938271 0.13089627 0.007941287
-0.030359911 0.12910748 0.0069827558
-0.0093091112 0.12947899 0.0085349111
0.0097338809 0.12950495 0.007370058
0.029902386 0.13204403 0.0064285696
0.049546838 0.13027647 0.0093636429
0.069825269 0.1300403 0.0072996854
0.088811882 0.13078989 0.0079545416
0.11060476 0.12956548 0.0083898269
0.12955575 0.12943622 0.0078049321
0.15030599 0.13012737 0.0080836713
0.17110519 0.12941697 0.0076315757
0.18895337 0.13092935 0.0083466414
0.2068029 0.1306255 0.0095251827
0.22370145 0.13183673 0.01638855
-0.2234908 0.14926149 0.015492072
-0.20765504 0.15034792 0.0088200253
-0.18830685 0.15069272 0.0044440445
-0.16985427 0.15116206 0.0078688487
-0.14907639 0.14992006 0.0076925848
-0.13034999 0.15003665 0.0098821772
-0.11035291 0.14974408 0.0077272691
-0.089944161 0.14885755 0.0056557362
-0.069549017 0.14985916 0.007882758
-0.05013191 0.14945038 0.0080067506
-0.029810568 0.14966886 0.0073846122
-0.011558444 0.15026316 0.0058546248
0.012113594 0.15165131 0.0070625865
0.03024854 0.15061209 0.0073770462
0.05043909 0.15020564 0.0069232406
0.069622822 0.14969826 0.0073840097
0.088855207 0.15192111 0.0055263145
0.1090849 0.15001503 0.0073770462
0.12994485 0.15060429 0.0070930747
0.14915843 0.149859 0.010033779
0.16890234 0.1498971 0.0062999986
0.18581888 0.1517524 0.0063375602
0.20728683 0.15106857 0.0091689136
0.22257428 0.14900595 0.015699659
-0.22313698 0.16947861 0.016321145
-0.20778911 0.16896176 0.0083282506
-0.18784258 0.16963087 0.0034715722
-0.17047633 0.16867909 0.006122448
-0.14955942 0.16854507 0.0070408145
-0.12981616 0.17149927 0.0079411734
-0.10919894 0.17138056 0.0069767432
-0.090465367 0.16845387 0.006101693
-0.069994792 0.17083779 0.0087930989
-0.050782539 0.16990009 0.00914062
-0.03022461 0.16978401 0.0069444422
-0.01263889 0.16920035 0.0056689959
0.011515466 0.17118126 0.0060526212
0.030146914 0.16931662 0.0082075438
0.049558602 0.17024985 0.0059999982
0.069793247 0.17095937 0.0082499962
0.091001034 0.16911572 0.007499997
0.1105311 0.16905001 0.008534479
0.12928395 0.17030333 0.0076229475
0.1493535 0.17068881 0.0070161261
0.17013671 0.17018975 0.0088775475
0.18742207 0.16993999 0.0046278182
0.20726457 0.168695 0.0084555978
0.22254471 0.16943316 0.015599482
-0.22358276 0.18941101 0.016212542
-0.20823237 0.19207329 0.0080223996
-0.18822135 0.1899709 0.004379896
-0.16925083 0.18944487 0.0071186414
-0.15008286 0.19069912 0.0066666645
-0.12925954 0.18983625 0.0097499965
-0.11032145 0.18992355 0.0083035678
-0.090769902 0.19026326 0.0058928556
-0.069580808 0.18950574 0.0071186414
-0.049863238 0.18936993 0.0084210485
-0.030237317 0.18902457 0.0049999994
-0.010927712 0.18893771 0.0049166805
0.011440189 0.1903922 0.0065167393
0.031181134 0.18995716 0.0084999958
0.04952763 0.18891147 0.0085714236
0.070202768 0.18974252 0.0085074585
0.090241052 0.18849358 0.0067499974
0.11013097 0.18967207 0.0076229475
0.13083541 0.19148642 0.0073770462
0.15007019 0.19058156 0.0071311449
0.17039202 0.18975163 0.007249997
0.18798724 0.18926902 0.0045593614
0.20766817 0.18950313 0.0079055168
0.22340271 0.19029982 0.015445868
-0.22320093 0.21085435 0.014905529
-0.20769928 0.21118881 0.0082099177
-0.18778186 0.20940655 0.004246694
-0.17071524 0.21041605 0.0065999986
-0.14768109 0.20854717 0.007499997
-0.12972549 0.210563 0.0063970564
-0.11073251 0.20865807 0.0082191732
-0.089770854 0.20931555 0.0076229475
-0.069193833 0.20993699 0.010277772
-0.049964197 0.20996541 0.0088524548
-0.030243391 0.21010441 0.0068181795
-0.01307366 0.21036339 0.0070525412
0.01060789 0.21156585 0.0057065017
0.028471632 0.20900077 0.008644064
0.050636899 0.20969114 0.0068852431
0.069045432 0.21045497 0.0082758581
0.090120614 0.20969871 0.0064655151
0.10947283 0.21011981 0.0059999982
0.13046156 0.2096068 0.0073770462
0.15202712 0.21020173 0.0077083292
0.16950689 0.20962326 0.0073770462
0.18860637 0.20980735 0.0039320868
0.20803915 0.21008983 0.0081046382
0.22329588 0.20874012 0.016465075
-0.22221719 0.22927789 0.016254721
-0.20723276 0.22979671 0.0075241444
-0.18822552 0.22962469 0.0054473346
-0.16991609 0.22985999 0.0074999966
-0.14864685 0.22919147 0.0082417866
-0.13006781 0.22948571 0.0085943583
-0.11058336 0.22992401 0.0065624989
-0.088199064 0.22952518 0.0067021265
-0.069928132 0.23179255 0.0085068857
-0.048786487 0.23018652 0.0094080828
-0.029105857 0.22926222 0.007031247
-0.011727115 0.22938357 0.0058397632
0.011031954 0.2306281 0.006462343
0.030175511 0.23083673 0.0054310332
0.050983459 0.23080894 0.0090291817
0.069608226 0.22981352 0.0072502606
0.090110637 0.23007537 0.0074999966
0.10998145 0.22999482 0.0076271156
0.12978069 0.22968411 0.0078756539
0.15006271 0.23129041 0.0084598381
0.17102876 0.22918457 0.0059999996
0.18636331 0.23107989 0.0056098439
0.20828342 0.23002727 0.0079431301
0.22299546 0.22967076 0.01467191
-0.22335072 0.24917205 0.016140597
-0.20789905 0.24967706 0.0091020158
-0.18648814 0.25064674 0.0044763563
-0.16995652 0.24998896 0.0088888844
-0.14957519 0.24896127 0.007522258
-0.13045549 0.24886961 0.0071222773
-0.109439 0.24952134 0.0064285696
-0.089497663 0.24847826 0.0085384566
-0.070982613 0.25004479 0.0076316972
-0.050015401 0.24887863 0.0065739965
-0.030069638 0.24991111 0.008181815
-0.012312006 0.25063092 0.006926435
0.011505881 0.25044534 0.0070074131
0.029973825 0.24992356 0.0071311449
0.050036158 0.25053903 0.0084521538
0.06982372 0.25044709 0.0064063487
0.089875549 0.24938433 0.0062686545
0.10924883 0.25051257 0.0077884588
0.13094145 0.24945812 0.0066998573
0.14850296 0.24851084 0.0072833751
0.16933197 0.25018165 0.0083333291
0.18794794 0.25058797 0.0043913056
0.2074115 0.24968641 0.0071055838
0.22318178 0.24704859 0.015871169
-0.22289893 0.27045631 0.015673192
-0.20794031 0.27103135 0.0092738261
-0.1865637 0.26822212 0.0056678252
-0.16996017 0.27039823 0.0067968722
-0.14932351 0.26901054 0.0061764694
-0.12888017 0.26931202 0.010078119
-0.11002883 0.27043089 0.0082499962
-0.089571737 0.27073759 0.0066393418
-0.068871297 0.27042568 0.0068421029
-0.049882434 0.26894838 0.0056603765
-0.030077953 0.26944289 0.0079999967
-0.01315036 0.26918402 0.006585611
0.012975354 0.26938021 0.006117593
0.029844547 0.27026457 0.0093749948
0.050116744 0.27008101 0.0080555519
0.070307121 0.27031261 0.0085714245
0.089533783 0.26840684 0.0072413767
0.11104726 0.2702738 0.0057142843
0.13016249 0.27123722 0.0051818178
0.14973125 0.26906216 0.0086111072
0.16858307 0.27046317 0.0079245251
0.18842056 0.27042142 0.0015984802
0.20768119 0.26897591 0.0067536514
0.22265397 0.26806387 0.01532733
-0.22334713 0.29001001 0.015513756
-0.20732315 0.29037198 0.0079391962
-0.18853363 0.28917602 0.0052807722
-0.16910948 0.28981793 0.0063461522
-0.14896734 0.28945646 0.0059999991
-0.13027394 0.28922319 0.0079411734
-0.11013009 0.28970599 0.0076363608
-0.090074904 0.29026887 0.0074999966
-0.069587938 0.29089013 0.0058474559
-0.050408561 0.29025841 0.0077586174
-0.0289938 0.29056075 0.0091525381
-0.011573007 0.29061544 0.0074884621
0.011415454 0.29073623 0.0051909769
0.030222151 0.29080254 0.0066346135
0.049353838 0.28974643 0.0087735811
0.069578707 0.29000521 0.0078813527
0.089929819 0.29044765 0.0080769202
0.11006099 0.2896412 0.0068181795
0.13075319 0.28949547 0.0078358166
0.14992292 0.28819329 0.0087499963
0.16960342 0.2890667 0.0071538431
0.18910782 0.28923878 0.0049436525
0.20742086 0.29155573 0.00707414
0.22250351 0.28950614 0.015856016
-0.22251962 0.31025657 0.015990203
-0.20693973 0.30961135 0.0078538973
-0.18926749 0.31051165 0.0014753138
-0.16957659 0.30834475 0.0074268873
-0.14880148 0.30970323 0.0066037518
-0.13085277 0.30948091 0.0089473641
-0.1109896 0.31069657 0.0088524548
-0.089974798 0.30985436 0.005833332
-0.071599334 0.30947766 0.0078767212
-0.049881026 0.30909297 0.004355723
-0.028259749 0.30771652 0.0089789107
-0.012310122 0.30967295 0.0044092028
0.011975591 0.30702376 0.0050203972
0.028762406 0.30934173 0.0080386437
0.048726309 0.30897638 0.0066808364
0.070722371 0.31128299 0.0083935242
0.090473272 0.31068763 0.007499997
0.1100914 0.31086141 0.0080769202
0.13016702 0.31018808 0.0077884588
0.14940284 0.30843994 0.0066767698
0.16927908 0.30892128 0.0060938285
0.18889114 0.30996794 0.0020396793
0.20740165 0.30977708 0.0078308107
0.22350371 0.30997077 0.016334452
-0.22294824 0.33139452 0.01520596
-0.20628193 0.33170503 0.01284826
-0.18920504 0.33224651 0.010014754
-0.17018609 0.33036989 0.0090938983
-0.1482618 0.33160427 0.0085192109
-0.12961188 0.33017516 0.0088210786
-0.11087824 0.33135766 0.0081145139
-0.090276614 0.33136305 0.0077016684
-0.069468386 0.33017284 0.0067083621
-0.050824918 0.33235803 0.0087507125
-0.030013528 0.33237866 0.0093361512
-0.011035609 0.33264357 0.0076503474
0.01103525 0.33113667 0.0061305836
0.030195497 0.32996657 0.0078382362
0.049446102 0.33187154 0.0096763503
0.06975086 0.33055997 0.0087971259
0.090511017 0.3318128 0.008310644
0.11045987 0.32954168 0.0075247013
0.12920864 0.32889125 0.0090219984
0.1493354 0.33159751 0.0083684148
0.16900513 0.33124518 0.0080385972
0.18975991 0.33211324 0.0092562512
0.2070533 0.33037907 0.010576603
0.22318894 0.32989231 0.01589264
-0.22247924 0.34610099 0.015069165
-0.21008496 0.35160863 0.015499897
-0.18865678 0.35161245 0.014221901
-0.17145538 0.34841672 0.013422097
-0.15002699 0.35154101 0.013900298
-0.12661946 0.34848073 0.011476807
-0.11096753 0.34887797 0.013033797
-0.090272926 0.34902021 0.011858515
-0.070137441 0.34698418 0.0097706327
-0.047943685 0.3483519 0.012874353
-0.029318191 0.35003075 0.012838559
-0.0088388836 0.34883666 0.013752992
0.0098195206 0.35041174 0.013246761
0.030062692 0.34821427 0.011533662
0.050907999 0.34964639 0.011736319
0.070611298 0.34954458 0.012189456
0.08960212 0.34999385 0.012450018
0.10945702 0.34940553 0.012660559
0.13090079 0.34924126 0.012459673
0.15020099 0.34767908 0.012002551
0.17055219 0.35102886 0.014328894
0.18890691 0.35167226 0.015564491
0.20787518 0.35268384 0.015009615
0.22299142 0.34595093 0.016430499
-0.22277005 -0.34591123 0.030339964
-0.21148553 -0.35382912 0.027957993
-0.18998705 -0.35215446 0.026581252
-0.16921827 -0.35219672 0.027956162
-0.14980192 -0.35078162 0.027685752
-0.13109729 -0.34996089 0.027666839
-0.1095807 -0.35059243 0.028725054
-0.090491228 -0.35098842 0.02839344
-0.070426367 -0.35100856 0.02759782
-0.051012836 -0.35073492 0.029488206
-0.029932212 -0.34958553 0.028454687
-0.011073264 -0.34966281 0.027448406
0.0099096196 -0.35082564 0.02859821
0.02961145 -0.34970525 0.028112065
0.050204657 -0.35064989 0.029836876
0.069243304 -0.34982508 0.028574472
0.089484587 -0.35064849 0.028497342
0.11045606 -0.34965703 0.027648687
0.13058215 -0.35037786 0.029010469
0.14961734 -0.35004878 0.027798699
0.16866133 -0.35189232 0.027796086
0.19071674 -0.3544865 0.027137276
0.21003902 -0.35138875 0.028023578
0.22314206 -0.34575227 0.029988011
-0.22362344 -0.33188635 0.027180742
-0.20743676 -0.33104384 0.029563474
-0.19022617 -0.33887589 0.029175024
-0.16890529 -0.33899984 0.02888667
-0.15035367 -0.33899984 0.028537095
-0.12968509 -0.33899981 0.029027117
-0.11105767 -0.33899984 0.028179884
-0.091220535 -0.33899984 0.030264119
-0.071815684 -0.33899984 0.029629407
-0.051205669 -0.33899984 0.030264512
-0.028771829 -0.33899981 0.02984122
-0.011252005 -0.33899987 0.031302266
0.01146701 -0.33899984 0.031526048
0.030480234 -0.33899984 0.029476134
0.04931736 -0.33899987 0.029420581
0.069752753 -0.33899984 0.029975178
0.089913853 -0.33899981 0.028568415
0.10851915 -0.33899984 0.029572375
0.12872317 -0.33899984 0.028226938
0.15122557 -0.33899984 0.028773921
0.16906869 -0.3389999 0.030738313
0.18915392 -0.33887723 0.030222055
0.20829409 -0.32959786 0.028227493
0.22336422 -0.33123937 0.027280996
-0.2238652 -0.31088024 0.026907016
-0.20946503 -0.31102985 0.026886331
0.20717449 -0.30932537 0.027447693
0.22374317 -0.31006971 0.028668588
-0.22379999 -0.28909439 0.028473377
-0.20934193 -0.29045683 0.027510356
-0.12614034 -0.28564531 0.026924167
-0.1100982 -0.28632507 0.027400646
-0.089399263 -0.28627309 0.027452968
-0.069278806 -0.28546327 0.028841173
0.068922155 -0.28494596 0.028565185
0.092152126 -0.28649777 0.028004194
0.11043467 -0.28530264 0.029086651
0.12515192 -0.28542724 0.028611839
0.20908391 -0.29111242 0.027342856
0.2234087 -0.28964621 0.028054144
-0.22391553 -0.27090749 0.027667377
-0.21013325 -0.26877514 0.026492622
-0.12661862 -0.27433011 0.029677944
-0.1105951 -0.27312198 0.029991262
-0.088872679 -0.27348304 0.030112335
-0.068055145 -0.27381915 0.028541248
0.068773247 -0.27408028 0.029287692
0.088508412 -0.27240995 0.029040104
0.11228564 -0.27142695 0.026975693
0.12808414 -0.27405429 0.027082251
0.20793563 -0.26866698 0.02847494
0.22402173 -0.26958817 0.028573796
-0.22321951 -0.25141752 0.027743874
-0.21156639 -0.25171405 0.029902684
0.20989023 -0.25027296 0.031195909
0.22240384 -0.25050429 0.026123768
-0.22255118 -0.23164162 0.026349695
-0.20975375 -0.22974686 0.030208169
0.20898677 -0.22862092 0.029472074
0.22307664 -0.22826472 0.02541852
-0.22299878 -0.20879294 0.026347628
-0.21018057 -0.21072602 0.030512448
0.21031724 -0.2093046 0.029517727
0.22358619 -0.21110065 0.026169585
-0.22302946 -0.18944022 0.025984557
-0.20977664 -0.19082235 0.029964462
-0.18908963 -0.18580769 0.027999626
-0.0075579872 -0.18545862 0.025932861
0.0064431066 -0.18611711 0.02796136
0.18928184 -0.18569663 0.027589122
0.20950748 -0.19115099 0.030170923
0.22362371 -0.19146721 0.027142297
-0.22279109 -0.16955395 0.025644079
-0.21017697 -0.17001009 0.031660099
-0.18794166 -0.16961524 0.030354261
-0.0087139076 -0.16987665 0.027687307
0.0083245514 -0.16853964 0.029099664
0.18900746 -0.17085209 0.031574387
0.21124788 -0.1703994 0.030015431
0.22334762 -0.17012478 0.025792796
-0.22321878 -0.15024428 0.026332008
-0.21122053 -0.15010707 0.031120686
-0.18744566 -0.15008754 0.030797971
-0.0082605584 -0.14973147 0.029988106
0.0080736354 -0.14930063 0.029082241
0.18738517 -0.14865448 0.029904215
0.21068272 -0.15163673 0.030182458
0.22295947 -0.14997935 0.025215626
-0.22256957 -0.12931357 0.026670644
-0.21057691 -0.12962265 0.030610289
-0.18882097 -0.13100234 0.031261533
-0.0081331814 -0.13063644 0.029872028
0.0076746806 -0.13049228 0.029742759
0.18744843 -0.12933564 0.030349044
0.21047154 -0.129383 0.03061852
0.22308421 -0.12965804 0.026685588
-0.22337182 -0.11115007 0.027224686
-0.21117574 -0.10965095 0.031849548
-0.18911597 -0.10978721 0.03086542
-0.0083592022 -0.10973113 0.029120356
0.0072714118 -0.11105041 0.030885184
0.18847762 -0.11043244 0.030629396
0.21063387 -0.11001689 0.031806055
0.2232506 -0.11006492 0.029593511
-0.22333375 -0.089888848 0.02618067
-0.21057041 -0.089791626 0.031252939
-0.18867397 -0.091265574 0.030839307
-0.007766095 -0.089135431 0.030305589
0.008391792 -0.08980757 0.028425725
0.18975283 -0.08979895 0.030627666
0.21040878 -0.090089388 0.030464498
0.22309317 -0.089829043 0.025450312
-0.22314456 -0.069338791 0.025496362
-0.21021163 -0.069311373 0.03193346
-0.18869331 -0.070182808 0.031210441
-0.0073524998 -0.070375293 0.030135773
0.0081992606 -0.07020817 0.028925344
0.18789022 -0.07159441 0.029881092
0.21060556 -0.07089106 0.03131688
0.22296233 -0.068759844 0.02548228
-0.22272554 -0.050971307 0.026078135
-0.21028824 -0.050605517 0.03103181
-0.18937002 -0.049563646 0.030775964
-0.007657242 -0.050058454 0.030168744
0.0065357215 -0.049909003 0.031548165
0.18781143 -0.050807737 0.030685933
0.20909312 -0.050062943 0.031350221
0.22330813 -0.049757335 0.025576971
-0.22351053 -0.031143416 0.026053861
-0.21073599 -0.02989684 0.030870453
-0.18841958 -0.029635364 0.030603478
-0.0077518257 -0.028861705 0.02923578
0.0075066788 -0.029826226 0.030720457
0.18863368 -0.028717589 0.030841991
0.2104651 -0.028724121 0.03197271
0.22237496 -0.030743094 0.025574852
-0.22358494 -0.010307495 0.025616843
-0.20996687 -0.0084468722 0.030262975
-0.19016555 -0.0072059701 0.033157188
-0.17004974 -0.011148166 0.030285342
-0.14823833 -0.009976563 0.030260235
-0.062954299 -0.0088534132 0.026830282
-0.049021058 -0.010864929 0.030034907
-0.027278075 -0.0087878117 0.030648652
-0.0098301927 -0.008722675 0.032375127
0.010675468 -0.0087275133 0.032648526
0.029827833 -0.0092283338 0.030818038
0.049888372 -0.010174312 0.030596431
0.062706761 -0.0092522912 0.026788397
0.14771654 -0.0089085009 0.030247757
0.16945492 -0.0095184278 0.03076639
0.1891952 -0.0079355789 0.032868233
0.20989752 -0.0088652885 0.030942734
0.22267739 -0.010474043 0.025149601
-0.22285713 0.011627334 0.026645584
-0.21026604 0.0094105611 0.029325718
-0.18849796 0.00038273158 0.022055412
-0.16747431 0.00030474673 0.022946782
-0.15224952 0.00023197096 0.023778614
-0.050216626 0.00050196558 0.02069176
-0.029453216 0.00029757447 0.023028761
-0.012157827 0.00026732095 0.023374561
0.0084338514 0.00043119007 0.02150153
0.034215041 0.00019630379 0.024186291
0.053937122 0.00029764036 0.023018844
0.061121713 6.6555265e-05 0.021985024
0.15279977 0.00017559352 0.024416944
0.17290601 0.00017917539 0.024382068
0.19068743 0.00029549407 0.023052542
0.20991273 0.0097398516 0.029023726
0.22320366 0.012231096 0.026970441
-0.22321559 0.029020257 0.02686215
-0.20944153 0.029361675 0.029586885
-0.10663891 0.039681125 0.022136247
-0.088597804 0.039555021 0.021213977
-0.070096172 0.039721325 0.022038585
0.070846193 0.039717913 0.02200689
0.093015648 0.039698772 0.022308314
0.11358328 0.039659698 0.022060808
0.12433198 0.039542209 0.020661242
0.2098041 0.030351736 0.029352697
0.22307527 0.029945413 0.02504779
-0.22313114 0.049445074 0.025819683
-0.20954849 0.050297465 0.030852402
-0.12748706 0.048814043 0.030176558
-0.10993317 0.048348311 0.030605301
-0.090491712 0.051033683 0.029338643
-0.06913168 0.049418084 0.028637091
0.068282329 0.049376998 0.030405592
0.089473464 0.051552068 0.030284237
0.10941534 0.048501175 0.031175036
0.12758361 0.048682705 0.028817639
0.20968336 0.048812237 0.028876305
0.22321668 0.050616313 0.026076254
-0.2228917 0.069485858 0.027506387
-0.20967634 0.069077887 0.029019415
0.21003979 0.070308715 0.029512046
0.22300866 0.070565969 0.026018053
-0.22319275 0.089959182 0.026122941
-0.20993927 0.090626284 0.02881141
0.20972568 0.089649126 0.02966653
0.22321321 0.09062916 0.026120672
-0.22322325 0.1083814 0.027623847
-0.21027815 0.10959808 0.029741529
0.21145679 0.11028398 0.030528838
0.22364029 0.1099626 0.026725823
-0.22315492 0.13055046 0.026364889
-0.20932186 0.12977371 0.029778561
-0.19543289 0.13967508 0.022716235
-0.0037366028 0.13971673 0.023043146
0.0026335702 0.13971584 0.023181994
0.19127382 0.13969231 0.021827415
0.20925397 0.12897626 0.029216034
0.22333628 0.13081381 0.02658017
-0.22295234 0.14976756 0.026168818
-0.21008857 0.14894362 0.03075145
-0.18994044 0.14791431 0.030584982
-0.0072436668 0.14848842 0.029547811
0.0070257923 0.15021417 0.030392814
0.18888158 0.14940503 0.029844237
0.20870355 0.15016285 0.032107066
0.22302583 0.15144929 0.026379544
-0.22269471 0.16962768 0.026556427
-0.21053363 0.17048511 0.031099914
-0.18815152 0.16968863 0.029808236
-0.0082904762 0.17161191 0.029842794
0.0076410221 0.17151621 0.030129585
0.18836491 0.17054498 0.029925818
0.21130113 0.17015125 0.030051159
0.2237253 0.17045379 0.026593523
-0.22325389 0.19088872 0.027787291
-0.21080956 0.18867791 0.030390985
-0.1875892 0.19053909 0.031143989
-0.0084388033 0.19173194 0.028723683
0.0076943422 0.18912852 0.029337049
0.18781851 0.1891572 0.029748678
0.20944367 0.18966821 0.030874796
0.22312249 0.19048913 0.026072288
-0.22310244 0.20801471 0.025202064
-0.21016589 0.20978718 0.031075466
-0.18864773 0.21069454 0.030462584
-0.0078001819 0.20942388 0.030658355
0.0076595717 0.21179339 0.030524654
0.18691428 0.20899843 0.030331859
0.21038441 0.20971534 0.03055135
0.222636 0.2090262 0.025290795
-0.22360443 0.22910209 0.02622471
-0.21130067 0.23012911 0.031070666
-0.1887451 0.22838439 0.031165766
-0.0078809094 0.22947811 0.029622225
0.0082023172 0.22920276 0.029309964
0.18938968 0.23025259 0.031114608
0.20995821 0.22869734 0.030710606
0.22303593 0.22981602 0.026423763
-0.22383986 0.25091437 0.026413027
-0.21072803 0.25081673 0.030228212
-0.18894455 0.25118715 0.031147128
-0.0079082698 0.25168905 0.029197851
0.0075684539 0.24788614 0.030196523
0.18837671 0.2502431 0.030274699
0.20985985 0.25088111 0.031278696
0.22312719 0.25072441 0.026122222
-0.22373396 0.26954991 0.029361954
-0.20987576 0.26923612 0.030530566
-0.18883653 0.26911896 0.031634163
-0.0078468584 0.26974347 0.029528864
0.0075510982 0.26920608 0.030273795
0.18913452 0.26976949 0.03051552
0.21125999 0.26947296 0.02995828
0.22403824 0.27107802 0.028593272
-0.22390455 0.29057044 0.029548874
-0.20839782 0.29124358 0.03088993
-0.18844967 0.28997359 0.030621992
-0.0083510904 0.28910986 0.029306591
0.0085052494 0.28993168 0.028523834
0.18961008 0.29133934 0.032234464
0.20732597 0.28872105 0.03108401
0.22369426 0.29045689 0.02890748
-0.22391158 0.30946904 0.02855414
-0.20841824 0.30886737 0.029993968
-0.18756664 0.31029588 0.032132689
-0.16833815 0.31234691 0.028726259
-0.14948694 0.31421182 0.029898096
-0.063049823 0.31468627 0.027005643
-0.052436233 0.31267789 0.028577097
-0.030139921 0.31225738 0.028452793
-0.0092070689 0.3105846 0.03207048
0.011732233 0.31106818 0.030544821
0.02799809 0.31291434 0.029909119
0.051409669 0.3126857 0.028751643
0.063018709 0.31479123 0.027256345
0.14978601 0.31297562 0.02834033
0.16937207 0.31178135 0.028301379
0.19130649 0.31052315 0.03293746
0.21060611 0.31055164 0.029421771
0.22407106 0.30974939 0.029672155
-0.22408701 0.33073577 0.028885679
-0.20744428 0.33023176 0.027093217
-0.19019924 0.33307183 0.029782018
-0.17056409 0.33272997 0.029619938
-0.14886805 0.33184347 0.030089306
-0.13116409 0.33899984 0.029783806
-0.10965914 0.33899987 0.030347154
-0.090504177 0.33899984 0.029095173
-0.066987805 0.33456168 0.027662577
-0.050997991 0.33269694 0.029621888
-0.029123813 0.33178651 0.028904025
-0.010614904 0.33325967 0.028111206
0.010191531 0.33295274 0.029246872
0.030476192 0.33073875 0.030429922
0.049869642 0.33274603 0.029676381
0.068337686 0.33535996 0.028696759
0.089798048 0.33899984 0.027504921
0.11015326 0.33899987 0.029599976
0.12776957 0.33899984 0.029745644
0.14958459 0.33130705 0.030125903
0.17046094 0.33249807 0.0301273
0.19018781 0.332578 0.027961101
0.20800053 0.33096737 0.027850846
0.22390029 0.33005106 0.027463384
-0.2228853 0.34543806 0.031969253
-0.20974131 0.35265827 0.027771026
-0.19029607 0.35287577 0.026815563
-0.16821259 0.35263288 0.029703904
-0.14955628 0.35023293 0.028226973
-0.12932158 0.35061148 0.028275907
-0.11139466 0.34929371 0.028456626
-0.090017594 0.34943563 0.028563321
-0.069691703 0.35009918 0.028824862
-0.050879098 0.35152867 0.028463576
-0.029885191 0.35080627 0.028104737
-0.010618879 0.35023239 0.027817771
0.010525848 0.35152897 0.028855255
0.02914563 0.35119367 0.027361512
0.051025502 0.35065243 0.030263713
0.069533095 0.35051316 0.028876791
0.090723805 0.34952173 0.028589552
0.11035772 0.35021636 0.029191809
0.12992002 0.35104153 0.028121363
0.14993487 0.35070008 0.028827408
0.16853094 0.35276914 0.028675735
0.18912248 0.35327828 0.027240222
0.21016061 0.35264695 0.028285436
0.22266081 0.34672871 0.030604305
-0.22321495 -0.34609804 0.047408901
-0.21107931 -0.35695991 0.048562028
-0.18954849 -0.35900006 0.05058356
-0.16804768 -0.35278717 0.049448419
-0.1512939 -0.34300002 0.051099509
-0.12876464 -0.34300005 0.050440922
-0.109942 -0.34299996 0.047687817
-0.09054517 -0.34299999 0.049945146
-0.068365455 -0.34300014 0.050214212
-0.053731158 -0.34926537 0.050037757
-0.028306056 -0.34299996 0.047930505
-0.010217007 -0.34300008 0.049854904
0.0091076596 -0.34300011 0.049291205
0.029639067 -0.34299999 0.052465677
0.054127131 -0.34850132 0.049272574
0.069519944 -0.34299999 0.049125418
0.089259565 -0.34300002 0.051093094
0.11114143 -0.34300017 0.049720068
0.12896191 -0.34300008 0.049188219
0.14890163 -0.34300008 0.051799498
0.16650325 -0.3515093 0.049247161
0.19082282 -0.35900012 0.050111677
0.21056235 -0.35714921 0.050932467
0.22325762 -0.34628156 0.050400808
-0.22499588 -0.33022681 0.050719779
-0.20352899 -0.33151147 0.049124856
-0.190128 -0.33889589 0.050434303
-0.16978051 -0.33899987 0.049324512
-0.1520967 -0.3389999 0.049126796
-0.13135642 -0.33899987 0.050224021
-0.10990299 -0.33899984 0.048808787
-0.08906202 -0.33899987 0.049665909
-0.072242625 -0.33899987 0.050859366
-0.05158345 -0.33899984 0.050163943
-0.032287896 -0.33899987 0.050641358
-0.0112821 -0.33899987 0.051658187
0.011575534 -0.33899984 0.04980965
0.030137775 -0.33899984 0.051450837
0.048905246 -0.33899984 0.048867345
0.071745105 -0.33899987 0.04982907
0.090122126 -0.33899984 0.051461685
0.10927832 -0.33899984 0.051051166
0.13177717 -0.3389999 0.050022665
0.14883856 -0.33899993 0.049120802
0.16959102 -0.33899981 0.049962252
0.19065733 -0.33877456 0.050112486
0.20393308 -0.32952273 0.050469134
0.22499825 -0.33122081 0.049776539
-0.22499993 -0.31041366 0.050896745
-0.20499995 -0.31088072 0.051267926
0.20499995 -0.31061825 0.052291315
0.22499993 -0.3101005 0.050523799
-0.22499993 -0.28918153 0.051288113
-0.20499995 -0.29196048 0.05003605
0.20499997 -0.28840458 0.048549429
0.22499993 -0.28983021 0.050395038
-0.22499993 -0.27060303 0.051239315
-0.20499997 -0.27042195 0.048816733
0.20499995 -0.26990175 0.049634416
0.22499993 -0.26966381 0.049399268
-0.2216749 -0.25999999 0.050940961
-0.20860545 -0.25186267 0.05057469
0.20906954 -0.25161844 0.0493518
0.22155209 -0.25999999 0.050378181
-0.20734474 -0.2285998 0.050293341
0.2067692 -0.23076279 0.051153526
-0.2066507 -0.21088189 0.050438408
0.20722213 -0.21021681 0.050252236
-0.20676741 -0.19108427 0.050356414
0.20686199 -0.19013125 0.049967285
-0.20678565 -0.16981734 0.050277013
0.20694438 -0.17074624 0.049956221
-0.20707135 -0.14950515 0.050227672
0.20673579 -0.14942171 0.051183816
-0.20691296 -0.12989007 0.051728807
0.20744058 -0.12923166 0.049201962
-0.22349277 -0.10811254 0.0494623
-0.20871015 -0.10963222 0.050596017
0.20924638 -0.11053356 0.0495224
0.22299033 -0.10856734 0.051495075
-0.20704992 -0.089886785 0.049192078
0.20725796 -0.089561939 0.051442496
-0.20726088 -0.069052324 0.050727021
0.20723721 -0.071740404 0.048988812
-0.20732829 -0.049703401 0.050279368
0.20685706 -0.049758751 0.050830189
-0.20708683 -0.030211266 0.050909467
0.20677771 -0.029857526 0.049541183
-0.20661187 -0.010072961 0.04923163
0.20721422 -0.0096709579 0.050095681
-0.206836 0.010076494 0.050041549
0.20682448 0.010391251 0.050496511
-0.20696072 0.029691968 0.04932626
0.20732722 0.03010069 0.050376099
-0.20691037 0.051072557 0.050026733
0.20724234 0.048785947 0.049827505
-0.20681126 0.071813151 0.050064601
0.20737672 0.070116788 0.050652411
-0.20702891 0.09037713 0.049166244
0.20699997 0.091153175 0.049608272
-0.22258213 0.10869121 0.047198653
-0.20990711 0.10888473 0.049863625
0.20926549 0.11012324 0.048446458
0.22294284 0.10848915 0.049086258
-0.2073999 0.13158651 0.049538687
0.20699997 0.13042116 0.047681462
-0.20696819 0.14880627 0.050291061
0.2070289 0.15078354 0.049745202
-0.20718864 0.17018946 0.051738739
0.20703766 0.16930105 0.048931636
-0.20664279 0.18968801 0.050204102
0.20752624 0.19040504 0.050788935
-0.20673327 0.21016379 0.050094903
0.20696713 0.20845754 0.050072532
-0.20714483 0.22926593 0.049899697
0.20731996 0.22941521 0.05048456
-0.20691539 0.25004157 0.050581571
0.20667268 0.251084 0.050034609
-0.22436352 0.2678619 0.049463183
-0.20810387 0.26649603 0.049529243
0.20933895 0.26606163 0.050421946
0.2242171 0.26722336 0.050484605
-0.22499993 0.28948289 0.051238816
-0.20499997 0.28946629 0.052280881
0.20499997 0.29030472 0.048239216
0.22499995 0.28979042 0.050457288
-0.22499993 0.31008676 0.049373023
-0.20499995 0.31097203 0.051005211
0.20499995 0.31214547 0.050295264
0.22499993 0.31036171 0.05111846
-0.22499572 0.32988733 0.051783513
-0.20413765 0.33004811 0.050909784
-0.18896067 0.33892646 0.05171394
-0.16917805 0.33899984 0.050118215
-0.14850777 0.33899987 0.049086399
-0.13034594 0.33899987 0.04964079
-0.11012263 0.33899984 0.05095531
-0.088710323 0.33899984 0.050971422
-0.069539331 0.33899984 0.049989507
-0.049348358 0.33899987 0.049494352
-0.029848548 0.33899987 0.051591258
-0.0086258082 0.33899984 0.051498741
0.012650085 0.33899984 0.049392901
0.028936349 0.3389999 0.05045028
0.048789285 0.33899984 0.049181934
0.06809178 0.33899984 0.050852194
0.090744868 0.3389999 0.052970212
0.10945945 0.33899984 0.047813028
0.12770198 0.33899987 0.049213439
0.14927945 0.33899984 0.050014123
0.16840352 0.33899984 0.049392607
0.18789203 0.33895269 0.049332909
0.20410566 0.32915336 0.050098985
0.22499587 0.32923749 0.048959784
-0.22322033 0.34610221 0.050366491
-0.21040344 0.35733762 0.050000347
-0.18925603 0.35900012 0.051527955
-0.16912651 0.35393617 0.050287869
-0.15035327 0.34299999 0.050597347
-0.13050804 0.34300005 0.052118089
-0.11018568 0.34300008 0.049924098
-0.092569456 0.34299996 0.049657535
-0.07174743 0.34300014 0.049684573
-0.05475457 0.34974515 0.05006865
-0.030232158 0.34299999 0.050899733
-0.010368934 0.34299999 0.049597502
0.0085108401 0.34300011 0.050922133
0.030118492 0.34300005 0.051223207
0.053974878 0.34933123 0.04888748
0.067968033 0.34299996 0.049662616
0.089685552 0.34299999 0.049646776
0.11021838 0.34299996 0.05062741
0.12830874 0.34300005 0.050083842
0.14914219 0.34300014 0.050299507
0.16683148 0.35241115 0.050379686
0.18996191 0.35900012 0.049010012
0.21105623 0.35696444 0.050012331
0.22281538 0.34714714 0.049046807
-0.22376738 -0.34483707 0.071345679
-0.20918569 -0.35752785 0.069909476
-0.18892001 -0.35900009 0.068313159
-0.16894494 -0.35477251 0.069245413
-0.15054278 -0.34300011 0.069445431
-0.13029954 -0.34300005 0.071157061
-0.1120154 -0.34299996 0.069372013
-0.091668978 -0.34299999 0.071426153
-0.070748612 -0.34299996 0.069974713
-0.053501077 -0.34817341 0.07048928
-0.031059809 -0.34299996 0.06978935
-0.009919405 -0.34300005 0.071262695
0.0093877129 -0.34300011 0.070911966
0.031070147 -0.34299999 0.068892203
0.05404263 -0.34969607 0.069928847
0.070288584 -0.34300008 0.070006192
0.091389664 -0.34299996 0.070931599
0.11030852 -0.34300008 0.071626015
0.1306206 -0.34299999 0.071521617
0.15027672 -0.34299996 0.068507493
0.16816127 -0.35261652 0.070686288
0.1917538 -0.35900012 0.070025496
0.21123797 -0.35693011 0.070858486
0.22327951 -0.34618574 0.070257433
-0.22499743 -0.33115172 0.069461666
-0.20361136 -0.33113107 0.069250561
-0.18954137 -0.33885017 0.070694692
-0.16678378 -0.33899987 0.070434637
-0.15025604 -0.33899984 0.069397122
-0.12976144 -0.33899981 0.067715012
-0.11054035 -0.33899984 0.0714752
-0.090732098 -0.33899984 0.071227618
-0.067752033 -0.33899987 0.068933666
-0.052379258 -0.33899984 0.070592508
-0.030735563 -0.33899984 0.069802992
-0.0097746309 -0.33899984 0.069684133
0.011110148 -0.33899987 0.070298217
0.02994097 -0.33899984 0.071668096
0.049243324 -0.33899981 0.067917183
0.070917353 -0.33899984 0.071331106
0.08795166 -0.33899984 0.071682483
0.10984497 -0.33899984 0.070010297
0.13018601 -0.3389999 0.070177667
0.14819039 -0.33899984 0.071263351
0.16880007 -0.33899987 0.070612237
0.18842517 -0.338976 0.069653906
0.2041131 -0.32925791 0.070232041
0.22499306 -0.33015466 0.06950786
-0.22499993 -0.31205216 0.070848286
-0.20499997 -0.3094452 0.069222644
0.20499995 -0.31070092 0.070163451
0.22499993 -0.30906117 0.070634328
-0.22499993 -0.28925058 0.070005283
-0.20499997 -0.29046342 0.071125649
0.20499995 -0.28970295 0.069197468
0.22499993 -0.28815007 0.070953906
-0.22499993 -0.27026662 0.06985496
-0.20499995 -0.27121967 0.070556611
0.20499995 -0.27085865 0.071948797
0.22499993 -0.26994407 0.070625752
-0.22190306 -0.25999999 0.071784362
-0.20831677 -0.25124273 0.069787428
0.20841411 -0.25172499 0.071012221
0.22266953 -0.25999999 0.071047857
-0.20708947 -0.22999358 0.069001824
0.20686202 -0.23165542 0.068400808
-0.20714916 -0.2097386 0.070274778
0.20667996 -0.21061324 0.070227288
-0.20672408 -0.18994531 0.07110405
0.20670484 -0.19008669 0.071215399
-0.20686661 -0.16997029 0.07019385
0.20667736 -0.17133734 0.070205964
-0.20662495 -0.15119588 0.069411226
0.20696817 -0.15064625 0.069258019
-0.20702808 -0.12951399 0.069429293
0.20695914 -0.12864207 0.068705745
-0.22336425 -0.10790522 0.071092844
-0.20994352 -0.1091992 0.070497409
0.21053579 -0.11030115 0.071103826
0.22294806 -0.10909116 0.069657139
-0.20706442 -0.089118592 0.070986509
0.20696713 -0.090232499 0.070349358
-0.20720404 -0.070726469 0.069596469
0.20693327 -0.07024955 0.069941215
-0.20666033 -0.049988504 0.070899136
0.20699996 -0.048672795 0.069091722
-0.20706241 -0.029746221 0.070188865
0.20729405 -0.030823637 0.069624893
-0.20679702 -0.0096663656 0.069417022
0.20708947 -0.010052104 0.069234766
-0.20729785 0.01028479 0.071060717
0.20702977 0.0097774751 0.069855586
-0.20729402 0.030012786 0.069878958
0.2072545 0.030856075 0.068504937
-0.20756599 0.049924858 0.069632962
0.20683044 0.049751997 0.069752693
-0.20666659 0.06948328 0.070102602
0.20717637 0.070547596 0.069865398
-0.20699996 0.091332935 0.070658647
0.20717537 0.089943804 0.068952769
-0.22336075 0.10803504 0.068930291
-0.2094343 0.10922077 0.069866404
0.20935522 0.1096234 0.069990233
0.22345476 0.1080175 0.069362134
-0.2062631 0.12920348 0.070115104
0.20710903 0.12900919 0.070545241
-0.20699994 0.15206638 0.070437104
0.20667557 0.15130955 0.070383899
-0.20693538 0.16920616 0.069665402
0.20696223 0.17014052 0.069049679
-0.20696223 0.19132175 0.070694223
0.20703381 0.189711 0.069020599
-0.20682453 0.2108853 0.06925495
0.20728564 0.20955975 0.069660723
-0.20732249 0.22969033 0.069840565
0.20658486 0.23087296 0.069993556
-0.20683329 0.2508432 0.070793696
0.20696819 0.24961494 0.070179023
-0.22487423 0.26889685 0.069467261
-0.20943852 0.26524892 0.069363087
0.20825455 0.26739714 0.070396058
0.22473206 0.26775363 0.069094747
-0.22499993 0.28867084 0.069253899
-0.20499997 0.28951904 0.069347546
0.20499995 0.29224065 0.070209391
0.22499993 0.28915751 0.069930963
-0.22499993 0.31007111 0.070797518
-0.20499995 0.30826014 0.068527907
0.20499997 0.30958614 0.069311231
0.22499993 0.31044379 0.071076207
-0.22499716 0.33033079 0.069021195
-0.20419022 0.32951334 0.069022417
-0.19015007 0.33888587 0.069138594
-0.17052419 0.33899984 0.069683619
-0.14956842 0.33899987 0.070904717
-0.12868769 0.33899987 0.070374325
-0.1073733 0.33899984 0.070639357
-0.088056602 0.33899987 0.068374343
-0.070492528 0.33899984 0.070747964
-0.052166514 0.3389999 0.06920816
-0.030299025 0.33899984 0.070111088
-0.0092711179 0.33899984 0.069450527
0.0098544629 0.33899984 0.070439503
0.02988103 0.33899984 0.069420353
0.051948551 0.33899987 0.070591457
0.070033208 0.33899987 0.069969378
0.091460817 0.33899987 0.07190872
0.10952984 0.33899984 0.070892841
0.13101909 0.33899993 0.069735222
0.14911695 0.33899984 0.069853313
0.16984776 0.33899987 0.070681393
0.18982241 0.33892384 0.070833646
0.20388271 0.33089158 0.071349092
0.22499965 0.32911518 0.069888502
-0.22253126 0.34741706 0.070275217
-0.21038851 0.35720903 0.070366114
-0.18941218 0.35900012 0.069523051
-0.1681276 0.35343817 0.06982737
-0.15087265 0.34300002 0.069522545
-0.1299682 0.34300014 0.069042638
-0.10976917 0.34300002 0.070519343
-0.092393063 0.34299996 0.067513071
-0.069077976 0.34300002 0.072749473
-0.054739758 0.34910673 0.070163615
-0.030989556 0.34300002 0.070301034
-0.009935271 0.34300011 0.071104921
0.0094794566 0.34300002 0.073004059
0.028495006 0.34300008 0.069154166
0.054147206 0.34953898 0.070124306
0.069627047 0.34300008 0.070358425
0.090065576 0.34299996 0.068164915
0.10832402 0.34300008 0.068848342
0.13034554 0.34300005 0.070353612
0.14913437 0.34300011 0.068404458
0.16804971 0.35311574 0.069274649
0.18998685 0.35900012 0.071960397
0.20940998 0.35748145 0.070082188
0.22365625 0.34497929 0.070729047
-0.22314024 -0.34605229 0.091179937
-0.21335268 -0.3561919 0.089716487
-0.1910969 -0.35900012 0.089401767
-0.16696395 -0.35260609 0.089723259
-0.14946014 -0.35014936 0.093803816
-0.12915117 -0.34990728 0.093846701
-0.10904749 -0.34972718 0.09323553
-0.090123311 -0.34872875 0.093167834
-0.070505977 -0.34960693 0.094014749
-0.054359738 -0.3487286 0.089495741
-0.03031528 -0.34300008 0.090707153
-0.010447088 -0.34300011 0.090099774
0.011764317 -0.34299996 0.091954529
0.032075565 -0.34299996 0.087515272
0.0533644 -0.34842226 0.090560913
0.069968954 -0.34804538 0.093379095
0.08927872 -0.34958524 0.093356475
0.11008938 -0.34869823 0.093449585
0.12935881 -0.34955636 0.094260499
0.14949849 -0.34862956 0.092802964
0.16660507 -0.35287639 0.091083393
0.18842548 -0.35900012 0.091693252
0.21018551 -0.35737547 0.091728285
0.22334149 -0.34604818 0.085446022
-0.22499315 -0.33142021 0.088766865
-0.20428824 -0.32923028 0.090761982
-0.19294842 -0.338774 0.089821354
-0.17094214 -0.33899984 0.090673864
-0.15000795 -0.33899981 0.089018889
-0.12999901 -0.33899987 0.088167556
-0.11087158 -0.33899984 0.090305209
-0.088769451 -0.33899984 0.088084497
-0.070242569 -0.33899984 0.09172003
-0.049813464 -0.33899984 0.088707767
-0.029859478 -0.33899987 0.090185456
-0.0088087432 -0.33899984 0.090919048
0.012082938 -0.33899984 0.088091351
0.03005713 -0.33899984 0.089613996
0.049494863 -0.33899984 0.090300106
0.069113806 -0.3389999 0.089153111
0.088232398 -0.33899987 0.092839502
0.11075331 -0.33899987 0.091801874
0.13083698 -0.33899984 0.089627907
0.14825787 -0.33899987 0.087216541
0.16989952 -0.33899987 0.087381497
0.1912871 -0.33886158 0.091548316
0.20323589 -0.33094084 0.092668749
0.22499993 -0.32978302 0.090249203
-0.22499995 -0.31069526 0.091935925
-0.20499995 -0.31124985 0.088982277
0.20499997 -0.31064254 0.090851657
0.22499999 -0.31016779 0.089307107
-0.22499993 -0.28956419 0.090477012
-0.20499995 -0.28925374 0.089972116
0.20499995 -0.29010198 0.091064028
0.22499995 -0.29174042 0.092845812
-0.22499993 -0.26999745 0.090085678
-0.20499995 -0.27101931 0.090006486
0.20499997 -0.2721307 0.089145653
0.22499993 -0.26939717 0.090670764
-0.22246441 -0.25388515 0.091904037
-0.20944268 -0.24985498 0.090541013
0.20940328 -0.25164106 0.090712786
0.22188964 -0.25338989 0.092152797
-0.22265802 -0.22796941 0.093369961
-0.20959596 -0.22819529 0.090739779
0.21046363 -0.23057701 0.092227153
0.22265725 -0.22796772 0.093379803
-0.22278854 -0.20894372 0.094492741
-0.20968728 -0.21025397 0.091869555
0.20981337 -0.21087679 0.091185234
0.22292657 -0.2118507 0.093162723
-0.22253773 -0.18772306 0.094288044
-0.21038999 -0.18977802 0.092125751
0.21015143 -0.18924919 0.091238298
0.22342493 -0.19051996 0.094049476
-0.22316583 -0.16907389 0.093173541
-0.2106716 -0.16909881 0.090137079
0.21009748 -0.16969873 0.091667354
0.2226405 -0.16776726 0.093275771
-0.22378723 -0.15168744 0.092293665
-0.20949131 -0.150877 0.091441423
0.20958468 -0.15015079 0.092409596
0.22301923 -0.1536759 0.093280748
-0.22289667 -0.13007776 0.093226857
-0.20930015 -0.13053392 0.091722593
0.2101512 -0.13033231 0.090849757
0.22311659 -0.13174263 0.093047239
-0.22280186 -0.11016488 0.090370968
-0.21071123 -0.11044194 0.090239652
0.21066186 -0.11057029 0.089725159
0.22281446 -0.11050967 0.092342958
-0.2068412 -0.089876778 0.08953286
0.20688564 -0.091896683 0.089559413
-0.20677133 -0.069581233 0.089111447
0.20690905 -0.069990285 0.090667039
-0.20703632 -0.049174 0.089765109
0.20687871 -0.049886569 0.089691378
-0.20650719 -0.03045704 0.090049289
0.20711417 -0.029653579 0.088488065
-0.20699991 -0.010084279 0.089143597
0.20670485 -0.0093427189 0.090069138
-0.20731995 0.01021255 0.09084563
0.20666033 0.0096130474 0.089448847
-0.20666149 0.030166687 0.088377289
0.20707405 0.029360935 0.089822009
-0.20718864 0.050487068 0.090723313
0.20697322 0.049331848 0.090240069
-0.20655216 0.068674274 0.090837248
0.20724556 0.068982646 0.089571968
-0.20691293 0.089511722 0.088983901
0.20716384 0.09091071 0.089858964
-0.22310112 0.11035673 0.091700293
-0.21061188 0.11145774 0.089479677
0.21034007 0.11011947 0.089365944
0.22333074 0.11049061 0.08958254
-0.22295442 0.13238941 0.093665548
-0.2094636 0.13046837 0.090808108
0.2104314 0.13048606 0.092639364
0.22275095 0.13346294 0.093756936
-0.22273064 0.15119039 0.092488617
-0.2103226 0.15054077 0.090719707
0.21050119 0.15118384 0.090823114
0.22323367 0.15097344 0.09309759
-0.22331458 0.16756463 0.093889408
-0.20980763 0.16966559 0.090439819
0.20965365 0.1701522 0.089620635
0.22292966 0.16709422 0.093892723
-0.22274025 0.18731809 0.093511008
-0.21067877 0.18987574 0.091432303
0.2099034 0.18989338 0.091700837
0.22263117 0.18986966 0.093231797
-0.22321381 0.21006764 0.093517147
-0.21080755 0.21023086 0.09103436
0.21034366 0.20966363 0.091418907
0.22296202 0.20969377 0.093585648
-0.2229038 0.23136911 0.092603959
-0.20977618 0.2298494 0.090038121
0.21001616 0.22974992 0.090646341
0.22286586 0.23002169 0.093941368
-0.22326009 0.25058639 0.092080489
-0.20966028 0.25039002 0.091319762
0.21008866 0.25014114 0.090309784
0.22248849 0.25267735 0.0916114
-0.22485431 0.26986733 0.089352876
-0.20680726 0.2663703 0.08876963
0.20765309 0.26624364 0.08870779
0.22458489 0.26997343 0.088811249
-0.22499993 0.28915054 0.08944694
-0.20499995 0.29073253 0.089728162
0.20499995 0.28923509 0.0918364
0.22499993 0.28943634 0.089868501
-0.22499995 0.30731893 0.091863081
-0.20499995 0.31197062 0.08823096
0.20499995 0.31038022 0.089091055
0.22499993 0.31132331 0.09010794
-0.2249971 0.33138794 0.088008411
-0.20425352 0.3279081 0.087411985
-0.19114006 0.33880764 0.090674028
-0.16908784 0.33899984 0.090689108
-0.14943233 0.33899984 0.090811312
-0.13035171 0.33899984 0.088805236
-0.1104824 0.33899993 0.088218085
-0.090596683 0.33899984 0.090130672
-0.070960984 0.33899984 0.089958131
-0.05016508 0.33899981 0.089851163
-0.029703937 0.33899987 0.088948108
-0.0099497382 0.33899987 0.090896048
0.010996392 0.33899984 0.089289375
0.027907761 0.33899984 0.089090563
0.05129021 0.3389999 0.089368857
0.071502104 0.33899984 0.091403358
0.089016505 0.3389999 0.089842923
0.10965471 0.33899987 0.089629114
0.12960283 0.33899984 0.090168901
0.14830163 0.33899987 0.08882679
0.17016719 0.33899984 0.090685628
0.18914415 0.33896953 0.087601677
0.20418939 0.32844904 0.08855065
0.22499682 0.33053651 0.089197859
-0.22353105 0.3453345 0.089070342
-0.21121185 0.35716262 0.088201538
-0.18988086 0.35900009 0.090284623
-0.16708086 0.35396999 0.091033749
-0.14908545 0.34872636 0.092332758
-0.12897743 0.3484548 0.092465922
-0.11078035 0.3496559 0.094021067
-0.090740308 0.34882149 0.093252912
-0.071455911 0.34903234 0.093359716
-0.054474976 0.34903046 0.091328323
-0.030209465 0.34300005 0.089087851
-0.0099952761 0.34299999 0.090718545
0.0097623784 0.34299996 0.090687618
0.031969778 0.34300008 0.088758655
0.054569677 0.34955892 0.08981654
0.071407743 0.3503052 0.094138533
0.089888252 0.34823075 0.093360923
0.11015238 0.34824392 0.092341475
0.13022304 0.34828544 0.093378551
0.14913802 0.34901553 0.093842827
0.16631046 0.35302901 0.090323806
0.19038379 0.35900009 0.089713775
0.20969392 0.35754406 0.089317143
0.22351933 0.34550959 0.08936213
-0.22278652 -0.3469587 0.11188291
-0.20866454 -0.35585034 0.11266523
-0.19004869 -0.35667616 0.11269905
-0.16668706 -0.35169297 0.11067433
-0.14709628 -0.34915274 0.11006854
-0.12759531 -0.34975612 0.1111251
-0.11048134 -0.34941074 0.11262454
-0.09186621 -0.35048655 0.11346854
-0.073881194 -0.35027006 0.11024723
-0.052331187 -0.34954327 0.11176442
-0.030537929 -0.34851262 0.11332449
-0.010540611 -0.3499645 0.11411665
0.0099156145 -0.34848779 0.11360733
0.030929245 -0.34682363 0.11346031
0.052723501 -0.35045862 0.11085012
0.07393305 -0.34919783 0.11217831
0.092206344 -0.34828383 0.11193007
0.1074448 -0.35067654 0.11404696
0.12698771 -0.34956381 0.11165051
0.14934884 -0.35041499 0.11207476
0.16862865 -0.35414553 0.11122966
0.1902329 -0.35705453 0.11196171
0.21139222 -0.35601947 0.11192476
0.22312482 -0.34610051 0.11110411
-0.22477899 -0.32862765 0.110816
-0.20593457 -0.32957688 0.11202666
-0.19050626 -0.33882436 0.10932043
-0.17053789 -0.33900782 0.1102542
-0.14791034 -0.33908448 0.11083112
-0.1315908 -0.33908516 0.11022452
-0.11108007 -0.33908731 0.110737
-0.090020657 -0.339066 0.1107033
-0.071592025 -0.33909217 0.11152882
-0.049122095 -0.33900875 0.11141519
-0.030321391 -0.33901852 0.11044809
-0.010565586 -0.33902782 0.10864068
0.0066968556 -0.33905512 0.11027028
0.029209333 -0.33905074 0.11176738
0.050445829 -0.33903572 0.11082001
0.070064336 -0.33903205 0.11090909
0.091692708 -0.33899993 0.10891682
0.11092744 -0.3390488 0.11004738
0.12737557 -0.33903813 0.11013692
0.15058863 -0.33906135 0.11039376
0.16943996 -0.33906028 0.10965275
0.19008307 -0.3389706 0.10986924
0.20525256 -0.32872424 0.11139674
0.22489589 -0.33007461 0.11121829
-0.22475608 -0.31136805 0.1117903
-0.2062072 -0.30860707 0.11255354
0.20611739 -0.3100493 0.11200235
0.22476433 -0.31139842 0.11225872
-0.22498688 -0.29164773 0.10895265
-0.20661345 -0.29050404 0.11246034
0.20744964 -0.29299712 0.11363973
0.22492974 -0.28995457 0.11004747
-0.22487228 -0.27275142 0.10989581
