# .PCD v0.7 - Point Cloud Data file format
VERSION 0.7
FIELDS x y z
SIZE 4 4 4
TYPE F F F
COUNT 1 1 1
WIDTH 1395
HEIGHT 1
VIEWPOINT 0 0 0 1 0 0 0
POINTS 1395
DATA ascii
-0.20900002 0.12515049 0.086216591
0.20900001 0.12712431 0.085022368
-0.20900004 0.13582054 0.085475974
0.20900005 0.13515745 0.084271461
-0.20899999 0.14351311 0.086930305
0.20900001 0.14480707 0.086040974
-0.20900002 0.15366018 0.084474958
0.20900002 0.15475433 0.084759571
-0.20900005 0.16355357 0.085820705
0.20900004 0.1642646 0.083850764
-0.20855555 0.17536055 0.084728204
0.20900001 0.17534462 0.085968375
-0.20866668 0.18385132 0.084115565
0.20900004 0.18475994 0.085902415
-0.20900001 0.19407584 0.084501296
0.20900001 0.19505693 0.085573278
-0.20869233 0.20637673 0.085834846
0.20900004 0.20557375 0.084634185
-0.20900001 0.21497086 0.085011624
0.20900005 0.21521616 0.084534287
-0.20900001 0.22443236 0.084558807
0.20900002 0.22268608 0.083013937
-0.20900001 0.23330702 0.084899798
0.20899999 0.2339323 0.083228722
-0.20900005 0.24497016 0.08521118
0.20900004 0.24407107 0.083555117
-0.20900004 0.25539777 0.084698424
0.20900001 0.25521174 0.084210351
-0.22357579 0.26265901 0.084491514
-0.21470584 0.25999999 0.085600115
-0.2095731 0.25999999 0.082802609
0.2094171 0.25999999 0.084581323
0.21568497 0.25999999 0.084988371
0.22350226 0.26161429 0.08503218
-0.22499999 0.2753363 0.085330769
0.22500001 0.27710563 0.08478447
-0.22499998 0.28544888 0.085811548
0.22499999 0.28303963 0.083800353
-0.22499999 0.29432744 0.084977239
0.22499999 0.2944569 0.083921686
-0.22499998 0.30475247 0.085632913
0.22500001 0.30474767 0.084738046
-0.22499996 0.31367043 0.084207416
0.22499998 0.31478477 0.08546564
-0.22499999 0.32689452 0.083676621
-0.205 0.3276628 0.082048081
0.20496345 0.32922679 0.083053991
0.22500001 0.32399389 0.083621345
-0.22499862 0.33455047 0.085653022
-0.20320216 0.33370963 0.085675508
-0.19745736 0.33856136 0.087184519
0.19931063 0.33798155 0.084748313
0.20348667 0.33362415 0.084897727
0.22499596 0.33485818 0.084128492
-0.22356632 0.34603596 0.085151702
-0.16399601 0.34556615 0.084637508
-0.15456913 0.34299996 0.085216589
-0.14577505 0.34299996 0.085392557
-0.13436556 0.34299996 0.086082168
-0.12372986 0.34299996 0.086350918
-0.11639483 0.34299996 0.085159011
-0.10598727 0.34299996 0.085674576
-0.093983226 0.34299996 0.085184537
-0.084181361 0.34299996 0.085549317
-0.075905412 0.34299996 0.084322736
-0.064616911 0.34299996 0.085731462
-0.056389254 0.34533814 0.085746959
-0.043947913 0.34299996 0.085894123
-0.03484904 0.34299996 0.085449293
-0.024051165 0.34299996 0.083955102
-0.014245868 0.34299996 0.083541542
-0.0060046017 0.34299996 0.085426897
0.0044736732 0.34299996 0.085624322
0.01523988 0.34299996 0.084838346
0.024460359 0.34299996 0.084777616
0.034724381 0.34299996 0.084749267
0.044040326 0.34299996 0.085782602
0.05480947 0.34548405 0.085395217
0.06615565 0.34299996 0.086329572
0.074348882 0.34299996 0.0849154
0.084080875 0.34299999 0.084310643
0.093860112 0.34299996 0.08484932
0.10553896 0.34299996 0.085423134
0.11596575 0.34299996 0.084394395
0.12398811 0.34299999 0.085721709
0.13561082 0.34299996 0.085740194
0.14743721 0.34299996 0.085199244
0.15387601 0.34299996 0.086192034
0.16284773 0.34407437 0.082051799
0.22397795 0.34459555 0.083766267
-0.22067247 0.35134846 0.084500581
-0.2158116 0.35543919 0.085785732
-0.20528093 0.35892069 0.08635702
-0.19465138 0.35899997 0.084450409
-0.18662141 0.359 0.083221696
-0.17495032 0.35899997 0.085233092
-0.16528882 0.35377568 0.085167438
-0.056796622 0.35524976 0.085996874
0.056490809 0.3546716 0.085208096
0.16595216 0.35574773 0.085212924
0.17521456 0.35900003 0.085051045
0.18529834 0.35899997 0.085208222
0.19506435 0.35900006 0.084824495
0.20386325 0.35897157 0.085384361
0.21631685 0.35514456 0.084020466
0.22063772 0.35139465 0.083419882
-0.22056794 -0.35149267 0.094609335
-0.21522537 -0.35572469 0.093734339
-0.20538524 -0.35881916 0.094097175
-0.19309902 -0.359 0.094701633
-0.18580653 -0.359 0.093521453
-0.17511141 -0.35900003 0.096044369
-0.16431473 -0.35550281 0.094770975
-0.15518869 -0.3560808 0.09460184
-0.14557569 -0.35463575 0.095255077
-0.13493983 -0.3542625 0.094673835
-0.12472517 -0.35524842 0.095608152
-0.11491581 -0.35547173 0.095438704
-0.10395467 -0.35608152 0.095968515
-0.096038029 -0.35529017 0.095060721
-0.08325053 -0.35586551 0.094334938
-0.07589408 -0.35485998 0.095708683
-0.065251835 -0.35619131 0.09476649
-0.057382185 -0.35599312 0.094770201
0.056762144 -0.3553654 0.094747655
0.064944983 -0.35501269 0.09452454
0.076264478 -0.35502499 0.095673963
0.084407292 -0.35508394 0.0944997
0.095680267 -0.35458669 0.095639586
0.10541236 -0.35431114 0.095406838
0.11510583 -0.35399181 0.094729327
0.12399466 -0.35547692 0.095941931
0.13540922 -0.35479414 0.094876632
0.14517848 -0.35502473 0.095271319
0.15465261 -0.35527259 0.094269402
0.16431184 -0.35501909 0.095032632
0.17397813 -0.35900003 0.095145397
0.18508734 -0.359 0.095070444
0.19517376 -0.35899997 0.095894217
0.20547724 -0.35887012 0.09466704
0.21627763 -0.35517234 0.094705775
0.22108763 -0.35076126 0.099973582
-0.22335286 -0.34620047 0.094503537
-0.16323453 -0.34610763 0.095170133
-0.15524346 -0.34554473 0.09543521
-0.1456638 -0.34544909 0.09504579
-0.13447219 -0.34642354 0.095065266
-0.12443735 -0.34558091 0.095733002
-0.11533856 -0.34549391 0.094889134
-0.10583746 -0.34477055 0.094721176
-0.095557012 -0.34496257 0.095481895
-0.084374085 -0.34535357 0.09458828
-0.076137364 -0.34521791 0.095518306
-0.065247335 -0.34569478 0.094552733
-0.055509917 -0.34511429 0.094344079
-0.04583526 -0.34299996 0.09689302
-0.035921015 -0.34299996 0.094193257
-0.024771692 -0.34299996 0.094186306
-0.013300704 -0.34299999 0.093087934
-0.0055841831 -0.34299996 0.094672851
0.0049352171 -0.34299996 0.095373668
0.014389508 -0.34299996 0.094257608
0.024901787 -0.34299996 0.095878549
0.034746092 -0.34299996 0.09457881
0.044089578 -0.34299996 0.094014414
0.056335535 -0.34557679 0.096343011
0.065790363 -0.34637907 0.09507259
0.076069519 -0.34624687 0.095850274
0.084122948 -0.34520331 0.095067494
0.095018364 -0.34610993 0.094441496
0.10523832 -0.34516832 0.095026955
0.11435465 -0.34584013 0.093978494
0.12462219 -0.34562749 0.095482551
0.13415363 -0.34525508 0.094587617
0.14375274 -0.34599543 0.09487316
0.15539674 -0.34522635 0.095512137
0.1633555 -0.34546018 0.096447691
0.22357273 -0.34544837 0.094139978
-0.22499999 -0.33430555 0.094185948
-0.20382792 -0.33322623 0.094580844
-0.19909556 -0.3380819 0.09629631
0.19847192 -0.3382394 0.095353343
0.20261593 -0.33500248 0.095132649
0.22498818 -0.33465204 0.094109632
-0.22499996 -0.32531533 0.095852457
-0.20494518 -0.32962617 0.097232379
0.22499999 -0.3252697 0.095546916
-0.22499998 -0.31407049 0.093915939
0.22499998 -0.31468734 0.09429583
-0.22499999 -0.30502403 0.094379589
0.22500001 -0.3034434 0.09659303
-0.22500001 -0.29568878 0.09481021
-0.205 -0.29518253 0.097904392
0.22500001 -0.29483309 0.094916902
-0.22499996 -0.28464836 0.09449435
0.22499999 -0.28385529 0.094586775
-0.22499998 -0.27478963 0.095469274
0.22499995 -0.27561316 0.094385348
-0.22499998 -0.26566896 0.094403036
0.22499999 -0.26539639 0.093545884
-0.22356302 -0.2574096 0.093558811
-0.21470886 -0.25655076 0.093081407
-0.20906875 -0.25488967 0.095564559
0.20908201 -0.25453943 0.095205285
0.21520567 -0.25669798 0.092841513
0.22282906 -0.2550492 0.092985086
-0.22359218 -0.24539195 0.092359141
-0.21489535 -0.24605846 0.092704169
-0.20908652 -0.24476387 0.095330313
0.20921914 -0.24688596 0.094704948
0.21558025 -0.24555922 0.092609167
0.22357471 -0.24532449 0.092383288
-0.2234877 -0.23561902 0.095222078
-0.21483369 -0.23410535 0.094288126
-0.20912915 -0.23320143 0.096009873
0.2092604 -0.235039 0.096899308
0.2150826 -0.234853 0.093568169
0.22323136 -0.23476818 0.093468443
-0.22347599 -0.22531573 0.092287868
-0.21531714 -0.22531915 0.092351228
-0.20900618 -0.2261001 0.095763855
0.20908034 -0.22481209 0.096266858
0.21436031 -0.22446103 0.092013001
0.22360544 -0.22578061 0.091264278
-0.22341502 -0.21402536 0.093100078
-0.21573606 -0.21461251 0.092959382
-0.2090961 -0.21531606 0.095114484
0.20913815 -0.21379721 0.094164819
0.21507141 -0.21486141 0.092945129
0.22291444 -0.21385555 0.093345501
-0.22344592 -0.20468059 0.092421547
-0.21447213 -0.20518838 0.093084626
-0.20920838 -0.20489253 0.094043769
0.20867889 -0.20459262 0.09646865
0.21421084 -0.20619403 0.093681395
0.22396803 -0.20376503 0.092284359
-0.22293846 -0.19557686 0.09265954
-0.21496838 -0.19497797 0.092263013
-0.20900838 -0.19549845 0.097312324
0.20909566 -0.19485828 0.093033284
0.21456951 -0.19446199 0.092318572
0.22338282 -0.19534855 0.09265732
-0.2228777 -0.18499395 0.092930757
-0.21472745 -0.18542768 0.094309911
-0.20908938 -0.18389553 0.095198974
0.20911179 -0.18612352 0.095352158
0.21513641 -0.18545002 0.094421297
0.22225516 -0.18503316 0.093746111
-0.22374783 -0.17514032 0.092150785
-0.21489628 -0.17604658 0.092262991
-0.20909692 -0.17566594 0.094768606
0.2084772 -0.17631024 0.093324892
0.21552292 -0.17498809 0.092203006
0.2233588 -0.17292267 0.091905072
-0.22253799 -0.16527236 0.092675366
-0.21422715 -0.16405156 0.092911929
-0.20929687 -0.16554983 0.094379202
0.20922625 -0.165152 0.092926592
0.21479674 -0.16464889 0.093306288
0.22332862 -0.16445351 0.093945608
-0.22234906 -0.15510969 0.092779741
-0.21541831 -0.15656753 0.094016001
-0.20907809 -0.15373699 0.096180648
0.20913303 -0.15410729 0.095869303
0.21523544 -0.15607041 0.093847319
0.2223891 -0.15604687 0.094340138
-0.22280106 -0.14424655 0.09264636
-0.21484736 -0.14510377 0.091477267
-0.20899999 -0.14540616 0.097369723
0.20905754 -0.144962 0.095572568
0.21589589 -0.14604111 0.091990262
0.22268079 -0.14358224 0.092128225
-0.22302176 -0.13612191 0.093335681
-0.21454802 -0.13481681 0.093952753
-0.20917568 -0.13514501 0.094175994
0.20908113 -0.1338934 0.096125647
0.21470115 -0.13566093 0.094351381
0.22301807 -0.1356802 0.093382075
-0.22309722 -0.12421031 0.092240721
-0.21397351 -0.12536123 0.091888003
-0.20916726 -0.12478291 0.09714473
0.20929967 -0.1250841 0.095055446
0.21484512 -0.12519217 0.092262991
0.223196 -0.12432035 0.092704996
-0.22371887 -0.11610439 0.092072807
-0.21519756 -0.11468051 0.092032239
-0.20906475 -0.11544236 0.095742591
0.20924756 -0.11502515 0.094218716
0.21368693 -0.11481503 0.092609152
0.22305539 -0.11376692 0.091972701
-0.22303635 -0.10876273 0.095382303
-0.21553838 -0.1082353 0.096922606
-0.20909035 -0.1052079 0.094789244
0.2091374 -0.10434604 0.094540969
0.21572728 -0.10869565 0.095283903
0.22278029 -0.10817221 0.096278228
-0.20900002 -0.096690536 0.094893239
0.20899999 -0.096209228 0.095755957
-0.20900001 -0.085080877 0.095281728
0.20900002 -0.08596006 0.094187349
-0.20900005 -0.075126454 0.093958095
0.20900001 -0.073548593 0.09412124
-0.20900004 -0.064474672 0.094330706
0.20900005 -0.064160377 0.095369235
-0.20900005 -0.054691739 0.095946863
0.20900004 -0.055170491 0.095610768
-0.20900004 -0.04621407 0.095652789
0.20900004 -0.044208415 0.095137902
-0.20900002 -0.034693506 0.09469986
0.20900005 -0.033862371 0.095187202
-0.20900001 -0.024650505 0.094547346
0.20900001 -0.024481623 0.094619505
-0.20900002 -0.014893052 0.093693085
0.20900002 -0.014127742 0.095312044
-0.20900001 -0.005856968 0.094372727
0.20900005 -0.0051505435 0.095557943
-0.20900005 0.0042821048 0.096523888
0.20900004 0.0053150812 0.094434753
-0.20899999 0.013491508 0.09434478
0.20900001 0.014726277 0.094926603
-0.20900001 0.025233282 0.095967777
0.20899999 0.023648292 0.093615629
-0.20900001 0.033775754 0.095938362
0.20900001 0.034580238 0.09715654
-0.20900002 0.044889551 0.095199175
0.20900001 0.044771325 0.093887657
-0.20900004 0.053636175 0.094589733
0.20899999 0.055897821 0.094889008
-0.20899999 0.064235725 0.094370492
0.20900004 0.065850772 0.095156215
-0.20900001 0.074788854 0.09558595
0.20900005 0.074161373 0.094416581
-0.20900005 0.085336044 0.094912894
0.20899999 0.084480189 0.093721189
-0.20900002 0.094321378 0.094556756
0.20900004 0.094099283 0.095651925
-0.22361341 0.10745719 0.094932906
-0.21517611 0.10699999 0.095289096
-0.20903277 0.10267752 0.094604678
0.20906274 0.1047212 0.094219401
0.21618836 0.107 0.095290288
0.22326115 0.10823697 0.094811238
-0.22234751 0.11423928 0.092629224
-0.21431164 0.11376046 0.093305603
-0.20923996 0.11358148 0.095161065
0.20910732 0.11344799 0.096880533
0.21456249 0.11431104 0.092891425
0.22357254 0.11314458 0.09299694
-0.22287972 0.12585318 0.092702486
-0.21580471 0.12486097 0.092263006
-0.20922074 0.12382801 0.095079087
0.20910887 0.12493043 0.095608436
0.21544278 0.12451847 0.092314728
0.22297682 0.12490834 0.091960378
-0.2230742 0.13537899 0.093729943
-0.21485911 0.13587256 0.093299814
-0.2093163 0.13661605 0.094828285
0.2093219 0.1354325 0.095408745
0.21422605 0.13540542 0.093655445
0.22323687 0.13550937 0.094523542
-0.2231136 0.14573658 0.092246033
-0.21425267 0.14514659 0.092728533
-0.20924242 0.14476947 0.094704531
0.20911603 0.14478621 0.094747856
0.21489812 0.14543676 0.09237016
0.22258347 0.14580549 0.092286393
-0.22326487 0.15579209 0.09176752
-0.21524572 0.15538496 0.09264309
-0.20902619 0.15539663 0.096218027
0.20920807 0.1557626 0.094832197
0.21506336 0.15555988 0.092278607
0.22341003 0.15544222 0.09286841
-0.22288017 0.16364001 0.093964428
-0.2154377 0.16483967 0.093169384
-0.20903404 0.16610876 0.095604315
0.20900001 0.16537386 0.098002665
0.21434376 0.16528644 0.092088766
0.22299381 0.16400352 0.093359336
-0.2228298 0.17549393 0.092318848
-0.2154921 0.17424402 0.092328213
-0.20918009 0.17452112 0.092906892
0.20907457 0.17641735 0.095887192
0.21429615 0.17411356 0.092521645
0.22249427 0.17663072 0.092768356
-0.22241528 0.18482858 0.094253957
-0.21492524 0.18447568 0.09318307
-0.20926851 0.18488342 0.097072601
0.209161 0.18565838 0.095668279
0.21504661 0.18475103 0.095543854
0.22333449 0.18468834 0.094935313
-0.22331312 0.19322112 0.09232574
-0.21515723 0.19485821 0.092477307
-0.20900001 0.19578566 0.096745864
0.20916486 0.19432341 0.094759405
0.21524262 0.19503278 0.092262991
0.22256178 0.19443759 0.092607014
-0.22297369 0.20422021 0.092870422
-0.21478187 0.20569673 0.093233809
-0.20916522 0.20409577 0.094465345
0.20917204 0.20524366 0.093383648
0.2151583 0.20448892 0.092799217
0.22231087 0.20430818 0.093675137
-0.22315794 0.21449153 0.093319952
-0.21554834 0.21491417 0.093308501
-0.20914188 0.21477847 0.095539972
0.20915605 0.21465604 0.095121652
0.21475118 0.21501243 0.093376063
0.2230525 0.21441798 0.092721485
-0.22256975 0.2247199 0.091816507
-0.21447577 0.22562157 0.09176299
-0.20919752 0.22467242 0.094062805
0.20901498 0.22422367 0.096495725
0.21562329 0.22470161 0.092262991
0.22264786 0.22510619 0.09208709
-0.2228236 0.23450254 0.093307197
-0.21442373 0.2349485 0.093398795
-0.20922355 0.23559989 0.095504493
0.20920135 0.23450105 0.095263764
0.21417663 0.23527955 0.093192793
0.22317095 0.23389445 0.094373666
-0.22335553 0.24522629 0.092417158
-0.21438652 0.24639845 0.092262991
-0.20903331 0.2452008 0.09580107
0.20901325 0.24349837 0.095391832
0.21397232 0.24557309 0.092067346
0.22346911 0.24455284 0.092274472
-0.22248554 0.25462624 0.091670439
-0.21610427 0.2556065 0.092262998
-0.20911385 0.25388736 0.095809549
0.20906305 0.25500721 0.094960794
0.21570657 0.25432709 0.092399359
0.22427146 0.25517574 0.092454523
-0.22407061 0.26275244 0.095867068
-0.21530637 0.25999999 0.096691281
0.20969658 0.25999999 0.097811915
0.21507908 0.25999999 0.097186029
0.22441071 0.26331857 0.094376035
-0.22500001 0.27734634 0.095801704
0.22499999 0.27407947 0.092980325
-0.22499998 0.28522089 0.094914183
0.22499999 0.2858434 0.095010564
-0.22499996 0.294743 0.095300034
0.22499999 0.29546449 0.09477219
-0.22499999 0.30635032 0.094758585
0.22499998 0.30455151 0.09514682
-0.22499998 0.31452617 0.094912276
0.22499998 0.31520465 0.095411129
-0.22499999 0.32509634 0.096354969
-0.20499998 0.32797849 0.09005478
0.205 0.32893372 0.098161787
0.22499998 0.32509929 0.094416045
-0.2249901 0.33499447 0.094800986
-0.20307997 0.33417928 0.094929546
-0.19776827 0.33849308 0.094070874
0.19768515 0.338563 0.094124228
0.20281507 0.33472314 0.096419603
0.22498712 0.33646324 0.095496483
-0.22390233 0.34478059 0.095554538
-0.16343316 0.34482929 0.095238887
-0.15582229 0.34531868 0.094788007
-0.14463232 0.34580016 0.095830299
-0.13524267 0.34491616 0.095123753
-0.12570086 0.34550348 0.095063999
-0.11532912 0.34390974 0.094509885
-0.10372566 0.34485778 0.094264299
-0.095073655 0.34509888 0.094620742
-0.085498504 0.34512863 0.095020734
-0.075033732 0.34552845 0.094996132
-0.065259144 0.3442499 0.094759524
-0.055669695 0.34524184 0.094818287
-0.04431681 0.34299996 0.095097609
-0.034271017 0.34299996 0.095623501
-0.024821166 0.34299996 0.094005011
-0.013595685 0.34299996 0.095813677
-0.0040361923 0.34299996 0.094784491
0.005338721 0.34299996 0.094307505
0.016130354 0.34299996 0.095601276
0.023070728 0.34299996 0.094742782
0.034753516 0.34299996 0.094445542
0.045973081 0.34299996 0.097569652
0.055714719 0.34497303 0.094301715
0.064715967 0.34518275 0.094430566
0.07469143 0.34551781 0.094801061
0.085743994 0.34584728 0.095078796
0.095913939 0.34454811 0.095406711
0.10538057 0.34574044 0.095365457
0.11483663 0.3454082 0.094706967
0.12473764 0.34546158 0.09573175
0.13580871 0.34595573 0.094939597
0.1445045 0.34578878 0.095392793
0.15562345 0.34478289 0.09561906
0.16313945 0.34463042 0.095253535
0.22344801 0.34592625 0.094768308
-0.2144466 0.35640585 0.095760673
-0.20618871 0.35873577 0.094510809
-0.19432513 0.359 0.094528623
-0.18560056 0.359 0.095987879
-0.1745587 0.359 0.094631389
-0.16372649 0.35532334 0.095627584
-0.15716164 0.3537454 0.094705582
-0.14504807 0.35592061 0.095194258
-0.13479337 0.35475543 0.094590716
-0.12424298 0.35576835 0.095763013
-0.11554838 0.35509244 0.094373882
-0.1053189 0.35489753 0.094830737
-0.095519222 0.35600001 0.094760016
-0.084999256 0.35507008 0.094444044
-0.076289959 0.35495725 0.095624566
-0.065044358 0.35583279 0.09464366
-0.057208948 0.35527003 0.095073521
0.056641415 0.35442996 0.095718972
0.064718857 0.354619 0.094411202
0.076508805 0.35514611 0.096301243
0.084985293 0.35608628 0.094673157
0.09552402 0.35422331 0.095947117
0.10539711 0.35591799 0.095049433
0.11495412 0.35600358 0.094384491
0.12467536 0.35513574 0.095947601
0.13561675 0.35518229 0.094778575
0.14449607 0.35509491 0.094903409
0.15332542 0.35587132 0.094751328
0.16429716 0.35490221 0.095186785
0.17573096 0.359 0.095718585
0.18414223 0.359 0.096377872
0.19633986 0.359 0.093514331
0.20468304 0.3588545 0.094143622
0.21524775 0.35564515 0.094694786
0.2208764 0.35103065 0.097938113
-0.22133011 -0.35041496 0.10497218
-0.21573178 -0.3553547 0.10445659
-0.20571788 -0.35890338 0.10450868
-0.1947334 -0.359 0.10709505
-0.1848269 -0.359 0.10486945
-0.17360994 -0.359 0.10417372
-0.16636471 -0.35602367 0.10532901
-0.14429647 -0.35378769 0.10475854
-0.12256688 -0.35600579 0.10606553
-0.10161664 -0.35589939 0.10421932
-0.099322736 -0.35508516 0.10648861
-0.078862026 -0.35589868 0.10565988
-0.056392215 -0.35596749 0.10418452
0.056636143 -0.3558633 0.10400432
0.079010524 -0.355158 0.1056455
0.099303596 -0.35491529 0.10602794
0.10153053 -0.35604545 0.10459524
0.12232346 -0.35525116 0.10505717
0.1445042 -0.35416648 0.10485039
0.16581032 -0.35525179 0.10547776
0.17479402 -0.35900003 0.10339009
0.18518923 -0.35900003 0.10579924
0.19524275 -0.359 0.10519545
0.20581518 -0.35881722 0.10586111
0.21582703 -0.35544586 0.10415292
0.22098151 -0.35091278 0.10600039
-0.22240409 -0.34867772 0.10572505
-0.16391294 -0.34542423 0.10519107
-0.1554942 -0.34299996 0.10524106
-0.14527139 -0.34401271 0.1047113
-0.13364607 -0.34299996 0.10533392
-0.12254502 -0.34645134 0.10509747
-0.11634012 -0.34299996 0.10435694
-0.10475057 -0.34389427 0.10473342
-0.096728228 -0.34496656 0.10493084
-0.084306829 -0.34299996 0.10396808
-0.076913409 -0.34550947 0.10441222
-0.065675825 -0.34300002 0.10537484
-0.055672541 -0.34563351 0.10445382
-0.045049388 -0.34299996 0.10537068
-0.036620874 -0.34299996 0.10567421
-0.026357265 -0.34299996 0.10580001
-0.016472341 -0.34299996 0.10637394
-0.0041341092 -0.34299996 0.10536819
0.004783595 -0.34299996 0.10645379
0.01415196 -0.34299996 0.10439692
0.024610519 -0.34299996 0.10482232
0.035122551 -0.34299996 0.10537914
0.043489747 -0.34299996 0.10376441
0.056045178 -0.34585121 0.10406056
0.067003287 -0.34299996 0.1050565
0.077137113 -0.34462407 0.10600378
0.086079568 -0.34299996 0.10461321
0.096485116 -0.34519678 0.10490352
0.10321826 -0.34517068 0.1046373
0.11534502 -0.34299996 0.10459926
0.12391151 -0.34605268 0.10582851
0.13510936 -0.34299996 0.1064293
0.14429636 -0.34502178 0.10512335
0.1559725 -0.34299996 0.1054968
0.16344768 -0.34496224 0.10505659
0.2238024 -0.3447051 0.10649086
-0.22500001 -0.33431947 0.10527461
-0.20323949 -0.33383909 0.10549697
-0.19835635 -0.33830002 0.10510887
0.19714665 -0.33868986 0.10619225
0.20351538 -0.33372712 0.10547742
0.22499284 -0.33586386 0.10390199
-0.22500001 -0.32408428 0.1061784
0.22499998 -0.32574412 0.1045481
-0.22499999 -0.31571418 0.10411265
0.22499998 -0.3143355 0.1044014
-0.22499998 -0.30407181 0.10503678
-0.20500001 -0.30075374 0.10168929
0.205 -0.30144787 0.10167564
0.22499998 -0.3062247 0.10401058
-0.22499998 -0.29657578 0.10473379
0.22499995 -0.2932834 0.1044566
-0.22499999 -0.28666988 0.10558045
0.22499998 -0.28546658 0.10514921
-0.22499999 -0.27569216 0.10385245
0.22500001 -0.27402875 0.10443661
-0.22499999 -0.26418453 0.10574815
0.22499996 -0.26297504 0.10474867
-0.22270288 -0.25999999 0.10485186
-0.21459581 -0.25999999 0.1046381
-0.20903499 -0.25653976 0.10499825
0.20907709 -0.25707883 0.1051513
0.21474808 -0.25999999 0.10454886
0.22267398 -0.25999999 0.10478251
-0.20900001 -0.2454301 0.10480766
0.20900004 -0.24550629 0.10544904
-0.22235334 -0.23420157 0.10403672
-0.2151268 -0.23380437 0.1052013
-0.2090854 -0.23404518 0.10565946
0.20908017 -0.23541822 0.10542813
0.21414287 -0.23355265 0.10385635
0.2228758 -0.23392282 0.10646625
-0.20899999 -0.22451799 0.1045934
0.20900004 -0.22528976 0.10514583
-0.22247291 -0.21055655 0.10423036
-0.21549043 -0.21062495 0.10574549
-0.20905919 -0.2146814 0.10485329
0.20912683 -0.21506415 0.10398747
0.21432517 -0.21062495 0.10424599
0.22307283 -0.21062496 0.10563733
-0.22220846 -0.20812501 0.10636499
-0.21652746 -0.20812501 0.10351049
-0.20904863 -0.20457962 0.10427202
0.20908423 -0.20493694 0.10553356
0.21426137 -0.208125 0.10586735
0.22351418 -0.20827396 0.10504203
-0.20899999 -0.19300795 0.10668334
0.20900001 -0.19610424 0.10498948
-0.22350094 -0.18551652 0.10466392
-0.21510744 -0.18526788 0.10428935
-0.20904043 -0.18368626 0.1056924
0.20921947 -0.18558291 0.10573152
0.21432497 -0.18490385 0.10523781
0.22409593 -0.18574089 0.103892
-0.20900002 -0.17566068 0.1056463
0.20900002 -0.17634657 0.10560294
-0.22310106 -0.16151641 0.10364936
-0.21467815 -0.16187499 0.10464209
-0.20901875 -0.16609535 0.10557578
0.20902877 -0.16547363 0.10498697
0.21497352 -0.16187499 0.10401879
0.22311366 -0.16187499 0.10580075
-0.22291653 -0.15953586 0.10565193
-0.21423666 -0.15937498 0.10541319
-0.20920394 -0.15627708 0.1040308
0.20908268 -0.1546241 0.10344052
0.21426155 -0.15937498 0.10448409
0.2213928 -0.159375 0.10551213
-0.20900002 -0.14578706 0.1060463
0.20900002 -0.14615265 0.1050374
-0.22206844 -0.1359091 0.10631695
-0.21552816 -0.13662501 0.10613618
-0.20913561 -0.13576597 0.10470278
0.20899999 -0.13477391 0.10464215
0.21469949 -0.13609375 0.10509174
0.2231012 -0.13639434 0.10294075
-0.20899999 -0.12572666 0.10409885
0.20900001 -0.1242717 0.10368259
-0.20900004 -0.11381605 0.10527933
0.20900001 -0.114474 0.1032654
-0.22300664 -0.10847756 0.10493398
-0.21619111 -0.10907693 0.10508407
-0.20907648 -0.10391451 0.10460374
0.20902228 -0.10372859 0.10512669
0.21584016 -0.10884614 0.10564501
0.22238533 -0.10874445 0.10537207
-0.20900004 -0.094800547 0.10673051
0.20900002 -0.095497206 0.10378319
-0.20899999 -0.084269628 0.10483569
0.20900001 -0.083962761 0.10446633
-0.20900002 -0.07564646 0.10519575
0.20900001 -0.074779764 0.10573322
-0.20900001 -0.06502068 0.10604223
0.20900001 -0.065550596 0.10519081
-0.20900002 -0.055403642 0.10389428
0.20900002 -0.055094328 0.10586902
-0.20900005 -0.045310449 0.10394707
0.20900005 -0.044879906 0.10669982
-0.20900002 -0.037704933 0.10469625
0.20899999 -0.034820549 0.10446938
-0.20899999 -0.02359882 0.10419927
0.20900002 -0.025627781 0.10377457
-0.20900001 -0.014754565 0.10401763
0.20899999 -0.014783579 0.10470188
-0.20900005 -0.0047325036 0.10497101
0.20900001 -0.0051826672 0.10413235
-0.20900001 0.0050353887 0.10617805
0.20900002 0.0050026397 0.10526195
-0.20900001 0.014823551 0.10642381
0.20900001 0.015999582 0.10484371
-0.20900002 0.024936432 0.1056196
0.20900004 0.024550352 0.10479923
-0.20900002 0.036010146 0.10572648
0.20899999 0.033596162 0.10299566
-0.20900002 0.044440396 0.10546998
0.20900005 0.046305418 0.10446457
-0.20899999 0.054275818 0.10668626
0.20900004 0.0548633 0.10454241
-0.20900002 0.063412413 0.10457616
0.20900002 0.064520083 0.10586192
-0.20900001 0.074971765 0.10468423
0.20900001 0.075089283 0.10520633
-0.20899999 0.084511481 0.1048805
0.20900002 0.084031895 0.1046509
-0.20900005 0.094947226 0.10561611
0.20900001 0.096085571 0.10499034
-0.2241357 0.10829076 0.10619123
-0.21614443 0.10699999 0.10499038
-0.20914447 0.10433941 0.10625103
0.20915863 0.10434635 0.10366434
0.21301796 0.10699999 0.10736491
0.22399227 0.10766762 0.1051856
-0.22218771 0.11000001 0.10572372
-0.21564874 0.11 0.10478403
-0.20900513 0.11413557 0.10573038
0.20903008 0.11629198 0.10550016
0.21502611 0.11000001 0.10460119
0.22306344 0.11000001 0.10396401
-0.20900002 0.12483144 0.10449763
0.20900002 0.12575576 0.10385969
-0.22239889 0.13668182 0.10545687
-0.21539219 0.13625 0.10623422
-0.2090252 0.13425094 0.10518248
0.20902471 0.13501796 0.10431004
0.21488583 0.13592593 0.10512433
0.2230386 0.13684347 0.1065437
-0.20900004 0.14423712 0.1037854
0.20899999 0.14773609 0.10475752
-0.22285354 0.159375 0.10311937
-0.21517549 0.15937497 0.1043296
-0.20904654 0.15441772 0.10308606
0.2090624 0.15466477 0.10510496
0.21638568 0.159375 0.10426509
0.22252372 0.15937498 0.10436414
-0.22317214 0.16160867 0.10634638
-0.21556921 0.16187499 0.10521251
-0.20905335 0.16611862 0.10463934
0.20910248 0.16517614 0.10646534
0.21422502 0.16187499 0.10301407
0.22303306 0.16144328 0.10398475
-0.20900002 0.17567271 0.10432678
0.20900004 0.17502587 0.10523245
-0.2233953 0.18459304 0.10373623
-0.21480647 0.18449996 0.10508684
-0.20900002 0.18515036 0.10444005
0.2090831 0.18530723 0.10288517
0.21510984 0.1846875 0.10587587
0.22325607 0.18524061 0.10569318
-0.20900001 0.19714706 0.10648263
0.20900004 0.19339947 0.10483664
-0.22189885 0.208125 0.10380597
-0.21598941 0.208125 0.10563644
-0.20919493 0.20486104 0.10473485
0.20899999 0.20503943 0.10465707
0.2151895 0.208125 0.10475755
0.22306293 0.20847781 0.10548151
-0.22274916 0.21055041 0.10506734
-0.21478768 0.21062495 0.10536981
-0.20902316 0.21528815 0.10549504
0.20900001 0.21555048 0.10511272
0.21616431 0.21062498 0.1064716
0.22228502 0.21062498 0.10498343
-0.20899998 0.22543289 0.10465291
0.20900004 0.22515823 0.1058777
-0.22315352 0.23346503 0.10461672
-0.21474503 0.23351854 0.10480364
-0.20910136 0.23492867 0.10516874
0.20909373 0.23650283 0.1052225
0.21568032 0.23374999 0.10538992
0.22328165 0.23322836 0.10651041
-0.20900004 0.24363063 0.10452271
0.20900001 0.24598002 0.10504014
-0.20900001 0.25599143 0.10514338
0.20900002 0.25578755 0.10620579
-0.22455293 0.26385716 0.10456643
-0.21415703 0.25999999 0.10440782
-0.20965543 0.25999999 0.1074825
0.20950742 0.25999999 0.10367181
0.21576788 0.25999999 0.1029733
0.22397418 0.26217261 0.10424531
-0.22499996 0.27485386 0.1053233
0.22499998 0.27504095 0.10369932
-0.22500001 0.28308058 0.10606335
-0.205 0.28507593 0.10691402
0.22499999 0.28534585 0.10379589
-0.22499999 0.29388285 0.1043431
0.22500001 0.2934595 0.1047253
-0.22500001 0.30329481 0.10473521
0.22500001 0.30499983 0.10422995
-0.22499999 0.31531826 0.10411291
0.22499999 0.31481552 0.10509229
-0.22499996 0.32496938 0.10526384
-0.20492786 0.32982388 0.10701634
0.20496067 0.32924479 0.10323789
0.22499995 0.32516378 0.10394932
-0.22499999 0.33445096 0.10538864
-0.20388867 0.33315396 0.10620787
-0.19703458 0.33864895 0.10606084
0.19691004 0.33880138 0.10865681
0.20318295 0.33405411 0.10459463
0.22499998 0.33452988 0.10462067
-0.22353409 0.34545341 0.10457327
-0.16357017 0.34505749 0.10410855
-0.15429054 0.34299996 0.1055809
-0.14476012 0.34544694 0.10525344
-0.1363057 0.34299996 0.10479627
-0.12303715 0.34536746 0.10581002
-0.11408937 0.34299996 0.10457482
-0.10378654 0.34475639 0.10445348
-0.096740551 0.34362864 0.10532545
-0.08564315 0.34299996 0.1047583
-0.076754712 0.34571001 0.10460114
-0.064905658 0.34299996 0.10527722
-0.055443231 0.34582445 0.10600223
-0.045351151 0.34299996 0.10605186
-0.035044145 0.34299996 0.10500666
-0.024526125 0.34299996 0.10474978
-0.015821017 0.34299996 0.10462677
-0.0022412334 0.34299999 0.10611634
0.0062101292 0.34299996 0.10562025
0.015495039 0.34299996 0.10391932
0.02406938 0.34299996 0.10581629
0.036467437 0.34299996 0.10491506
0.04522964 0.34299996 0.10484836
0.055117134 0.34530345 0.10526663
0.065989539 0.34299996 0.10211432
0.077638559 0.34566629 0.10597482
0.084240213 0.34299996 0.10573777
0.097321637 0.34511247 0.10441903
0.10420019 0.34481671 0.105094
0.11344182 0.34299996 0.1058965
0.12339201 0.34519118 0.1058621
0.13437971 0.34299996 0.10477345
0.14521265 0.34588349 0.1045263
0.15295011 0.34299996 0.10426796
0.16492495 0.34436026 0.10472533
0.22395889 0.3440761 0.10539063
-0.22098513 0.3508741 0.10358241
-0.21365695 0.35671696 0.10457483
-0.20572536 0.35881013 0.10571694
-0.19393423 0.359 0.1049256
-0.18570998 0.35900006 0.10490724
-0.17501931 0.35900003 0.10553796
-0.16608228 0.3568728 0.1052231
-0.14453247 0.35572469 0.10362834
-0.1225393 0.35427368 0.1037855
-0.10173944 0.35401344 0.10458524
-0.099342518 0.35510656 0.10607118
-0.078733914 0.35573745 0.10508455
-0.056882191 0.35538989 0.10530447
0.056607589 0.35459542 0.1047534
0.078330196 0.35488522 0.1035252
0.099341705 0.35485598 0.10469545
0.10167848 0.35630786 0.10394591
0.12234048 0.35568005 0.10596205
0.14441888 0.35457209 0.10550419
0.16551146 0.3553659 0.10560587
0.17369877 0.35899997 0.1042588
0.18571147 0.359 0.10506604
0.19356838 0.35899997 0.10487289
0.20432341 0.35892764 0.10442305
0.2144749 0.35628706 0.1046794
0.22091012 0.35101479 0.10492478
-0.22062127 -0.35142013 0.11258963
-0.21513991 -0.35503012 0.11700033
-0.20535082 -0.35728028 0.11657057
-0.19499563 -0.35758087 0.1162729
-0.18517426 -0.35829958 0.11651486
-0.17434396 -0.35789749 0.117645
-0.16449051 -0.35627538 0.11542626
-0.1547901 -0.35706821 0.117133
-0.14517418 -0.35581604 0.11541045
-0.13455012 -0.35587829 0.11665952
-0.1231967 -0.35566247 0.11514119
-0.11418451 -0.35586849 0.11708916
-0.10364 -0.35602713 0.11523496
-0.096389294 -0.35557407 0.11487185
-0.084614769 -0.35487857 0.11672603
-0.076044746 -0.35521123 0.11474067
-0.065438397 -0.35513791 0.11706576
-0.055536777 -0.35523626 0.11543745
-0.045983508 -0.35580796 0.11681103
-0.035409771 -0.35632122 0.11736723
-0.024293879 -0.35531399 0.1171767
-0.015267511 -0.35591722 0.11713737
-0.0051231128 -0.35635301 0.11715259
0.0057525886 -0.35402882 0.1169468
0.014844947 -0.35655937 0.11778191
0.025530152 -0.35436583 0.11750147
0.034781165 -0.35607687 0.11675153
0.045087438 -0.35565183 0.11765341
0.055890273 -0.3548623 0.11493916
0.064713597 -0.35534623 0.11715213
0.075927421 -0.3562834 0.1152067
0.084777571 -0.35564664 0.11740988
0.095381081 -0.35492942 0.11579162
0.10535568 -0.35547179 0.11675515
0.11534876 -0.35525301 0.11702742
0.12307495 -0.35527807 0.11509921
0.13517803 -0.35479835 0.11660667
0.14509609 -0.35552797 0.11479029
0.15514596 -0.35626739 0.11727618
0.16505526 -0.35752919 0.11565842
0.17511341 -0.35767427 0.11589491
0.18479681 -0.35736504 0.11566048
0.19465332 -0.35833117 0.11464576
0.20488627 -0.35850546 0.1145315
0.21558137 -0.35525021 0.11526614
0.22068107 -0.35130683 0.11303719
-0.22333832 -0.34523991 0.11458561
-0.21304324 -0.34607077 0.11999999
-0.20196141 -0.34869212 0.11999999
-0.1932354 -0.34388322 0.11999013
-0.18486257 -0.34174684 0.11995395
-0.17091641 -0.34101933 0.11997101
-0.16392638 -0.34545377 0.11510941
-0.15452461 -0.34536842 0.1152072
-0.14507681 -0.3458766 0.11449716
-0.13524888 -0.34474403 0.11609656
-0.12414332 -0.34480238 0.11600028
-0.11416675 -0.34374654 0.11510926
-0.10387321 -0.3449696 0.11359142
-0.095523208 -0.34549892 0.11612305
-0.084560253 -0.34454328 0.11596891
-0.075833209 -0.3455162 0.1150583
-0.064598873 -0.34455726 0.11539152
-0.055578768 -0.34623611 0.11519089
-0.044782534 -0.34463504 0.11654606
-0.035121266 -0.34448701 0.11498723
-0.024511384 -0.34473696 0.11646951
-0.013972538 -0.3440952 0.11600848
-0.0063946615 -0.34542802 0.11582986
0.005316312 -0.34482422 0.11675506
0.014350748 -0.34507304 0.11542735
0.024994195 -0.34595871 0.11660147
0.034938104 -0.34578407 0.11648304
0.04418999 -0.34481767 0.11478759
0.05550072 -0.34560105 0.11480069
0.064013757 -0.34372807 0.11571808
0.076581009 -0.34576729 0.11442498
0.085134737 -0.34416902 0.11471204
0.095861711 -0.34524572 0.11539133
0.10519851 -0.34466949 0.11503886
0.11433329 -0.34459624 0.11652368
0.12411262 -0.34592432 0.11535807
0.13404492 -0.34343585 0.11527538
0.14473589 -0.34606865 0.11539906
0.15534171 -0.34548011 0.11518572
0.16356067 -0.34485081 0.11509005
0.1742052 -0.34386545 0.1199605
0.18568027 -0.34493592 0.11995521
0.19316307 -0.34430307 0.11995804
0.20372683 -0.34915775 0.11999999
0.210324 -0.34191695 0.11999999
0.22259547 -0.34490156 0.11611149
-0.22467786 -0.3359088 0.11583923
-0.21504225 -0.33917174 0.11999998
-0.20387103 -0.33470663 0.11585758
-0.19715643 -0.33850479 0.1146456
-0.1852778 -0.33930755 0.11882862
-0.17372964 -0.33936101 0.11902203
-0.16421621 -0.33914423 0.11855911
-0.15367626 -0.33941221 0.11894754
-0.14411944 -0.33918166 0.11875362
-0.13123396 -0.3390955 0.11858963
-0.12241259 -0.33940631 0.11907485
-0.1118702 -0.33915928 0.11876628
-0.10475993 -0.33927596 0.11897566
-0.094281681 -0.33954367 0.11935397
-0.086540066 -0.33911666 0.11850631
-0.073628202 -0.33936325 0.11895917
-0.063389748 -0.3392756 0.11901085
-0.056148246 -0.33937925 0.11909214
-0.045437839 -0.33916056 0.11868966
-0.037142258 -0.33938658 0.11913035
-0.026205005 -0.33937895 0.11899507
-0.019623734 -0.33965382 0.11947182
-0.0062272851 -0.3391912 0.11866398
0.0039813234 -0.33951071 0.11919616
0.015514594 -0.33915213 0.11860943
0.024986573 -0.33920836 0.11869111
0.035882149 -0.33917856 0.11868095
0.049016669 -0.33940029 0.11918919
0.056190953 -0.33975562 0.11955762
0.063736238 -0.33940256 0.11896255
0.072144806 -0.33944362 0.11883293
0.088442184 -0.33949748 0.11917189
0.094390571 -0.33919081 0.1186829
0.10456873 -0.33930969 0.11880416
0.11483708 -0.33936715 0.11895231
0.12864655 -0.33940637 0.11919789
0.13487835 -0.33935842 0.1191293
0.14741591 -0.33922309 0.11878814
0.15452658 -0.33930933 0.11885644
0.16197911 -0.33922458 0.1188402
0.17097798 -0.3395685 0.11935017
0.18571906 -0.33922312 0.11885697
0.19607826 -0.33916819 0.11715396
0.20290409 -0.33497283 0.11553075
0.21505743 -0.33802804 0.11999999
0.2249615 -0.33437771 0.11436038
-0.22483514 -0.32473275 0.11722333
-0.21579416 -0.32527316 0.11999999
-0.20526616 -0.32781389 0.11688051
0.2052983 -0.3241984 0.11886203
0.21441106 -0.32897356 0.11999998
0.22457494 -0.32518986 0.1169753
-0.2241241 -0.31486553 0.11544003
-0.21286725 -0.31395528 0.11999998
-0.20568292 -0.31261614 0.1194345
0.20609729 -0.31527492 0.11955384
0.2117725 -0.31388679 0.11999999
0.22485505 -0.31493917 0.11454225
-0.22465567 -0.30461818 0.11676337
-0.21214551 -0.30910856 0.11999999
-0.20623383 -0.3034063 0.11973077
0.20574062 -0.30218184 0.11953908
0.21622226 -0.30613628 0.11999999
0.22490719 -0.30548233 0.11586492
-0.22474158 -0.29505068 0.11566101
-0.21812716 -0.29982746 0.11999999
-0.20594442 -0.29446819 0.11942898
0.20604095 -0.29620495 0.11962982
0.21387175 -0.2918514 0.11999999
0.22486894 -0.29493284 0.11611015
-0.22498563 -0.28342599 0.11556041
-0.21411459 -0.28543904 0.11999999
-0.2057896 -0.28493115 0.11949027
0.20556965 -0.28541774 0.11907555
0.2161569 -0.28424928 0.11999998
0.22492328 -0.28441662 0.11444759
-0.22469713 -0.27397552 0.11622996
-0.21522991 -0.27476916 0.12
-0.20517111 -0.27150953 0.1187917
0.20668189 -0.27544227 0.11931174
0.2148962 -0.27525303 0.11999998
0.22491217 -0.2753098 0.11441733
-0.22443926 -0.26354185 0.1151736
-0.21690798 -0.26344621 0.11999998
-0.20658047 -0.26432547 0.11970765
0.20676227 -0.26515624 0.11973194
0.21664429 -0.26674646 0.11999999
0.22484273 -0.26425061 0.11682235
-0.2227502 -0.25744811 0.11636095
-0.2153047 -0.25576121 0.11578052
-0.20880835 -0.25495911 0.11585514
0.2076503 -0.25560263 0.11517351
0.2151327 -0.25685656 0.11450391
0.22359213 -0.25615531 0.11659788
-0.22395128 -0.24346192 0.11699209
-0.21496649 -0.24518478 0.11705259
-0.20774876 -0.24433193 0.11634051
0.20744175 -0.24575646 0.11680534
0.2143209 -0.2447395 0.11599997
0.22383603 -0.24561897 0.11692176
-0.22301839 -0.23448987 0.11476291
-0.21537307 -0.23470299 0.11519722
-0.20833297 -0.2365429 0.1152697
0.20783207 -0.23477028 0.11606821
0.2138638 -0.23509829 0.11450932
0.22384059 -0.23472983 0.11553285
-0.22359845 -0.22458653 0.11885469
-0.21497291 -0.22617835 0.11636364
-0.20787707 -0.22506928 0.115688
0.20729303 -0.22635101 0.11653935
0.21434981 -0.22532637 0.11644443
0.22337599 -0.22411473 0.11725674
-0.22331369 -0.21448162 0.1157388
-0.21539833 -0.21250962 0.11578045
-0.20763175 -0.21386254 0.11580317
0.20818205 -0.21565437 0.11460164
0.21395321 -0.21381275 0.11595524
0.22324596 -0.21227629 0.11623951
-0.22269662 -0.20581548 0.11681223
-0.21483801 -0.206551 0.11622861
-0.20839609 -0.20432736 0.11469395
0.2084589 -0.20503476 0.11545936
0.21499699 -0.20539315 0.11554575
0.22334121 -0.20498466 0.11664356
-0.22351253 -0.19387046 0.11723439
-0.21518953 -0.19494905 0.1162857
-0.20907013 -0.19454619 0.11320654
0.20874938 -0.19534902 0.11399385
0.21504858 -0.19427292 0.11692306
0.2231077 -0.19717334 0.11741183
-0.22262311 -0.18548134 0.11576574
-0.21497782 -0.18463467 0.1151172
-0.20723557 -0.18687619 0.11651299
0.20728397 -0.18430643 0.11706234
0.21450482 -0.1848772 0.11463528
0.22320849 -0.18489875 0.11604533
-0.22328477 -0.1752139 0.11794968
-0.21630199 -0.17528754 0.11723077
-0.20827076 -0.17448308 0.11552949
0.2082075 -0.17466879 0.11540198
0.21549727 -0.17507957 0.11666664
0.22391213 -0.1751661 0.11752301
-0.22343233 -0.16302857 0.11572797
-0.21585402 -0.16530707 0.11668059
-0.20763272 -0.16526158 0.1164209
0.20784767 -0.16584837 0.11661642
0.21481568 -0.16318676 0.11583789
0.22318313 -0.16663322 0.11628771
-0.22318543 -0.15611117 0.11653864
-0.215764 -0.15616712 0.1155169
-0.20785654 -0.15493798 0.11662444
0.20872585 -0.15451737 0.11508804
0.21413502 -0.15738031 0.11555766
0.22373563 -0.15612467 0.1168559
-0.22376099 -0.14601387 0.11716656
-0.2156571 -0.1448932 0.11674999
-0.20780396 -0.14673084 0.11560755
0.20804334 -0.14491716 0.11629084
0.21390961 -0.14547102 0.11599999
0.22365193 -0.14507376 0.1181583
-0.22323279 -0.13676716 0.11542756
-0.21541724 -0.13535477 0.1152582
-0.20788944 -0.13675684 0.11567085
0.20848186 -0.13698465 0.11439671
0.2146643 -0.13481981 0.11487351
0.2231103 -0.13511685 0.1153835
-0.22312085 -0.12506291 0.11771718
-0.2143608 -0.1249066 0.11649999
-0.20716952 -0.12538199 0.11665002
0.20738077 -0.12581474 0.11776447
0.21499968 -0.12453 0.11657141
0.22345877 -0.12395164 0.11768564
-0.22349571 -0.11416472 0.11674152
-0.21513107 -0.114185 0.11799999
-0.20861194 -0.11486665 0.11425363
0.2078356 -0.11368972 0.11741178
0.21470314 -0.1147918 0.11723074
0.22286451 -0.11421281 0.11857796
-0.22355458 -0.10619246 0.11483029
-0.21449305 -0.10701149 0.1149385
-0.20783599 -0.10429934 0.11638262
0.20790017 -0.10596523 0.11534771
0.21437036 -0.10539617 0.11545865
0.22298045 -0.10653627 0.11485864
-0.22311008 -0.095473535 0.11686356
-0.21526256 -0.095201202 0.11666664
-0.20788717 -0.094865359 0.11670141
0.20841567 -0.094580814 0.11622234
0.21430072 -0.095853642 0.11745455
0.22308934 -0.094951496 0.11692399
-0.22308165 -0.085528523 0.11750463
-0.21543153 -0.08650279 0.11661537
-0.20791429 -0.085625269 0.11655532
0.20827168 -0.083665431 0.11496545
0.21471697 -0.085213058 0.11709089
0.22350395 -0.084065795 0.11771471
-0.22251442 -0.073312163 0.1182728
-0.21380003 -0.075166166 0.11699998
-0.20769258 -0.074282117 0.11563203
0.20907708 -0.077897586 0.11355677
0.21565269 -0.074871302 0.11644444
0.22356535 -0.076321654 0.11743183
-0.22284268 -0.064904183 0.11799
-0.21532364 -0.064283065 0.11666664
-0.20851746 -0.065477423 0.11598287
0.20805645 -0.064551003 0.11456244
0.21373744 -0.066210985 0.11759999
0.22277682 -0.066339158 0.11642365
-0.22364411 -0.055618133 0.11768575
-0.21396303 -0.054760076 0.11599998
-0.20773743 -0.053833835 0.11485477
0.2079123 -0.05645477 0.11496069
0.21470051 -0.054847237 0.11733332
0.22336656 -0.05427175 0.11799096
-0.22379208 -0.045174435 0.11783126
-0.21571207 -0.04475826 0.11723074
-0.20783545 -0.046608392 0.11561193
0.20840785 -0.044583611 0.11573652
0.21375194 -0.045974948 0.11771427
0.22388056 -0.044364408 0.11805087
-0.22325879 -0.0351546 0.11742834
-0.21418405 -0.035855737 0.11661537
-0.20808381 -0.034501016 0.11601248
0.20829591 -0.036241155 0.11475562
0.21345638 -0.035909433 0.1170909
0.22406451 -0.035575606 0.1169676
-0.2229832 -0.024908874 0.11743459
-0.21526615 -0.024343301 0.11679997
-0.2077522 -0.024201054 0.11626716
0.20757134 -0.026175102 0.11542594
0.21579279 -0.026030425 0.11742856
0.22270182 -0.02427333 0.11739491
-0.22317751 -0.015389004 0.11807138
-0.21455148 -0.013299748 0.11657143
-0.20796566 -0.014390049 0.1161529
0.20775612 -0.014970613 0.11595206
0.21507044 -0.016339853 0.11659998
0.22350322 -0.014815966 0.11792535
-0.22327536 -0.0045929374 0.11720965
-0.21400815 -0.0053246524 0.11733332
-0.20749426 -0.0044003492 0.1172288
0.20838739 -0.0057960395 0.11580388
0.21501382 -0.0037542593 0.11733333
0.22364302 -0.0049683396 0.11705208
-0.22327484 0.0050208615 0.11700954
-0.21591821 0.0046786149 0.11745453
-0.20844372 0.0044307001 0.11448241
0.20732269 0.0034933698 0.11783739
0.21471199 0.0058033224 0.11636364
0.22313486 0.0059439791 0.11767334
-0.2227387 0.014693998 0.11741796
-0.21432939 0.016283659 0.11636364
-0.2084012 0.014957985 0.1159792
0.20845598 0.015475284 0.11554912
0.21468408 0.015352289 0.11706664
0.22270253 0.016686464 0.11715535
-0.22290719 0.025265703 0.11677787
-0.21467246 0.023656413 0.11674998
-0.20777917 0.024562353 0.11573545
0.20838875 0.0252726 0.11495391
0.2147205 0.025034308 0.11676188
0.22355776 0.026374744 0.11759378
-0.22376931 0.0348006 0.11743262
-0.21432935 0.034852583 0.11692306
-0.20776157 0.033505201 0.11679729
0.20778684 0.03704365 0.11717862
0.21517941 0.034776993 0.11694115
0.22364655 0.033429652 0.11705934
-0.22298998 0.044875246 0.11634019
-0.21654445 0.043943129 0.11733333
-0.20839556 0.04383963 0.1152505
0.20804681 0.045022592 0.11511156
0.2152162 0.0459993 0.11733332
0.22336553 0.043839924 0.11734767
-0.22318882 0.053955957 0.11713477
-0.21478871 0.054255713 0.11741174
-0.20786855 0.053868473 0.11609602
0.20730703 0.055203054 0.11720936
0.21368872 0.055303693 0.11624999
0.22283776 0.056129329 0.11741827
-0.22340105 0.066172637 0.11795267
-0.21572736 0.064306982 0.11644444
-0.20798701 0.065098912 0.1158166
0.20876834 0.065603711 0.11379094
0.21457633 0.065089174 0.11755555
0.2225657 0.064846262 0.11810336
-0.22331841 0.07529413 0.11727294
-0.21403469 0.075072713 0.11714285
-0.20812522 0.076022543 0.11559492
0.20768531 0.074096151 0.11665196
0.21530513 0.076630808 0.11709092
0.22407182 0.075831242 0.11751997
-0.22339994 0.083903879 0.11713953
-0.21523136 0.086444303 0.1165
-0.20826368 0.085113592 0.11456361
0.20771052 0.08474689 0.11758919
0.21520925 0.085684091 0.11719999
0.22330801 0.085256301 0.11841325
-0.2239441 0.093981534 0.11722551
-0.2152812 0.094398603 0.11699998
-0.20791942 0.093437761 0.11654881
0.20820354 0.09593837 0.11492879
0.21427163 0.096274175 0.1172
0.22238424 0.094506741 0.11796711
-0.22355266 0.10462601 0.11657383
-0.21519324 0.10475096 0.11497792
-0.20875633 0.10520797 0.11741872
0.20774223 0.10562684 0.11737626
0.21443813 0.10414904 0.11682742
0.22301155 0.10573661 0.11523138
-0.22287996 0.11409421 0.11681239
-0.21499474 0.11246621 0.11456374
-0.20853339 0.11425377 0.11583003
0.20900029 0.11390316 0.11437272
0.2151299 0.11477128 0.11615334
0.2229884 0.11437906 0.11581905
-0.22285713 0.12667544 0.11749276
-0.21520326 0.12483541 0.11739998
-0.20780244 0.12447008 0.11574177
0.20877676 0.12433247 0.11404905
0.21573327 0.12566443 0.1168889
0.22321655 0.12517236 0.11779026
-0.22292556 0.13543668 0.11498504
-0.21446428 0.13597769 0.1141743
-0.20810947 0.13441761 0.11603171
0.2078428 0.13623552 0.11594697
0.21417654 0.13586989 0.11461992
0.22316691 0.13538416 0.11517189
-0.2232534 0.14393541 0.11724596
-0.21463148 0.14587332 0.11723074
-0.2081399 0.14480197 0.11578956
0.20772478 0.14569449 0.11671145
0.21594501 0.14363413 0.11679997
0.22324327 0.14506972 0.11743909
-0.2230069 0.15520453 0.1169304
-0.21556439 0.15625459 0.11536998
-0.20773113 0.15587068 0.11680504
0.20845039 0.15514348 0.11591567
0.21441652 0.15668216 0.11574983
0.2232153 0.1551619 0.11693365
-0.2234534 0.16406548 0.11604872
-0.21527547 0.16338128 0.11573742
-0.20761336 0.16598091 0.11524497
0.20767078 0.16447833 0.11628061
0.21528099 0.164055 0.11478455
0.22418189 0.16454659 0.11729839
-0.22368234 0.17451428 0.11721919
-0.2149713 0.17556471 0.11694115
-0.20790216 0.17565726 0.1160477
0.20782574 0.17453782 0.11551132
0.21568125 0.17597912 0.11679999
0.22321276 0.17423366 0.11831591
-0.22371468 0.18502872 0.11490249
-0.21394062 0.18566576 0.11507158
-0.20851745 0.18610097 0.11411071
0.20757571 0.18549739 0.11582379
0.21604674 0.18505384 0.11555395
0.22311689 0.18545201 0.11594603
-0.2231959 0.19472115 0.11721916
-0.21253915 0.19577424 0.11666667
-0.20799673 0.1953807 0.11763116
0.20840722 0.19517478 0.11548007
0.21526243 0.19383878 0.11624998
0.22368534 0.19332305 0.11784956
-0.22298183 0.20543988 0.1157659
-0.2154543 0.20613417 0.11514924
-0.20802167 0.20458649 0.11654342
0.20934165 0.20438869 0.11504558
0.21373844 0.20539278 0.11502186
0.22308721 0.2049071 0.11543463
-0.22323687 0.2145571 0.11615974
-0.21475588 0.21421161 0.11668973
-0.2081399 0.21448612 0.11566772
0.20882192 0.2144347 0.11292004
0.21514174 0.21345459 0.11593524
0.22367345 0.21479531 0.11616239
-0.22333604 0.22559939 0.11680754
-0.21367078 0.22505903 0.1164
-0.20877689 0.22541434 0.11435198
0.20832142 0.22509144 0.11560023
0.21512108 0.22493564 0.11653332
0.22315739 0.22435123 0.11713967
-0.2239321 0.23375551 0.11664791
-0.21497583 0.23463739 0.11439066
-0.2081617 0.23544267 0.1159326
0.20779455 0.23501234 0.11550757
0.21453495 0.23366499 0.11508155
0.22384346 0.23433316 0.11543594
-0.22391905 0.24551815 0.11731727
-0.21464241 0.24630401 0.11714285
-0.20762403 0.24556199 0.11597882
0.20838213 0.24333468 0.11552028
0.21422559 0.24562961 0.11649999
0.22312091 0.24494766 0.11733814
-0.2238365 0.2542651 0.11713883
-0.21508412 0.25649172 0.11599998
-0.20844465 0.25519314 0.11511172
0.20755552 0.25516099 0.1160598
0.21523315 0.25535077 0.1168
0.22287869 0.25456494 0.117855
-0.22430158 0.26370361 0.11582629
-0.21598506 0.26059905 0.11502415
-0.20722222 0.26365978 0.11891843
0.20651764 0.26646483 0.11942452
0.21603158 0.26214081 0.11473442
0.22390898 0.26261121 0.11474228
-0.22474438 0.27599576 0.11539377
-0.21523082 0.27398565 0.11999998
-0.20572703 0.27089289 0.1195299
0.20550542 0.27781186 0.11927155
0.21824132 0.27528 0.11999999
0.2249784 0.27614728 0.11430445
-0.22456154 0.28569102 0.1162704
-0.21319114 0.28146973 0.11999998
-0.20771742 0.28877962 0.11991012
0.20613754 0.28112301 0.11979598
0.21582325 0.28372788 0.11999998
0.22471152 0.28368539 0.11754093
-0.22484975 0.29566416 0.11492403
-0.21451919 0.29367295 0.11999998
-0.20888777 0.29446834 0.11994917
0.20604564 0.29523015 0.11937421
0.21426243 0.29402804 0.12
0.22459029 0.29326767 0.115543
-0.2241275 0.30432233 0.11672772
-0.21474868 0.3051219 0.12
