# .PCD v0.7 - Point Cloud Data file format
VERSION 0.7
FIELDS x y z
SIZE 4 4 4
TYPE F F F
COUNT 1 1 1
WIDTH 1358
HEIGHT 1
VIEWPOINT 0 0 0 1 0 0 0
POINTS 1358
DATA ascii
0.045993894 0.29599541 0.015000001
0.055681109 0.29511997 0.015
0.0648963 0.29611838 0.015
0.074733518 0.29498351 0.014999998
0.085460745 0.29513454 0.014999999
0.094189927 0.29388788 0.015
0.10455314 0.29426426 0.014999997
0.11417023 0.2954652 0.015
0.12425008 0.29547605 0.015000001
0.13475333 0.29540107 0.015000001
0.14550085 0.29481807 0.015
0.1582426 0.29546392 0.015000001
0.16515955 0.29447019 0.015
0.17594156 0.29635191 0.015000001
0.18202747 0.2937066 0.016586313
0.20900005 0.29494447 0.015708894
0.22300537 0.29505107 0.015458688
-0.22250892 0.30470929 0.014785687
-0.20899999 0.30560446 0.013468387
-0.1814955 0.30565766 0.017047349
-0.17551361 0.30496788 0.015476608
-0.16459744 0.30677474 0.015797315
-0.15575704 0.30614382 0.015767047
-0.14592701 0.30644113 0.015495465
-0.13438058 0.30522305 0.015000001
-0.12417536 0.30450332 0.015000001
-0.11489855 0.30578116 0.015
-0.10543101 0.30436751 0.015
-0.094340928 0.30678493 0.015000001
-0.085187294 0.30497032 0.014999999
-0.075928278 0.3052901 0.015000001
-0.064548343 0.30345219 0.015264137
-0.05490616 0.30682158 0.016147988
-0.04493412 0.30575612 0.015303314
-0.033673756 0.30660748 0.015848173
-0.025901502 0.30791029 0.01640543
-0.01526341 0.30503112 0.016924392
0.015645418 0.30476469 0.016081663
0.024215724 0.30737138 0.015866386
0.03437224 0.30580992 0.015797129
0.043226391 0.30709916 0.016394788
0.056882262 0.30628103 0.016147759
0.065259002 0.30521286 0.015725849
0.074583851 0.30471537 0.015
0.085417256 0.30441606 0.015000001
0.095654115 0.30358687 0.015000001
0.10527634 0.30624816 0.015
0.1147123 0.30487919 0.015000001
0.12498036 0.30438763 0.015
0.1354073 0.30523482 0.015000001
0.14400886 0.30649692 0.016017454
0.15543328 0.30560803 0.015393674
0.16324542 0.30644345 0.016017096
0.17506059 0.30645818 0.015751822
0.18150184 0.30390555 0.016890632
0.20900001 0.30578685 0.015932184
0.22303216 0.30575603 0.015422614
-0.22281981 0.3144705 0.015567906
-0.20900002 0.31560087 0.016621074
-0.14081444 0.31460276 0.016859431
-0.13493674 0.31593987 0.015000001
-0.12544093 0.3149246 0.015000001
-0.11456138 0.3148573 0.015
-0.10457626 0.31632277 0.015000001
-0.094562493 0.31506902 0.015000001
-0.086360671 0.31400722 0.015000001
-0.075926527 0.31591797 0.015000001
-0.066347823 0.3141472 0.016475759
0.065879069 0.31485042 0.016044118
0.074033089 0.31429461 0.015000001
0.08374352 0.31626752 0.015000001
0.09336292 0.31453413 0.015
0.10464641 0.31573728 0.015
0.11462782 0.3159242 0.015000001
0.1230643 0.31482548 0.014999997
0.13603218 0.31622228 0.015000001
0.14070842 0.31429166 0.01824056
0.20899999 0.31680256 0.014491169
0.2234779 0.31388 0.01657315
-0.22296356 0.32538322 0.01570834
-0.20723875 0.32628456 0.015215413
-0.19461276 0.3289108 0.016684661
-0.18656871 0.32908064 0.015965786
-0.174328 0.32911479 0.016930997
-0.1661206 0.32891229 0.017724276
-0.15425274 0.32911736 0.016634276
-0.14321414 0.32688662 0.017209969
-0.13537949 0.32420364 0.015000001
-0.12558636 0.32478175 0.015
-0.11491822 0.32537854 0.014999999
-0.10676844 0.32597461 0.014999999
-0.095669873 0.32283399 0.015
-0.085198618 0.32464021 0.015
-0.075596653 0.32479858 0.015000001
-0.065834545 0.32595125 0.01570731
-0.054100305 0.32894415 0.017290343
-0.046320479 0.32881221 0.017146463
-0.032738071 0.32896122 0.016748752
-0.025883561 0.32883966 0.017496033
-0.015330017 0.32898715 0.016646301
-0.0050302306 0.32896763 0.016320148
0.00685634 0.32900468 0.016602702
0.016488945 0.32880524 0.017226039
0.025912659 0.32898587 0.01718867
0.034810096 0.3287437 0.017929744
0.047113694 0.32878661 0.017439377
0.055872593 0.32893077 0.016907699
0.065946631 0.32393903 0.015477784
0.075624563 0.32362887 0.015
0.08423464 0.32438982 0.015000001
0.094733812 0.32383779 0.015000001
0.10637194 0.32443333 0.014999999
0.11526202 0.32472464 0.015000001
0.12474775 0.32540774 0.014999999
0.13383949 0.3240104 0.015
0.14240782 0.3260814 0.017021131
0.15820321 0.32872975 0.018089406
0.16633168 0.32887188 0.016576044
0.17546967 0.32869402 0.018497642
0.18602948 0.32894507 0.016142258
0.19556363 0.3288295 0.017447198
0.20580439 0.32744622 0.015084048
0.22256544 0.32546234 0.015840277
-0.22333278 0.33423585 0.014662373
-0.20577429 0.3352775 0.01567702
-0.19393276 0.33499095 0.01559008
-0.18602102 0.33439845 0.015227637
-0.17777963 0.33574057 0.015773797
-0.16504091 0.33291778 0.015064378
-0.15415925 0.33376253 0.015659833
-0.14449236 0.33398724 0.015173046
-0.13559645 0.3345643 0.015526857
-0.12561265 0.33602434 0.015437778
-0.11437658 0.33470666 0.015223718
-0.10532907 0.33553869 0.015830806
-0.095809221 0.33536434 0.015536976
-0.08572682 0.33568239 0.015345699
-0.075385831 0.33441919 0.015183256
-0.065514416 0.33386049 0.015055196
-0.05613105 0.33457366 0.015213705
-0.043788679 0.3335883 0.015054499
-0.035476927 0.33697048 0.015955899
-0.024705544 0.33424664 0.015213661
-0.013283331 0.33512902 0.015277334
-0.0043256725 0.33611158 0.015549129
0.0046535349 0.33456919 0.015244351
0.0151724 0.33478427 0.01532366
0.024467139 0.33533639 0.015757373
0.035729446 0.3356705 0.015593519
0.045101546 0.33327398 0.015305574
0.054594219 0.33452442 0.015277384
0.065501571 0.33523226 0.015562215
0.074631222 0.33485162 0.015186642
0.085354455 0.33611682 0.01563785
0.097643107 0.3343426 0.015148258
0.10590281 0.3356899 0.015490708
0.11552718 0.33548674 0.015519846
0.12505858 0.33433184 0.015263647
0.13467976 0.33595058 0.01532271
0.14495328 0.33619621 0.015412931
0.154403 0.33592042 0.015397937
0.1630865 0.33504072 0.015570605
0.17554148 0.33457756 0.015203021
0.18588339 0.33531263 0.015580614
0.19471316 0.33577338 0.01612555
0.20605966 0.33443457 0.015682414
0.22288889 0.33569148 0.015828835
-0.22242089 0.34486824 0.014154807
-0.21872029 0.3473492 0.015673907
-0.20400392 0.34151599 0.013919453
-0.19558445 0.34299266 0.015823033
-0.18661252 0.34299996 0.014878318
-0.17370498 0.34299996 0.014263585
-0.1669521 0.34299996 0.016295148
-0.15486082 0.34299892 0.016267149
-0.14663328 0.34299996 0.015533437
-0.13673227 0.34299996 0.014435035
-0.12324181 0.34299996 0.014026303
-0.11506666 0.34299996 0.015724948
-0.10556457 0.34300002 0.015213086
-0.095645867 0.34299996 0.014455142
-0.084568761 0.34299996 0.015779437
-0.074338607 0.34299996 0.016602084
-0.06465368 0.34299996 0.015138845
-0.055847574 0.34299996 0.014149647
-0.043490581 0.34299996 0.015527728
-0.03586068 0.34299996 0.014800176
-0.025154456 0.34299996 0.015236843
-0.015291513 0.34299996 0.015122477
-0.006191479 0.34299996 0.014884186
0.0041991426 0.34299996 0.016148113
0.014800742 0.34299996 0.013568036
0.025500437 0.34299996 0.01518046
0.036785614 0.34299996 0.01557828
0.045987222 0.34299996 0.013673223
0.057557635 0.34299996 0.015667021
0.065709643 0.34299996 0.015756717
0.073733419 0.34299996 0.016014779
0.086275458 0.34299996 0.015835427
0.095130756 0.34299996 0.016270556
0.10631438 0.34299996 0.015047702
0.11492768 0.34299996 0.01347448
0.1255558 0.34299999 0.015953805
0.13496579 0.34299996 0.014319382
0.14527592 0.34299996 0.01568098
0.15613778 0.34299996 0.014602778
0.16298705 0.34297019 0.014772661
0.17535514 0.34297457 0.013875496
0.18561734 0.34298769 0.014438831
0.19406481 0.34299415 0.01443242
0.2031433 0.34179255 0.015511845
0.21781681 0.34837833 0.016933842
0.2222704 0.34374887 0.015848588
-0.22039029 0.35170209 0.019237962
-0.21501054 0.35395905 0.015689444
-0.2049246 0.35771167 0.015411232
-0.19518293 0.35749343 0.014628584
-0.1850985 0.35706359 0.015294464
-0.17452817 0.35679117 0.015114498
-0.16446319 0.35638317 0.015315329
-0.15476587 0.35730025 0.016795961
-0.14421223 0.35713097 0.015304909
-0.13401884 0.35761616 0.016180251
-0.12488575 0.35681733 0.015324155
-0.11484948 0.35686329 0.015112311
-0.10524 0.35722423 0.014917488
-0.094741635 0.35730788 0.015827954
-0.085115023 0.35724938 0.015755374
-0.075526029 0.35647357 0.015583968
-0.064361915 0.35714129 0.016067095
-0.054860979 0.35756028 0.015735716
-0.045833573 0.35726452 0.015437448
-0.035089958 0.35676903 0.015511038
-0.024952199 0.35646993 0.014735849
-0.015962914 0.35686743 0.014232876
-0.0042419261 0.35695052 0.015319714
0.0049094167 0.35728478 0.015098575
0.015600659 0.35704008 0.014895618
0.024220174 0.35675493 0.015681278
0.035307202 0.35635126 0.014897376
0.045372918 0.35667542 0.015867718
0.056238458 0.35725936 0.014247053
0.065545335 0.35747492 0.016105348
0.074097462 0.35727975 0.016390571
0.085497066 0.35644487 0.014839564
0.095296375 0.35754761 0.015791086
0.10615995 0.35719505 0.014801258
0.11518493 0.35758317 0.015990481
0.12431753 0.35656306 0.016220016
0.13442868 0.3575094 0.015228967
0.144794 0.35723487 0.014866124
0.15599257 0.3571085 0.014736501
0.16581893 0.35711139 0.015860289
0.17513189 0.3567991 0.015290148
0.18477735 0.35728565 0.016044451
0.19461687 0.35707206 0.014593258
0.20473535 0.35695493 0.015438885
0.21397063 0.35474938 0.015551297
0.22086899 0.35094294 0.015540487
-0.22080982 -0.35115796 0.022460606
-0.21485004 -0.35352796 0.025133245
-0.20486979 -0.35553733 0.024962667
-0.19516182 -0.35727409 0.025294203
-0.18439701 -0.35497677 0.025400264
-0.1746477 -0.35613501 0.025245653
-0.16456254 -0.35691896 0.025284901
-0.15611267 -0.35637742 0.0243521
-0.14483424 -0.35624757 0.025126593
-0.13528194 -0.35698935 0.025283584
-0.12504984 -0.3558231 0.024655728
-0.11544369 -0.35616753 0.024027783
-0.10460753 -0.3570289 0.024666637
-0.095379867 -0.35572258 0.024874546
-0.083947174 -0.35647488 0.025349164
-0.074042201 -0.35596913 0.024914904
-0.065483242 -0.35561875 0.024655294
-0.054792736 -0.35600019 0.025343036
-0.044550292 -0.35705087 0.025883274
-0.034935072 -0.3560921 0.02586535
-0.025656905 -0.35747489 0.024328481
-0.015273393 -0.35615057 0.025162483
-0.0040771561 -0.35607225 0.024941202
0.0055088187 -0.3556374 0.025596123
0.014863944 -0.35652658 0.025513278
0.024564274 -0.35607454 0.024806501
0.035678845 -0.35746324 0.023841837
0.045758426 -0.35611483 0.024710489
0.054757372 -0.35615563 0.025215819
0.064623728 -0.35617718 0.023842942
0.074222639 -0.35536605 0.024297727
0.084658742 -0.35609362 0.025873056
0.095252007 -0.3559888 0.026068395
0.10497289 -0.3560178 0.025014464
0.11578099 -0.35574862 0.024771845
0.12464069 -0.35592586 0.024851006
0.13463287 -0.35683775 0.024325192
0.14428078 -0.35600615 0.024866406
0.15460429 -0.35688779 0.024801677
0.16431949 -0.35601389 0.025649192
0.17464021 -0.35659325 0.024891619
0.18560858 -0.35680416 0.024689436
0.19425957 -0.35602489 0.023999494
0.2045341 -0.35728717 0.024297692
0.21421534 -0.35407072 0.024156215
0.2202545 -0.35191813 0.02680359
-0.22360682 -0.34469035 0.025729887
-0.21706592 -0.34614801 0.024077978
-0.20409876 -0.34412748 0.025398023
-0.19587155 -0.3447924 0.025910622
-0.1853576 -0.34471273 0.025802244
-0.1748265 -0.34448323 0.024802109
-0.16540223 -0.34395683 0.024563698
-0.1539911 -0.34557566 0.025097193
-0.14585564 -0.34479353 0.026314609
-0.13605681 -0.34495363 0.025169114
-0.12519094 -0.34537998 0.025868844
-0.11527731 -0.34514368 0.0251517
-0.10574715 -0.34579754 0.027000001
-0.094497196 -0.3449423 0.025821308
-0.084849209 -0.34531608 0.025570571
-0.075670168 -0.34542039 0.024706401
-0.064804517 -0.3436501 0.024800213
-0.055561308 -0.34510612 0.024904216
-0.045984935 -0.34430605 0.024992988
-0.035566472 -0.34418339 0.025228657
-0.025235096 -0.34482393 0.025784876
-0.014147228 -0.34468439 0.025253311
-0.0055267876 -0.34499407 0.024804726
0.0056728278 -0.34576076 0.025197366
0.014757012 -0.34521139 0.025593227
0.024787834 -0.34438765 0.025871698
0.035386447 -0.34505805 0.025642436
0.046101902 -0.34531081 0.024586082
0.054775372 -0.34471238 0.025408968
0.064665906 -0.34570897 0.026339056
0.074795954 -0.3443886 0.025100967
0.084587179 -0.34468183 0.0253949
0.093556635 -0.34509701 0.024928274
0.10567308 -0.34431863 0.024582792
0.1143188 -0.3447932 0.025597388
0.12568 -0.34394693 0.023132131
0.13467257 -0.34544539 0.02559299
0.14409636 -0.34490141 0.025282413
0.15409753 -0.34498206 0.025060302
0.16442907 -0.34576061 0.026011242
0.17553087 -0.34478763 0.025307538
0.1854434 -0.34421632 0.025546849
0.19529954 -0.34464711 0.025890542
0.20522118 -0.34492537 0.026315028
0.21647361 -0.34656155 0.024716105
0.22247057 -0.34481174 0.024999849
-0.22259919 -0.3345795 0.025071599
-0.21485041 -0.33534956 0.027000003
-0.20486152 -0.33364722 0.024532476
-0.19777983 -0.33846137 0.025510402
0.19742526 -0.33857462 0.025393773
0.20627987 -0.33397731 0.025598049
0.21339767 -0.3358852 0.027000001
0.22316828 -0.33426157 0.024363793
-0.22352628 -0.32547775 0.023971649
-0.21337588 -0.32473937 0.027000001
-0.20900001 -0.32562 0.023323942
0.20912769 -0.3240107 0.023608923
0.21508588 -0.32473576 0.026999999
0.22277774 -0.32473457 0.024538476
-0.22419998 -0.31536669 0.025070319
-0.21608716 -0.31385374 0.027000001
-0.20908582 -0.3165471 0.023763601
0.20910604 -0.31478676 0.02544569
0.2151577 -0.3149752 0.027000001
0.22333257 -0.31494352 0.024247237
-0.22327483 -0.30456138 0.025511183
-0.21350685 -0.30528274 0.027000001
-0.20907246 -0.30457109 0.023013132
0.20900002 -0.30446827 0.024403814
0.21513996 -0.30608246 0.027000001
0.22316571 -0.30390489 0.024622353
-0.22269389 -0.29466254 0.024181338
-0.2149111 -0.29405165 0.027000001
-0.20917611 -0.29696077 0.02377885
0.20833333 -0.29592815 0.022890927
0.21485202 -0.29535615 0.027000001
0.2232212 -0.29470786 0.024652338
-0.22403446 -0.28453565 0.02493426
-0.21488549 -0.28403142 0.027000003
-0.20900001 -0.28497958 0.022903005
-0.13186459 -0.28316644 0.024984544
-0.12414501 -0.28736925 0.025653144
-0.11434607 -0.28791875 0.023813855
-0.10601461 -0.28753948 0.024870979
-0.09552554 -0.28781766 0.024055708
-0.085994981 -0.28776538 0.024165513
-0.074867077 -0.28711927 0.026300853
-0.063855983 -0.28588712 0.024169315
0.06464532 -0.28582454 0.026084743
0.076277338 -0.28708819 0.026499197
0.085768826 -0.28762719 0.024449095
0.094401397 -0.28743538 0.025360538
0.10568676 -0.28722808 0.025878478
0.11516013 -0.28723279 0.026007369
0.12524952 -0.28715786 0.025472632
0.13172936 -0.28378597 0.025164435
0.20779759 -0.28418028 0.023851793
0.21315448 -0.2844044 0.026999997
0.2228131 -0.28452304 0.024851393
-0.22343478 -0.27537012 0.025331723
-0.21493 -0.27637812 0.027000001
-0.20919041 -0.27347541 0.024089849
-0.13200943 -0.27755147 0.023120048
-0.12615308 -0.27112883 0.026556741
-0.11345548 -0.27130291 0.027770963
-0.10559657 -0.27110243 0.027178677
-0.093732931 -0.27051827 0.025452903
-0.083065622 -0.27085775 0.026455814
-0.07474079 -0.27118826 0.027432203
-0.062209249 -0.27411005 0.024789376
0.063227274 -0.27410766 0.025905365
0.073901236 -0.2713719 0.027974837
0.084429048 -0.27079725 0.026277071
0.095416084 -0.27147827 0.028289039
0.10570072 -0.27095002 0.026728457
0.11308723 -0.27057186 0.025611192
0.12695509 -0.27154201 0.027795415
0.13151626 -0.27450329 0.024013419
0.20722222 -0.27668411 0.022899158
0.21383524 -0.27406016 0.027000001
0.22323968 -0.27575994 0.024946323
-0.22366662 -0.26442784 0.023539556
-0.21453653 -0.26427355 0.027000001
-0.20905855 -0.2653479 0.024436353
-0.12363335 -0.26964673 0.022051614
-0.1164028 -0.26953098 0.021001974
-0.10557237 -0.26961207 0.021912679
-0.0960247 -0.26976696 0.022829369
-0.085607462 -0.26955286 0.021314859
-0.077690147 -0.26970553 0.022614574
-0.067313209 -0.26962173 0.022100652
0.066400111 -0.2696557 0.021657862
0.072054967 -0.26984689 0.023469407
0.089006662 -0.26958108 0.021558516
0.098368704 -0.26947379 0.020411789
0.10583369 -0.26975623 0.022536185
0.11659575 -0.26965177 0.02233105
0.12258635 -0.26974869 0.022977773
0.20789251 -0.26449287 0.023677027
0.21483897 -0.2641131 0.026999999
0.22366664 -0.26508951 0.023551617
-0.22375201 -0.2550199 0.025072701
-0.21529658 -0.25484371 0.026999999
-0.20901015 -0.2544989 0.024225596
0.20744331 -0.25463235 0.023446172
0.21487316 -0.25537169 0.026999999
0.22344728 -0.25536376 0.025386836
-0.22301872 -0.24584827 0.02410779
-0.21518849 -0.24729873 0.027000001
-0.20917296 -0.24615788 0.024667332
0.20599999 -0.244599 0.023201674
0.21343297 -0.24540693 0.027000003
0.22265463 -0.24816681 0.024478596
-0.22339916 -0.23416893 0.024166681
-0.21547571 -0.23509307 0.027000004
-0.20907338 -0.23495516 0.024483699
0.20592308 -0.23673193 0.02365431
0.21350761 -0.23389301 0.027000001
0.22307271 -0.23535863 0.024151031
-0.2240018 -0.22427967 0.026165403
-0.21498582 -0.22240889 0.027000001
-0.20917676 -0.22520004 0.024057927
0.20650251 -0.22495355 0.025225129
0.21581185 -0.22511524 0.026999999
0.22372727 -0.22433561 0.023770535
-0.22296073 -0.21374817 0.025467455
-0.21299727 -0.2161499 0.027000001
-0.20924102 -0.21616355 0.025111843
0.20690952 -0.21535681 0.024511121
0.21585885 -0.21379526 0.027000001
0.22270577 -0.21569428 0.025494659
-0.2232222 -0.20502299 0.0239316
-0.21543761 -0.20478933 0.026999999
-0.20909357 -0.20371261 0.023336265
0.20643671 -0.20468783 0.024203476
0.2137817 -0.20597026 0.027000004
0.22336611 -0.2058856 0.023608997
-0.22322309 -0.19544113 0.024346882
-0.2166633 -0.19499658 0.026999999
-0.20900311 -0.19348653 0.02380261
0.20639025 -0.19396544 0.024948554
0.21531785 -0.19478577 0.026999999
0.22326086 -0.19506559 0.024586957
-0.22390908 -0.18490387 0.023642696
-0.21347521 -0.1833742 0.026999999
-0.20696339 -0.18592848 0.023990138
-0.19747095 -0.1879964 0.02647038
-0.18430421 -0.18468 0.024595348
-0.011031169 -0.18079966 0.023829652
-0.0059662811 -0.18584633 0.026911505
0.0059482246 -0.18692987 0.025817875
0.010829358 -0.182413 0.024027508
0.18639973 -0.1862171 0.025863623
0.19611947 -0.18815558 0.024650516
0.20566419 -0.18669011 0.025395447
0.2153261 -0.18544084 0.027000001
0.22322623 -0.18528323 0.024283014
-0.22339997 -0.17505665 0.024654141
-0.21521723 -0.17442343 0.027000001
-0.20908065 -0.17599377 0.023318142
-0.18355213 -0.1743753 0.025049593
-0.011284766 -0.17488562 0.022401176
0.0090852752 -0.17470936 0.029578472
0.011044499 -0.17499711 0.02334038
0.18370175 -0.17469388 0.025820268
0.20902033 -0.17371002 0.023479313
0.21413557 -0.17663908 0.026999999
0.22352628 -0.1747907 0.024056599
-0.22366664 -0.16448982 0.022601763
-0.21726322 -0.16517603 0.027000001
-0.20899999 -0.1648275 0.023214931
-0.18336749 -0.16471866 0.024871163
-0.010977804 -0.16394939 0.023624802
-0.0094153481 -0.16597253 0.028603327
0.009486001 -0.16277373 0.028394595
0.010884894 -0.16536137 0.023809599
0.18343323 -0.16496898 0.02476735
0.20899999 -0.16520889 0.023218308
0.21549818 -0.16281186 0.027000004
0.22295254 -0.16340336 0.023939313
-0.22279614 -0.15468194 0.024634335
-0.21424448 -0.1566658 0.027000001
-0.20902283 -0.15415244 0.024238335
-0.18330218 -0.15624283 0.024320833
-0.011030734 -0.15451318 0.023166234
-0.0089903064 -0.15318616 0.029859047
0.0096632568 -0.15578842 0.027870923
0.010671982 -0.15742552 0.02489081
0.18337677 -0.15546456 0.024617929
0.20909441 -0.1533806 0.024820535
0.21474557 -0.15414244 0.027000003
0.2232807 -0.15454485 0.024156798
-0.22272785 -0.14471927 0.02417665
-0.21529597 -0.14543432 0.027000004
-0.20901452 -0.14395437 0.023433333
-0.18387035 -0.14503488 0.026181828
-0.010949054 -0.14478485 0.023632014
-0.0096632484 -0.14728253 0.027870944
0.0095158722 -0.14403203 0.028306345
0.010955834 -0.14579344 0.023653643
0.18363465 -0.14463213 0.025492752
0.20899999 -0.14487548 0.023394356
0.21557842 -0.14648749 0.027000001
0.222626 -0.14514795 0.024017613
-0.22335291 -0.13547938 0.024191644
-0.21455629 -0.13473253 0.027000006
-0.20911086 -0.13366488 0.024972534
-0.18344079 -0.13682604 0.025033677
-0.010984525 -0.13510306 0.023497732
-0.0094340835 -0.13392039 0.028547976
0.0095001496 -0.13300441 0.028352797
0.011090931 -0.13365375 0.023075884
0.1836537 -0.1347734 0.02573837
0.20899999 -0.13566947 0.024095573
0.21311143 -0.1335963 0.027000001
0.22294597 -0.13552789 0.02435004
-0.22264001 -0.12547137 0.023126157
-0.21597746 -0.12659901 0.027000001
-0.20900001 -0.12517384 0.024090277
-0.18333641 -0.12499708 0.024325734
-0.010838572 -0.12526028 0.024078298
-0.0097389091 -0.12270196 0.027647421
0.0092751877 -0.12752175 0.029017409
0.011141772 -0.12734814 0.023109658
0.18350905 -0.12422386 0.025242927
0.20900001 -0.12480158 0.024567256
0.21557744 -0.12493197 0.027000001
0.22411111 -0.12392291 0.024989776
-0.22259122 -0.11423762 0.024707085
-0.21414998 -0.11430719 0.026999999
-0.20910791 -0.11446293 0.02328044
-0.18350013 -0.11515035 0.024753504
-0.011304797 -0.11610293 0.022359151
-0.0093746902 -0.11549477 0.028723443
0.0092569236 -0.11296885 0.029071365
0.011057547 -0.11553773 0.023318393
0.18329053 -0.11567708 0.024385037
0.20900002 -0.11603354 0.024231082
0.21524435 -0.11324387 0.027000003
0.22284415 -0.11642379 0.024315326
-0.22264816 -0.10418242 0.024947969
-0.21448821 -0.10441967 0.027000001
-0.20907617 -0.10543173 0.023469804
-0.18374668 -0.10395718 0.025985025
-0.011060819 -0.10425616 0.023059769
-0.0095721362 -0.1058344 0.028140124
0.0093774581 -0.10478426 0.028715268
0.010786488 -0.10420945 0.02428117
0.18369395 -0.10559759 0.025675762
0.2090323 -0.10683683 0.02445538
0.21540701 -0.10516588 0.026999999
0.22383687 -0.10470537 0.02378634
-0.22309609 -0.094019488 0.024878643
-0.21328498 -0.096348174 0.027000003
-0.20900001 -0.09500844 0.023821345
-0.18332726 -0.094337419 0.02417624
-0.011200079 -0.094430923 0.022677759
-0.0092796655 -0.095049679 0.029004183
0.0096045807 -0.093597867 0.028044268
0.010733033 -0.095681742 0.024700854
0.18365712 -0.09521012 0.025600757
0.20935072 -0.093271479 0.024451638
0.21549441 -0.094628043 0.027000003
0.22291191 -0.096138775 0.024666106
-0.22285116 -0.086023472 0.024881709
-0.21473037 -0.084647417 0.027000004
-0.20899999 -0.084294461 0.024152212
-0.18322973 -0.085207477 0.024067944
-0.010955431 -0.084563956 0.023753725
-0.0094237151 -0.088427998 0.028578609
0.0095372396 -0.087209448 0.028243219
0.011170205 -0.082198024 0.023264322
0.18320832 -0.082872905 0.024355317
0.20908929 -0.085914902 0.024676519
0.2146942 -0.083717041 0.027000001
0.22306769 -0.084193379 0.02509865
-0.22207108 -0.075098552 0.024621751
-0.21543978 -0.075129226 0.026999999
-0.20905046 -0.076617345 0.0248113
-0.18364295 -0.073775329 0.02565214
-0.011155423 -0.07590729 0.023103509
-0.0092622843 -0.074066848 0.029055528
0.0095828539 -0.072862744 0.028108461
0.011204747 -0.07448145 0.022541752
0.18335064 -0.073716424 0.02473034
0.20900162 -0.073672406 0.023733828
0.21403717 -0.076285027 0.027000001
0.22339995 -0.075841583 0.023788609
-0.22353205 -0.065049216 0.024736701
-0.21376291 -0.064851865 0.026999999
-0.20900001 -0.062960759 0.024772493
-0.18318613 -0.063854478 0.024178766
-0.01080351 -0.066423476 0.024102353
-0.0095423423 -0.06400311 0.028228145
0.0095429234 -0.064389616 0.02822643
0.010571456 -0.06395524 0.025133435
0.18407872 -0.065361388 0.026846042
0.20905772 -0.063378848 0.02425536
0.21487992 -0.065151736 0.027000003
0.22288465 -0.065306865 0.024959937
-0.22296821 -0.054358397 0.024589697
-0.21452288 -0.054740522 0.027000003
-0.20900001 -0.055390894 0.024327498
-0.1836682 -0.054878995 0.025366606
-0.010909185 -0.055207353 0.023941088
-0.0093624368 -0.054818355 0.028759647
0.0093869623 -0.05642556 0.028687188
0.010851641 -0.054552034 0.024208965
0.18310185 -0.054823115 0.023170155
0.20900001 -0.055426903 0.024570577
0.21443814 -0.053459741 0.027000001
0.22318181 -0.055711135 0.023291366
-0.22359996 -0.045081861 0.024343856
-0.21405007 -0.044526417 0.027000004
-0.20900208 -0.043343894 0.023915373
-0.18332934 -0.044771966 0.024514362
-0.010841443 -0.045793213 0.024165006
-0.0093635926 -0.043769736 0.028756231
0.0096504372 -0.042053387 0.027908795
0.011022319 -0.045982793 0.023563944
0.18358412 -0.046298258 0.02542991
0.20903222 -0.04491543 0.023674969
0.21575287 -0.045650993 0.027000001
0.22363193 -0.046141092 0.025289113
-0.22298667 -0.035023771 0.023784881
-0.21435718 -0.035667427 0.027000001
-0.20907989 -0.032236222 0.024085382
-0.18324745 -0.034860224 0.024247281
-0.011063033 -0.035356984 0.023146564
-0.0092552071 -0.037499681 0.029076438
0.0095202401 -0.034997396 0.028293442
0.010905224 -0.033139195 0.023354255
0.1835431 -0.034330327 0.025349496
0.20900001 -0.034348998 0.02407396
0.21373048 -0.034219127 0.026999999
0.22261582 -0.035001397 0.024599588
-0.22325112 -0.024084184 0.024515184
-0.21441224 -0.023810266 0.026999999
-0.20905255 -0.024493372 0.022744276
-0.18280831 -0.024103288 0.023437332
-0.011180528 -0.024850329 0.023162071
-0.0093562156 -0.025962258 0.028778024
0.0096947234 -0.020518424 0.028036036
0.011160677 -0.026143856 0.023529001
0.18358381 -0.024788568 0.025486631
0.20920058 -0.025198756 0.024080794
0.21463476 -0.024572201 0.026999999
0.22254562 -0.024779011 0.024136113
-0.22329397 -0.014423941 0.025356011
-0.21417549 -0.015317282 0.026999999
-0.20899999 -0.016068067 0.0223973
-0.18226075 -0.01810002 0.026791107
-0.17635202 -0.017546777 0.025161274
-0.16447064 -0.017441327 0.025118837
-0.15468785 -0.017811328 0.0239735
-0.14354996 -0.015818918 0.024430471
-0.062158767 -0.015120127 0.025990488
-0.056752045 -0.017433271 0.025025705
-0.044915605 -0.017546115 0.025005855
-0.035335902 -0.017482901 0.025258003
-0.025325723 -0.018007154 0.02308432
-0.014720538 -0.01767792 0.026241876
0.0098285722 -0.01960009 0.028275628
0.015676063 -0.017618889 0.025804127
0.025160072 -0.01719974 0.026173817
0.036223006 -0.017699026 0.024206772
0.044699486 -0.017087247 0.026407475
0.055318572 -0.016979866 0.026637461
0.063788146 -0.013080299 0.023981478
0.1444224 -0.016356044 0.02359404
0.15437311 -0.017618617 0.024756722
0.16620176 -0.017293969 0.026005274
0.17517726 -0.017075816 0.026673781
0.18118365 -0.017933356 0.025959956
0.20919678 -0.014851847 0.023351278
0.21480492 -0.014309709 0.026999999
0.22299999 -0.01445563 0.024100835
-0.22394997 -0.0040772078 0.024576567
-0.21681859 -0.0047200155 0.027000003
-0.20805012 -0.0034961835 0.025014292
-0.19422549 -0.0001518645 0.028167108
-0.18529114 -9.1029433e-05 0.027471691
-0.17626256 -0.00018084527 0.028498391
-0.16565201 -7.8761805e-05 0.02733146
-0.15556479 -0.00019464947 0.028656188
-0.14376159 -0.0020514121 0.026389491
-0.063804172 -0.0053474191 0.022997612
-0.053679492 -0.00019967579 0.028713644
-0.046470717 -0.00022519869 0.029005401
-0.035963498 -0.00018274863 0.028520146
-0.027595831 -0.00025357978 0.029329829
-0.015346372 -0.00027426594 0.029566294
-0.0032418263 -0.00011252947 0.027717464
0.0045765922 -0.00019005219 0.028603636
0.017352724 -0.00018747221 0.028574143
0.022361856 -0.00015668986 0.028222267
0.032629203 -0.00014353846 0.028071932
0.046580806 -0.0001073344 0.027658077
0.057931814 -0.00018221421 0.027995022
0.06395863 -0.0055693081 0.023141062
0.14258438 -0.0035919088 0.025789328
0.15407203 -0.00014586332 0.028098509
0.16927911 -6.5628861e-05 0.027181339
0.17156872 -0.0002547467 0.029343165
0.18621579 -0.00017787854 0.028464478
0.19508231 -0.00015217246 0.028170625
0.2076567 -0.0041754078 0.025717318
0.21407136 -0.0037899406 0.026999999
0.22321019 -0.0048110359 0.025271514
-0.22322224 0.0047927666 0.024710635
-0.21545289 0.0038702562 0.026999999
-0.20462817 0.0024247423 0.024643682
-0.19457926 0.00033805516 0.022566775
-0.18487264 0.00023991146 0.023688667
-0.1752708 0.00021170915 0.024011051
-0.16578554 0.00026839864 0.023363026
-0.15592769 0.00030616517 0.022931315
-0.1465124 0.00030765351 0.022225887
-0.060137592 0.00020616196 0.02306935
-0.054562889 0.00014910023 0.024610499
-0.043824922 0.00025120322 0.023559589
-0.035628412 0.0002728882 0.023311708
-0.027171206 0.00024095994 0.023676682
-0.014111361 0.00032448908 0.022721851
-0.0054886704 0.00027434964 0.023295
0.0035492978 0.00027712391 0.023263287
0.015574138 0.000230777 0.023793085
0.021627866 0.00022412305 0.023869148
0.03497 0.00036051206 0.022310067
0.044115972 0.00031601175 0.022818757
0.05527075 0.00020547824 0.024082279
0.1491596 0.00016609635 0.024532458
0.15498376 0.00029739918 0.023031518
0.16534969 0.00029767241 0.023028394
0.17437132 0.00032093565 0.022762472
0.18534088 0.00019525101 0.024199188
0.19399433 0.00038445459 0.022036375
0.2066883 0.0045736348 0.024811108
0.21489047 0.0074966233 0.026999997
0.22210166 0.0055037523 0.024787527
-0.22232743 0.014228188 0.024014605
-0.21471182 0.01309043 0.026999999
-0.20718183 0.014773961 0.023554338
0.20715015 0.014890516 0.023780262
0.21506101 0.013397589 0.027000003
0.22280701 0.015924785 0.02405086
-0.22381321 0.026003435 0.025319086
-0.21541178 0.025607882 0.026999999
-0.20702817 0.024468374 0.024442086
0.20631796 0.024080204 0.024767583
0.21565679 0.023243656 0.027000003
0.22273614 0.023853686 0.02381371
-0.22327861 0.03549923 0.02539859
-0.21389231 0.034731388 0.026999999
-0.20681816 0.035401341 0.023971252
-0.12361084 0.039600994 0.021865461
-0.11728436 0.039646164 0.021868417
-0.10425623 0.039569486 0.021296842
-0.096100643 0.039619252 0.021856651
-0.086093336 0.039553273 0.021328894
-0.073025487 0.039776154 0.023041774
-0.069460794 0.039506495 0.020793771
0.06563019 0.03964546 0.021238718
0.07706333 0.039697226 0.02272702
0.085042521 0.039574414 0.021559685
0.097536162 0.039733525 0.022598427
0.10214547 0.039645597 0.022089921
0.11551639 0.039887056 0.023572214
0.12438392 0.039621063 0.021673417
0.20530321 0.034237359 0.024170535
0.21424359 0.035059448 0.026999999
0.22268419 0.034370739 0.02345348
-0.22298333 0.045597896 0.024985984
-0.21416613 0.045328304 0.027000001
-0.20617647 0.045194201 0.02446894
-0.13188528 0.045050666 0.025117463
-0.12413035 0.041028176 0.026734017
-0.1151719 0.041665204 0.028841306
-0.10562621 0.041035742 0.026981654
-0.095665023 0.040503282 0.025408601
-0.085120119 0.04068841 0.025955534
-0.075194232 0.040714528 0.026032681
-0.062624276 0.043457273 0.023765458
0.062500827 0.044438031 0.025478566
0.07578627 0.040788945 0.026252426
0.083484724 0.041256879 0.027634796
0.094206735 0.041047204 0.027015373
0.10498463 0.040984202 0.026829256
0.1128111 0.040790487 0.026256984
0.1258247 0.040988661 0.026347771
0.13171229 0.045734335 0.025847631
0.20606689 0.045004789 0.024916517
0.21542686 0.042925842 0.027000001
0.22315368 0.045800272 0.023963744
-0.2241852 0.054181438 0.024091285
-0.21445781 0.055411741 0.027000004
-0.20594116 0.055895247 0.02483768
-0.13228387 0.052077767 0.023059405
-0.12380239 0.057368755 0.025452247
-0.11612158 0.057257272 0.025967574
-0.10515577 0.05737377 0.025424931
-0.096278988 0.057416089 0.025281893
-0.084046789 0.057817969 0.023564458
-0.074777491 0.057607099 0.024653623
-0.065206029 0.056186438 0.023720535
0.063953161 0.055641528 0.02437596
0.075226717 0.057678584 0.024389451
0.086533882 0.057414096 0.025021762
0.096824072 0.057006989 0.026575983
0.10490087 0.057718739 0.02415983
0.11441672 0.057294477 0.025400501
0.12756354 0.056901526 0.025823819
0.13190883 0.053301614 0.024812205
0.20742802 0.055502065 0.024759337
0.21675572 0.055333573 0.027000001
0.22320086 0.055540055 0.025146062
-0.22283097 0.064472444 0.023844747
-0.21589239 0.065237209 0.027000001
-0.20691268 0.064633667 0.025348203
0.20675823 0.065637037 0.024725486
0.21489738 0.06496115 0.027000003
0.22235993 0.06588874 0.023920208
-0.2231016 0.074400738 0.0250309
-0.21554805 0.075615011 0.026999999
-0.20645452 0.074989885 0.024243655
0.20617647 0.074875817 0.024019973
0.21552348 0.07692004 0.027000001
0.2235456 0.074676096 0.025375834
-0.22287579 0.085066296 0.023209257
-0.21346922 0.086064495 0.027000003
-0.20689146 0.084980674 0.025239177
0.20680253 0.085007273 0.024705179
0.21498895 0.084666587 0.027000003
0.22206664 0.084830552 0.02322376
-0.22371228 0.095007308 0.023275472
-0.21459971 0.094842829 0.027000003
-0.20600002 0.094856597 0.025028272
0.20680019 0.093293741 0.024950741
0.21521027 0.093673445 0.027000004
0.22288232 0.094598562 0.024177723
-0.22374998 0.10413352 0.02448722
-0.21418947 0.10392348 0.027000003
-0.20648161 0.10550644 0.024692141
0.20763652 0.10554206 0.024609173
0.21435043 0.10611326 0.027000004
0.22349997 0.10527068 0.024452373
-0.22277774 0.11557755 0.023646656
-0.21537466 0.11473761 0.027000001
-0.20681831 0.1150175 0.023805546
0.20733196 0.11481989 0.024619436
0.21414649 0.11530417 0.027000001
0.22301036 0.11387387 0.025031306
-0.2225889 0.12423283 0.024828857
-0.21385291 0.124196 0.027000004
-0.20677778 0.12614048 0.025063163
0.20655555 0.12449821 0.023504578
0.21490361 0.12568778 0.027000006
0.2226433 0.12522919 0.023756603
-0.22379081 0.13490739 0.024250086
-0.21517088 0.13614546 0.027000003
-0.2059149 0.13590112 0.024198301
-0.19470303 0.13969105 0.022896143
-0.18793924 0.13977453 0.023460349
-0.0033721637 0.1395428 0.021202033
0.004277654 0.13972722 0.022997113
0.18833995 0.13979696 0.023855498
0.1953091 0.139653 0.022461383
0.20515119 0.13637827 0.024088597
0.21356958 0.1340777 0.026999999
0.22366665 0.13594274 0.025649397
-0.22400281 0.14516246 0.024421802
-0.21431252 0.14516534 0.027000004
-0.20839357 0.14429872 0.023631493
-0.19810341 0.14014512 0.028088016
-0.18471736 0.14296976 0.025651308
-0.010742077 0.14532779 0.023834581
-0.0064205518 0.14300172 0.028712355
0.0078513296 0.1423213 0.027373753
0.010913379 0.14470454 0.022838393
0.18391165 0.14409186 0.0237858
0.19447938 0.14012559 0.027864169
0.20858827 0.14595203 0.024751784
0.21546093 0.14398423 0.027000001
0.22338688 0.14503062 0.024908358
-0.22385712 0.15475497 0.023998454
-0.21446444 0.15632793 0.027000001
-0.20919807 0.15409714 0.024828881
-0.18370029 0.15563881 0.025768897
-0.01087692 0.15471134 0.023901187
-0.0093670497 0.15511172 0.028746018
0.0094128419 0.15693589 0.028610734
0.010676838 0.15640149 0.024565255
0.18380868 0.15408179 0.026309589
0.20903809 0.15400283 0.024858641
0.21646003 0.15585028 0.026999997
0.22382349 0.1554314 0.024528606
-0.22268787 0.16513793 0.024554722
-0.21529111 0.1658527 0.026999999
-0.20912434 0.16511576 0.024924364
-0.18345536 0.16508371 0.024924051
-0.010987939 0.16490443 0.023469727
-0.0094710719 0.16494209 0.0284387
0.0094164219 0.16847827 0.028600156
0.010745896 0.1659708 0.024570376
0.18333262 0.16564488 0.024696041
0.2091168 0.1633251 0.023837909
0.21494652 0.16494267 0.027000004
0.22369626 0.16477714 0.024548439
-0.22366664 0.17542011 0.024258766
-0.21496677 0.17403597 0.026999999
-0.2091431 0.17553391 0.023453351
-0.18349157 0.17643864 0.025153413
-0.010787063 0.17503935 0.024170613
-0.0094472636 0.17599024 0.028509039
0.0095483828 0.17671414 0.028210301
0.011001046 0.1766793 0.02370479
0.18366076 0.1751273 0.025641106
0.20906273 0.17547649 0.024465395
0.21489763 0.17415594 0.026999999
0.22324641 0.17472215 0.024201134
-0.22292843 0.18449947 0.023820382
-0.21472692 0.1839375 0.027000004
-0.20910871 0.18556768 0.02395788
-0.18330139 0.18629199 0.024124719
-0.011062462 0.18426101 0.023070352
-0.0093900505 0.18452786 0.028678063
0.009094595 0.18309005 0.02955094
0.010750431 0.18504438 0.02454455
0.18333247 0.18592951 0.024309369
0.20914942 0.18395548 0.024978841
0.21613464 0.1844032 0.027000001
0.2235714 0.18558255 0.024671184
-0.22372356 0.19411692 0.023726458
-0.21580845 0.19433302 0.027000001
-0.20903173 0.19570759 0.023646643
-0.18363446 0.19360739 0.025309304
-0.011153567 0.19360121 0.022942806
-0.0095580723 0.19480138 0.028181672
0.0095807984 0.19585435 0.028114535
0.010876684 0.19467083 0.023965854
0.18365209 0.19548944 0.025532085
0.20900001 0.19367257 0.022166112
0.21502472 0.19476503 0.027000004
0.22334281 0.19581889 0.024323141
-0.22319339 0.20441529 0.025605755
-0.21536778 0.20425893 0.026999999
-0.20899999 0.20569868 0.023763355
-0.1836509 0.20581135 0.025586728
-0.010925079 0.20684795 0.023708239
-0.0095073394 0.2049347 0.028331554
0.0095636286 0.20465654 0.028165258
0.010999681 0.20447522 0.023643289
0.1834057 0.2069332 0.024761574
0.20914678 0.20552965 0.024731221
0.21508916 0.20342457 0.027000001
0.2238235 0.20634732 0.02543373
-0.22319187 0.21496671 0.024573602
-0.21645676 0.21465196 0.026999999
-0.20902644 0.21417291 0.023452172
-0.18389173 0.2147112 0.026553357
-0.010810256 0.21427722 0.024182456
-0.0096183568 0.2157499 0.02800357
0.0094828662 0.21285965 0.028403858
0.011110592 0.21192379 0.022850184
0.18388934 0.21514533 0.02654917
0.20928754 0.21439597 0.025280485
0.2155761 0.21610188 0.027000004
0.22308953 0.2144613 0.02467468
-0.22324996 0.22500548 0.023694087
-0.21504386 0.22449483 0.027000003
-0.209112 0.22414066 0.0237733
-0.18375261 0.22549459 0.025980072
-0.011027169 0.22441506 0.023105565
0.0092987698 0.22399062 0.028947741
0.010571968 0.22477052 0.024926113
0.18335153 0.22676264 0.024564415
0.2091534 0.22444937 0.025080651
0.21595412 0.22495572 0.027000003
0.22285296 0.22456014 0.024370907
-0.22263578 0.23479763 0.024695091
-0.21513531 0.2368224 0.027000001
-0.2090771 0.23524173 0.024379946
-0.18383503 0.23442671 0.026278479
-0.011111524 0.2373358 0.022802193
-0.0094266543 0.23385476 0.028569927
0.0093373237 0.23424067 0.028833838
0.010899677 0.23740382 0.024068711
0.18333261 0.23484695 0.024602264
0.20905496 0.23493275 0.02382664
0.21605526 0.23649006 0.026999997
0.22268625 0.23412934 0.023390809
-0.22249985 0.2450019 0.02524337
-0.2154371 0.24520773 0.027000001
-0.20917588 0.24642712 0.023601318
-0.18352206 0.24319229 0.025049696
-0.011070244 0.24588503 0.023051372
-0.0093254372 0.2475446 0.028868953
0.0094479555 0.24710737 0.028506994
0.010741336 0.24549589 0.024119889
0.18370277 0.24420261 0.025827151
0.20908542 0.24515924 0.02396981
0.21697748 0.24800287 0.027000001
0.22324368 0.24591966 0.024833409
-0.22267726 0.25447094 0.024286924
-0.21472915 0.25417677 0.027000001
-0.20905675 0.25483012 0.024020279
-0.18361115 0.25400648 0.025602061
-0.010573439 0.25356463 0.025108567
-0.0092619164 0.25479731 0.029056618
0.011042327 0.2559031 0.02269147
0.1835693 0.25484383 0.025317939
0.20905752 0.25534424 0.022765042
0.21496007 0.25622457 0.027000003
0.223748 0.25477785 0.025110882
-0.22318971 0.26448727 0.025784561
-0.21651779 0.26513436 0.026999999
-0.20905553 0.26453546 0.024281872
-0.18377805 0.2633138 0.025914241
-0.011319626 0.26579222 0.021873349
-0.0093580075 0.26697323 0.02877273
0.0096335774 0.26556012 0.027958602
0.0108852 0.26668784 0.023877794
0.18340926 0.26652834 0.024611758
0.20900792 0.26442116 0.023547791
0.21603358 0.26585478 0.026999999
0.22274402 0.26565254 0.025176253
-0.22306433 0.27366713 0.024336182
-0.21547161 0.27480179 0.027000003
-0.20904256 0.27575508 0.024105122
-0.18320055 0.2761026 0.024139656
-0.010940974 0.27542254 0.0235801
-0.0092027131 0.27554706 0.029231522
0.0099319629 0.27697974 0.027077071
0.010886967 0.27609783 0.0235363
0.18314192 0.27553958 0.024156753
0.20900002 0.27437115 0.022639172
0.21438383 0.27569988 0.027000003
0.22346829 0.27527091 0.023675123
-0.22293228 0.2842167 0.024992371
-0.21371858 0.28568408 0.027000003
-0.20918669 0.28573084 0.025165277
-0.18396282 0.28386432 0.026758328
-0.011239819 0.28344157 0.022291111
-0.009584846 0.28846839 0.028102573
0.011249612 0.28540391 0.022428801
0.18322033 0.28503776 0.02366427
0.20911622 0.2858004 0.024041075
0.21491535 0.28588194 0.027000003
0.22321735 0.28507191 0.025488887
-0.22268967 0.29506984 0.023604002
-0.21507247 0.29398951 0.026999997
-0.20900002 0.29565126 0.0239054
-0.18343703 0.29438442 0.024677472
-0.010803165 0.29551515 0.024055555
-0.0093681486 0.29601553 0.02874277
0.0098714503 0.29445648 0.027255848
0.011182373 0.29493564 0.022577515
0.18337351 0.29470807 0.024784269
0.20909221 0.29476333 0.02378244
0.21451679 0.29515871 0.027000003
0.22396536 0.29482523 0.024893781
-0.22248559 0.30507031 0.02491959
-0.21469598 0.30478698 0.026999999
-0.20905139 0.30520099 0.023804182
-0.18404847 0.3055473 0.027071226
-0.17709874 0.30951393 0.021743651
-0.16539133 0.3095457 0.021126328
-0.15487881 0.30962628 0.021877257
-0.14645968 0.30948389 0.020527121
-0.05373212 0.30965757 0.02251045
-0.044616412 0.30967659 0.022113109
-0.032475203 0.30968985 0.022749882
-0.020169543 0.30949196 0.020619586
-0.013341377 0.30614698 0.022611896
-0.0097006382 0.30131784 0.027760483
0.0094793206 0.30373242 0.028705016
0.012009152 0.30586413 0.023749808
0.024466455 0.3096258 0.021989413
0.032168359 0.30960983 0.021920152
0.044028878 0.30961391 0.021731665
0.05405945 0.30959773 0.021652559
0.14742473 0.3096579 0.021779057
0.1570224 0.3096329 0.022228772
0.16549182 0.30960357 0.021835933
0.17648897 0.30951193 0.020847373
0.18306468 0.30541971 0.024693452
0.20912156 0.30430824 0.023638891
0.2148893 0.30383125 0.027000004
0.22355999 0.30523682 0.024834249
-0.2229345 0.31515986 0.024380496
-0.21450558 0.31477004 0.027000003
-0.20900001 0.31490195 0.022806423
-0.18151473 0.31125429 0.028604252
-0.1732531 0.31113762 0.027282685
-0.16377148 0.31126815 0.027668232
-0.15543757 0.3107253 0.026064521
-0.14312682 0.31422842 0.024563773
-0.063519821 0.31502411 0.025279181
-0.055282995 0.31099358 0.026857117
-0.044893537 0.31092277 0.026647961
-0.036328502 0.31084782 0.02642652
-0.024501679 0.31102207 0.026941298
-0.016873352 0.31092274 0.02675366
0.015336054 0.31093252 0.027138636
0.025702227 0.31136155 0.027944181
0.035773885 0.31144637 0.028194821
0.045589123 0.3112241 0.02753805
0.058206897 0.31071517 0.026028207
0.063795388 0.31637594 0.025264908
0.14365456 0.31370613 0.025598105
0.15367131 0.31113496 0.027274851
0.16469939 0.31094155 0.0267033
0.17380992 0.31079149 0.02626005
0.18101378 0.31101012 0.027797058
0.20912336 0.31525445 0.023412762
0.21425202 0.31437939 0.027000004
0.22284953 0.31469059 0.024777057
-0.22313106 0.32457468 0.024426989
-0.2138159 0.32414168 0.026999999
-0.20764558 0.32674325 0.02446755
-0.19442497 0.32812041 0.025054593
-0.1850794 0.32791138 0.027444193
-0.1749797 0.32817838 0.024391962
-0.16561177 0.32817253 0.024459006
-0.15546578 0.32817805 0.024395458
-0.14360087 0.32593527 0.025024042
-0.063656792 0.32364559 0.023510406
-0.05430397 0.32818681 0.024295533
-0.044713899 0.32814863 0.024732506
-0.03569296 0.32806411 0.025698077
-0.024923965 0.32809335 0.025364181
-0.014614753 0.32802567 0.026137907
-0.0053540035 0.32812718 0.024977216
0.0057324744 0.32807785 0.025541119
0.014249181 0.32808417 0.025469212
0.023777967 0.32821238 0.024002926
0.033876501 0.3280144 0.0262664
0.046968885 0.32834095 0.022533545
0.055601552 0.3281312 0.024871482
0.063160948 0.32512036 0.024475444
0.14427911 0.32648215 0.024415258
0.15514225 0.32818502 0.024316154
0.16430339 0.32818353 0.024333047
0.17509568 0.32817283 0.024455331
0.18428427 0.32812008 0.025058329
0.19659033 0.32811984 0.025061172
0.20606938 0.3271071 0.0236999
0.2157494 0.32341984 0.027000004
0.22243044 0.32467598 0.02454287
-0.22267082 0.3339718 0.025974024
-0.21519049 0.3373912 0.026999999
-0.20524524 0.33405432 0.023611875
-0.19760679 0.33848453 0.025610767
0.19790253 0.33848268 0.023701549
0.20650196 0.33412084 0.024318362
0.21574447 0.33457246 0.026999999
0.22267456 0.33494657 0.024823761
-0.22289538 0.34436777 0.024529887
-0.21659833 0.34626755 0.025153337
-0.20455052 0.34476396 0.026038047
-0.19470955 0.34510416 0.025206419
-0.18621649 0.3446604 0.025758078
-0.17389578 0.34489378 0.025610296
-0.1644042 0.34535217 0.025757158
-0.15529272 0.34464893 0.02534201
-0.14491636 0.34479606 0.024401113
-0.1360669 0.34504807 0.025632353
-0.12466352 0.34424886 0.025000993
-0.11538516 0.3446421 0.024730342
-0.1045862 0.34502324 0.025513893
-0.095705122 0.34445256 0.025340259
-0.085051581 0.34419444 0.024760649
-0.075972706 0.34481362 0.025497882
-0.064652614 0.3447018 0.025363496
-0.054821692 0.34532028 0.026440678
-0.044807337 0.34424073 0.025021257
-0.03517773 0.34453031 0.023914974
-0.025485801 0.34333345 0.023967676
-0.014658492 0.34486729 0.025114905
-0.004978945 0.34463736 0.025791947
0.0061540646 0.34429148 0.025279788
0.014580882 0.34495461 0.025694381
0.024729317 0.3449778 0.025119789
0.035781249 0.34433126 0.024344558
0.045491666 0.34363344 0.024604494
0.054414518 0.34462258 0.024871394
0.064692281 0.34547594 0.025390701
0.075285822 0.34577921 0.025832236
0.085153431 0.34478533 0.024934661
0.094735146 0.34477094 0.026255712
0.1054102 0.34484282 0.024883879
0.11502424 0.34453833 0.025161672
0.12601227 0.34473702 0.024600543
0.13423978 0.34410334 0.024378918
0.1455922 0.34428796 0.025431309
0.15548259 0.34533882 0.025123442
0.16431075 0.34473282 0.025420319
0.17490426 0.34543565 0.025216917
0.18426199 0.34488922 0.025221348
0.19555138 0.34521368 0.026000947
0.20445673 0.34522375 0.026374681
0.21482824 0.34450763 0.026099725
0.22274716 0.34451708 0.025557991
-0.22040606 0.35173452 0.023122016
-0.21433042 0.35499787 0.026207874
-0.20489645 0.35550523 0.02555378
-0.19508225 0.35632473 0.025005884
-0.18427874 0.35611993 0.025303671
-0.17405729 0.3560833 0.024648042
-0.16635153 0.35584724 0.024211166
-0.15494446 0.35663459 0.024807872
-0.14521426 0.35643321 0.02585518
-0.13502814 0.35607257 0.025353562
-0.12492727 0.35624862 0.024595292
-0.11416488 0.35660124 0.024371838
-0.10566282 0.35667011 0.024649682
-0.095166519 0.35701695 0.023799725
-0.085223794 0.35699368 0.024073703
-0.075610787 0.35657606 0.025058331
-0.064438082 0.35600016 0.024254728
-0.053541377 0.35701126 0.024538467
-0.044631474 0.35659343 0.024794355
-0.034666009 0.35549724 0.024478635
-0.025040209 0.35535935 0.024363441
-0.015346943 0.35565895 0.025511296
-0.0042798156 0.35610652 0.025107604
0.0050058821 0.35656902 0.024755137
0.014895656 0.35605788 0.024927316
0.025098555 0.35627112 0.023856431
0.034704037 0.3565298 0.0253049
0.044857025 0.35621646 0.025091503
0.055427261 0.35653019 0.025401961
0.064266533 0.35597709 0.024690412
0.074786536 0.35578281 0.025132431
0.084343009 0.35655236 0.024709517
0.094519451 0.3562887 0.023640748
0.10471898 0.35656357 0.025506452
0.11508965 0.35599262 0.025194537
0.12578887 0.35631442 0.024738088
0.13466851 0.35611331 0.024647178
0.14500491 0.35612923 0.025573106
0.15521894 0.35602269 0.024774866
0.16665384 0.35607901 0.02466917
0.17493273 0.35637292 0.024531562
0.18415688 0.35665581 0.024387324
0.19460057 0.35713631 0.025539959
0.20545484 0.3570413 0.024860669
0.2154144 0.35352251 0.02566734
0.22003633 0.35214067 0.028723117
-0.22054258 -0.35153958 0.031368107
-0.21532547 -0.35574719 0.03519113
-0.20495418 -0.35881945 0.034881383
-0.19416362 -0.359 0.034916192
-0.18728754 -0.359 0.03372968
-0.17697558 -0.359 0.036387846
-0.16437578 -0.3555741 0.033753682
-0.15573347 -0.35553816 0.03089821
-0.14536346 -0.35638413 0.030908756
-0.13662437 -0.35465813 0.030842092
-0.12596335 -0.35504064 0.030989168
-0.1162136 -0.35531366 0.030933585
-0.10557862 -0.35393372 0.030925909
-0.094747141 -0.35406992 0.030999999
-0.083984867 -0.3557702 0.030988012
-0.075653307 -0.35660148 0.030944144
-0.064091139 -0.3546209 0.030929944
-0.056038424 -0.35521451 0.034635752
-0.044565927 -0.35389033 0.031000001
-0.034436729 -0.35568798 0.030999998
-0.026791293 -0.35514411 0.030999999
-0.016255178 -0.35421073 0.030999998
-0.006618483 -0.35547683 0.030993642
0.0056808097 -0.35528237 0.030956587
0.015267498 -0.35525891 0.031000001
0.024780098 -0.35462824 0.030989161
0.033993267 -0.35449922 0.030911343
0.045135453 -0.35580912 0.030963004
0.055617478 -0.35454428 0.03469732
0.063891068 -0.35524014 0.030864999
0.077487737 -0.35486317 0.030999999
0.085770488 -0.35568857 0.030997436
0.095567569 -0.35378504 0.030999996
0.10380995 -0.35613838 0.030931816
0.11375253 -0.35587403 0.030910753
0.12481627 -0.35403311 0.03088478
0.13547494 -0.35444075 0.030999999
0.1452371 -0.35610917 0.030887574
0.15400192 -0.35391903 0.030997172
0.16538385 -0.35490122 0.034572084
0.17507292 -0.35899997 0.035480622
0.18497023 -0.35900003 0.03608698
0.19411127 -0.359 0.033934601
0.20456442 -0.3588779 0.035811957
0.2159573 -0.35530746 0.035006981
0.22122064 -0.3505713 0.034764357
-0.22404033 -0.34411514 0.035199255
-0.16337389 -0.34532127 0.033998765
-0.1551643 -0.34380531 0.034196232
-0.14552057 -0.34436482 0.032522455
-0.13534105 -0.34383196 0.034214407
-0.12536202 -0.34413055 0.032869812
-0.11444487 -0.3435252 0.034001861
-0.10515839 -0.34451112 0.032941997
-0.093900114 -0.34396827 0.034161277
-0.085168548 -0.34401575 0.033566028
-0.074003264 -0.34429723 0.032550074
-0.065900117 -0.34448686 0.034471598
-0.055553794 -0.34563828 0.034542672
-0.045955177 -0.34450722 0.034325849
-0.034266159 -0.34468311 0.033131786
-0.024822053 -0.34413445 0.035107456
-0.015083624 -0.344161 0.034084644
