# .PCD v0.7 - Point Cloud Data file format
VERSION 0.7
FIELDS x y z
SIZE 4 4 4
TYPE F F F
COUNT 1 1 1
WIDTH 1399
HEIGHT 1
VIEWPOINT 0 0 0 1 0 0 0
POINTS 1399
DATA ascii
0.059499983 -0.035602462 -0.14255974
-0.059499986 -0.02525471 -0.14291292
0.059499983 -0.025279313 -0.14278442
-0.090348497 -0.010865031 -0.14034851
-0.059499983 -0.014775952 -0.1429029
0.059499986 -0.014936169 -0.14242789
0.090550125 -0.010871071 -0.14055012
-0.093185686 -0.0050679934 -0.14303662
-0.085258067 -0.0045000012 -0.14430343
-0.075187884 -0.0045000012 -0.14392677
-0.065116644 -0.0045000012 -0.14444064
-0.05655089 -0.0052133007 -0.1438632
-0.049160581 -0.0044999998 -0.14143673
0.048691206 -0.0045000007 -0.14257061
0.056976087 -0.0054424554 -0.14378358
0.064622827 -0.0045000012 -0.14439714
0.074501649 -0.0045000012 -0.14396591
0.085650809 -0.0045000012 -0.14455536
0.092705153 -0.0052878093 -0.14316945
-0.097796157 -0.080000006 -0.13343486
-0.088853844 -0.080000006 -0.13057564
0.034108341 -0.080000006 -0.13952297
0.056446027 -0.080000006 -0.13817827
0.069447063 -0.080000006 -0.13758768
0.089565217 -0.080000006 -0.13066866
-0.094388872 -0.079999961 -0.13521425
-0.086037263 -0.07531561 -0.13602661
-0.074792027 -0.075552285 -0.13774976
-0.06485948 -0.075943187 -0.13771537
-0.055784576 -0.076142833 -0.13801871
-0.044447005 -0.076129168 -0.13782607
-0.035061482 -0.076394089 -0.13775398
-0.024819599 -0.076294102 -0.13771851
-0.015033687 -0.075308539 -0.1376808
-0.0052645318 -0.076064475 -0.13777204
0.0053900485 -0.07549078 -0.13777758
0.014467923 -0.075942948 -0.13770418
0.024994627 -0.07600376 -0.13774231
0.034918703 -0.076253131 -0.13774744
0.044912267 -0.076394662 -0.13770141
0.055317957 -0.076348163 -0.13783042
0.065099165 -0.075469241 -0.13759203
0.074994892 -0.076111875 -0.13767035
0.085467711 -0.076105781 -0.13575661
0.094217464 -0.079999961 -0.13477221
-0.085844733 -0.064924397 -0.13558106
-0.075011149 -0.064760193 -0.13749991
-0.065235436 -0.065475799 -0.1374999
-0.056556214 -0.064802513 -0.13781251
-0.044790592 -0.064690843 -0.13749991
-0.034498882 -0.06474334 -0.13749991
-0.024563866 -0.064863101 -0.13749991
-0.015379421 -0.065404043 -0.13749991
-0.0049569537 -0.064698979 -0.13749991
0.0050501619 -0.065077163 -0.13749991
0.014501848 -0.065371417 -0.1374999
0.024730723 -0.065279864 -0.13749991
0.035417147 -0.064774007 -0.1374999
0.044888228 -0.064679787 -0.1374999
0.055647422 -0.064911045 -0.13763611
0.065030217 -0.06495896 -0.1374999
0.075281844 -0.065042041 -0.13749991
0.085659489 -0.065214522 -0.13563547
-0.085962571 -0.054685872 -0.13542454
-0.074930266 -0.054523416 -0.1374999
-0.064854369 -0.055111669 -0.13749991
-0.056423187 -0.055045683 -0.13776055
-0.044771437 -0.054779671 -0.1374999
-0.034937453 -0.054405574 -0.1374999
-0.024996135 -0.05487404 -0.1374999
-0.014918299 -0.054758668 -0.13749991
-0.0051426948 -0.055040084 -0.13749991
0.004850694 -0.054656703 -0.13749991
0.014754137 -0.055351883 -0.13749993
0.025407217 -0.055043273 -0.13749988
0.034968141 -0.054873131 -0.1374999
0.045377906 -0.055185273 -0.1374999
0.055881966 -0.05445667 -0.13775435
0.06582059 -0.054737974 -0.1374999
0.074722104 -0.05517447 -0.1374999
0.086039834 -0.054719601 -0.13547145
-0.085159466 -0.045438949 -0.13582326
-0.075360127 -0.045069296 -0.13749988
-0.064707741 -0.044519138 -0.13749993
-0.055831708 -0.044856988 -0.13776051
-0.04529861 -0.045161862 -0.1374999
-0.034982506 -0.04523547 -0.13749991
-0.024503058 -0.04528201 -0.1374999
-0.014927673 -0.045187514 -0.13749991
-0.0051303525 -0.044412546 -0.13749991
0.004925481 -0.045552414 -0.13749991
0.014599164 -0.045095012 -0.13749991
0.02422085 -0.045402687 -0.13749988
0.035370115 -0.045194365 -0.13749993
0.045751043 -0.045111213 -0.13749994
0.056473836 -0.044756588 -0.1377771
0.064922422 -0.044364195 -0.1374999
0.075247854 -0.044967175 -0.1374999
0.085506901 -0.044809271 -0.1358003
-0.085314937 -0.034913372 -0.13580273
-0.075335197 -0.035223804 -0.13749993
-0.065429859 -0.034830816 -0.1374999
-0.055629667 -0.035119727 -0.13774231
-0.045051582 -0.035292905 -0.13749991
-0.035377387 -0.035085943 -0.13749993
-0.025333583 -0.03479252 -0.1374999
-0.015015905 -0.035253555 -0.13749991
-0.0054272735 -0.034332354 -0.13749991
0.0052374206 -0.034675695 -0.13749991
0.015305159 -0.034336723 -0.13749988
0.024840642 -0.035192072 -0.13749991
0.035596132 -0.03499024 -0.13749991
0.045310728 -0.035036959 -0.13749988
0.056171943 -0.034996856 -0.13767168
0.065175988 -0.034685325 -0.13749991
0.075363681 -0.035188287 -0.13749988
0.085374311 -0.034928653 -0.13579381
-0.085887209 -0.024685707 -0.135344
-0.074852131 -0.025572855 -0.1374999
-0.0654158 -0.024676023 -0.13749991
-0.055471122 -0.024919871 -0.13767792
-0.044445716 -0.025947863 -0.13749991
-0.034554675 -0.025407379 -0.13749991
-0.025236661 -0.025070604 -0.1374999
-0.014919129 -0.025059296 -0.1374999
-0.0050169043 -0.025398143 -0.1374999
0.0051491503 -0.025283823 -0.1374999
0.014872099 -0.025065562 -0.13749991
0.025092056 -0.024674157 -0.1374999
0.034483727 -0.025039552 -0.13749993
0.044833794 -0.025347 -0.1374999
0.056335114 -0.024611941 -0.13787952
0.065210111 -0.024804316 -0.13749991
0.074875712 -0.024913799 -0.1374999
0.085304104 -0.025264861 -0.13563792
-0.086022623 -0.015191405 -0.13566796
-0.074488275 -0.014947247 -0.1374999
-0.064546466 -0.014967468 -0.13749991
-0.0564535 -0.014821549 -0.13783975
-0.045553129 -0.015106605 -0.1374999
-0.034701016 -0.015158143 -0.1374999
-0.024968717 -0.014951982 -0.13749991
-0.01521119 -0.014696022 -0.1374999
-0.0054558725 -0.014917119 -0.13749988
0.0053204424 -0.014968962 -0.13749991
0.014810272 -0.01523988 -0.1374999
0.025108047 -0.01519373 -0.1374999
0.035267819 -0.014920328 -0.13749993
0.044984486 -0.015606239 -0.13749991
0.055692144 -0.015016353 -0.13784993
0.065363176 -0.015600226 -0.13749991
0.074629188 -0.015382847 -0.13749991
0.086138546 -0.014802662 -0.13582473
-0.094329566 -0.0045000012 -0.13536865
-0.08623495 -0.0050472962 -0.1361687
-0.074664801 -0.0046732137 -0.13782355
-0.06566903 -0.0045808475 -0.13772452
-0.055630662 -0.0053798505 -0.13784875
-0.044707209 -0.0041291546 -0.13750207
-0.034404345 -0.0049757012 -0.1374999
-0.025067639 -0.0051465356 -0.13749988
-0.015157281 -0.0042748195 -0.1374999
-0.0047270586 -0.0049502389 -0.13749993
0.0046935203 -0.0047416282 -0.13749993
0.014885139 -0.0051861308 -0.13749991
0.024827819 -0.0048984862 -0.13749991
0.035179846 -0.0046802713 -0.1374999
0.045552909 -0.0049776896 -0.13762526
0.054844063 -0.0053859944 -0.13784763
0.065458655 -0.00507145 -0.13784915
0.07466267 -0.0048188451 -0.13775489
0.086284816 -0.0050524021 -0.13567592
0.094572417 -0.0045000012 -0.1353377
-0.084363535 0.00096511969 -0.13496101
-0.074878432 0.00055139948 -0.13466273
-0.064849854 0.00045052162 -0.13422228
-0.055054232 0.00028144466 -0.13399346
-0.045620497 0.0005007076 -0.13476206
-0.0347788 0.00049878767 -0.13513891
-0.025252175 0.00059199036 -0.13473617
-0.01573359 0.00050849299 -0.13500674
-0.0048820381 0.00060470373 -0.1350252
0.0047664107 0.00047904835 -0.13482401
0.014728538 0.00062478438 -0.13507757
0.024719151 0.00033708953 -0.13423616
0.035345569 0.00037813361 -0.13484797
0.045889296 0.0006606169 -0.13541292
0.054812167 0.00070882204 -0.13499504
0.065173566 0.0004153162 -0.13436054
0.074814424 0.0005165211 -0.1345704
0.084751688 0.00084863603 -0.13467854
-0.09871424 -0.080000006 -0.12942497
0.087980404 -0.080000006 -0.12689033
-0.094154976 -0.079999961 -0.12516898
-0.087774038 -0.075907052 -0.12515634
0.087749697 -0.076208867 -0.12484936
0.094294474 -0.079999961 -0.12521602
-0.087500058 -0.065729924 -0.12472539
0.087500051 -0.064982221 -0.124762
-0.087500066 -0.055013593 -0.12541002
0.087500058 -0.054968022 -0.12420835
-0.087500043 -0.045561887 -0.12493201
0.087500051 -0.045016304 -0.1252033
-0.087500058 -0.034963366 -0.12502433
0.087500058 -0.035217393 -0.12518674
-0.087500058 -0.02562237 -0.1252574
0.087500058 -0.025177326 -0.12474932
-0.087500058 -0.01503376 -0.12499806
0.087500051 -0.014455609 -0.12537669
-0.094777331 -0.0045000012 -0.12408963
-0.087707564 -0.004978436 -0.12525068
0.087761886 -0.0047559156 -0.12534922
0.094914414 -0.0045000012 -0.12464876
-0.085107848 0.00061428343 -0.1246748
-0.074768193 0 -0.12540425
-0.064530268 0 -0.12548955
-0.054663625 0 -0.12526387
-0.045166947 0 -0.12475453
-0.03509029 0 -0.12530246
-0.024456875 0 -0.12548852
-0.015429328 0 -0.12472661
-0.0054688649 0 -0.12514596
0.0054796282 0 -0.12481812
0.014208271 0 -0.12440249
0.025357664 0 -0.12497997
0.035438035 0 -0.12488611
0.045047399 0 -0.1251858
0.055430274 0 -0.12539689
0.06512101 0 -0.12502232
0.075301223 0 -0.12497807
0.084689535 0.00060290843 -0.12530023
-0.09822958 -0.080000006 -0.11428981
0.095602177 -0.080000006 -0.11571049
-0.094899572 -0.079999954 -0.1149495
-0.087703899 -0.075501591 -0.11520851
0.08779604 -0.075796738 -0.11474281
0.093964905 -0.079999968 -0.11520347
-0.087500058 -0.064807922 -0.1152728
0.087500066 -0.064915806 -0.11478408
-0.087500066 -0.054919787 -0.1152786
0.087500066 -0.054963335 -0.11518516
-0.087500058 -0.045317374 -0.11498106
0.087500058 -0.044933576 -0.11495855
-0.087500036 -0.035257224 -0.11588512
0.087500058 -0.035189729 -0.11477362
-0.087500051 -0.025378009 -0.11520603
0.087500043 -0.024602525 -0.1153166
-0.087500058 -0.014626427 -0.11520289
0.087500051 -0.014749971 -0.11449062
-0.095153108 -0.0045000012 -0.11532728
-0.087801032 -0.0048035816 -0.11464912
0.087738216 -0.0049050716 -0.11518661
0.094303764 -0.0045000012 -0.11523284
-0.0851859 0.00055094395 -0.11474348
-0.075510278 0 -0.11457403
-0.064941771 0 -0.11538638
-0.056093387 0 -0.11591993
-0.045795038 0 -0.11528087
-0.034533985 0 -0.1148587
-0.024641871 0 -0.11499657
-0.015265645 0 -0.11472074
-0.0047764257 0 -0.1146285
0.0046427045 0 -0.11484949
0.015205113 0 -0.11444087
0.025105078 0 -0.11546271
0.035120279 0 -0.1149897
0.044481181 0 -0.11581285
0.05487733 0 -0.11503964
0.06501013 0 -0.11503869
0.074591249 0 -0.11537204
0.084502451 0.00038887272 -0.11528137
-0.088190384 -0.080000006 -0.10826584
0.095752776 -0.080000006 -0.1048976
-0.094251767 -0.078524835 -0.10662401
-0.087900043 -0.075820804 -0.10570569
0.087863788 -0.075603656 -0.10606866
0.093981162 -0.078337044 -0.10637118
-0.09284766 -0.065007314 -0.10949997
-0.08774358 -0.06511277 -0.10603884
0.087762155 -0.065123297 -0.10533825
0.09274637 -0.064925089 -0.10949998
-0.092670366 -0.054956306 -0.10949998
-0.087735713 -0.054607634 -0.10579482
0.087854542 -0.055431928 -0.10583426
0.093033955 -0.055114366 -0.10949997
-0.092869453 -0.044121675 -0.10949996
-0.087706767 -0.044825289 -0.1058498
0.087619498 -0.045503169 -0.10562105
0.092643753 -0.04498497 -0.10949997
-0.093340397 -0.035711106 -0.10949996
-0.087734178 -0.035035238 -0.10605538
0.087861538 -0.034492604 -0.10646507
0.092987366 -0.03563226 -0.10949998
-0.092400134 -0.024851745 -0.10949998
-0.087715916 -0.024736272 -0.1052498
0.087707013 -0.024802472 -0.10581294
0.093250751 -0.025286617 -0.10949998
-0.09229283 -0.01652381 -0.10949998
-0.087731093 -0.015186501 -0.10551139
0.087730475 -0.014776108 -0.10595518
0.092970416 -0.015111321 -0.10949998
-0.094376326 -0.0051963916 -0.10658409
-0.087935701 -0.0053211283 -0.10574974
0.087909132 -0.005368867 -0.10534397
0.093569338 -0.0052474542 -0.10616624
-0.084870853 0.00055917067 -0.10504664
-0.07544633 0 -0.10434611
-0.064516507 0 -0.10526885
-0.055086289 0 -0.10572085
-0.044883858 0 -0.10525315
-0.035100885 0 -0.10509673
-0.025410851 0 -0.10482313
-0.015529379 0 -0.10470647
-0.004953471 0 -0.10520255
0.0051193843 0 -0.1050813
0.014934469 0 -0.1045945
0.025529386 0 -0.10463791
0.03398861 0 -0.10510682
0.045405582 0 -0.10515872
0.054370418 0 -0.10536508
0.065262847 0 -0.10476799
0.075102627 0 -0.10489416
0.084724829 0.00051909045 -0.10467994
-0.090598308 -0.080000006 -0.094894223
-0.088032141 -0.080000006 -0.092677511
0.095306754 -0.080000006 -0.092372686
-0.094758399 -0.079999961 -0.094155468
-0.087689541 -0.075576827 -0.094619453
0.087643474 -0.075334385 -0.095387869
0.09474802 -0.079999961 -0.095291398
-0.087500058 -0.064551309 -0.094866492
0.087500058 -0.065463983 -0.095220603
-0.087500051 -0.055045165 -0.094835281
0.087500058 -0.054429669 -0.095330998
-0.087500058 -0.044974782 -0.094774924
0.087500066 -0.045252707 -0.095003173
-0.087500066 -0.035389379 -0.09528558
0.087500051 -0.034753229 -0.095346279
-0.087500058 -0.024830488 -0.095201656
0.087500036 -0.024432642 -0.09509141
-0.087500058 -0.014937907 -0.09483958
0.087500058 -0.014105145 -0.094412304
-0.091964312 -0.0044999998 -0.098604694
-0.087599456 -0.005371917 -0.095133662
0.087637223 -0.0051349476 -0.095361628
0.092967965 -0.0045000003 -0.098895818
-0.084737793 0.00047854564 -0.094913691
-0.075577043 0 -0.094817497
-0.065309979 0 -0.095531389
-0.054440238 0 -0.094642371
-0.044676498 0 -0.094629228
-0.034649573 0 -0.095148787
-0.025003115 0 -0.094824784
-0.014343854 0 -0.094705351
-0.0050846655 0 -0.095019273
0.0047136857 0 -0.095085174
0.014528665 0 -0.095710501
0.024816843 0 -0.095844351
0.034988832 0 -0.095386304
0.045038454 0 -0.09518449
0.05464945 0 -0.095286742
0.065225393 0 -0.094653875
0.075408086 0 -0.094403602
0.085080415 0.00053277233 -0.095012888
-0.090326861 -0.080000006 -0.083735801
0.096848391 -0.080000006 -0.086384267
-0.094857343 -0.079999968 -0.084911495
-0.087708488 -0.076034695 -0.085387766
0.087772436 -0.076485887 -0.084618986
0.095061608 -0.079999968 -0.084682778
-0.087500058 -0.065335661 -0.084912032
0.087500058 -0.065134965 -0.085200302
-0.087500058 -0.054660592 -0.084970362
0.087500051 -0.054917909 -0.084630124
-0.087500058 -0.045023851 -0.085029103
0.087500058 -0.044702869 -0.085240394
-0.087500058 -0.03532882 -0.084840201
0.087500058 -0.03459521 -0.08506
-0.087500058 -0.025119727 -0.085198998
0.087500058 -0.024636904 -0.085168146
-0.087500051 -0.014685393 -0.084965758
0.087500066 -0.014764609 -0.0846591
-0.087500043 -0.004891417 -0.08474195
0.087500051 -0.0049032075 -0.084889285
-0.085033506 0.00059585745 -0.084532879
-0.074709386 0 -0.085211188
-0.064809829 0 -0.084335536
-0.05509077 0 -0.085097671
-0.044855587 0 -0.085466184
-0.034305509 0 -0.084897034
-0.02495525 0 -0.084641404
-0.015285028 0 -0.08458785
-0.0053282483 0 -0.084996328
0.0049984218 0 -0.084328361
0.014821801 0 -0.085234307
0.025417145 0 -0.085177459
0.035394952 0 -0.084676065
0.044666819 0 -0.084493935
0.054412365 0 -0.085252322
0.064334586 0 -0.085184105
0.074002534 0 -0.085147619
0.084556952 0.00053774728 -0.084810577
-0.087939888 -0.080000006 -0.076259993
-0.094052829 -0.079999961 -0.075339966
-0.087734461 -0.075576298 -0.074849769
0.087808363 -0.076320812 -0.075004265
0.094670862 -0.079999961 -0.074992545
-0.087500058 -0.064834066 -0.07461559
0.087500058 -0.06527219 -0.074985288
-0.087500058 -0.054582685 -0.07557179
0.087500051 -0.054749504 -0.074600615
-0.087500058 -0.044537231 -0.074857175
0.087500043 -0.045181815 -0.07468345
-0.087500058 -0.034997195 -0.074798495
0.087500058 -0.035350945 -0.074306451
-0.087500043 -0.024118477 -0.07541877
0.087500058 -0.024830753 -0.074462675
-0.087500058 -0.015431527 -0.074731901
0.087500058 -0.01540001 -0.075485803
-0.087500058 -0.0042757862 -0.075083703
0.087500058 -0.0049179564 -0.074592829
-0.084727615 0.00056827697 -0.074686602
-0.075070471 0 -0.075225905
-0.064456865 0 -0.075101405
-0.055016365 0 -0.075024851
-0.044984467 0 -0.07443282
-0.034952402 0 -0.075841188
-0.024958501 0 -0.074280418
-0.014793175 0 -0.075637065
-0.0050734789 0 -0.075301386
0.0047649126 0 -0.074405573
0.015451385 0 -0.075395934
0.025197571 0 -0.074466996
0.035585288 0 -0.075316347
0.045529652 0 -0.075649962
0.054918036 0 -0.074913606
0.065166906 0 -0.075138897
0.075290024 0 -0.074116327
0.085291281 0.00068735628 -0.0744427
0.095746115 -0.080000006 -0.06014362
-0.094209261 -0.079999968 -0.064425252
-0.087780133 -0.07657519 -0.065203317
0.087734215 -0.076188773 -0.064977095
0.09461049 -0.079999968 -0.064718388
-0.087500051 -0.064923897 -0.064957425
0.087500066 -0.064933501 -0.065299384
-0.087500058 -0.05492999 -0.064783566
0.087500051 -0.055182625 -0.064872891
-0.087500051 -0.044862743 -0.064955309
0.087500051 -0.0445491 -0.065373115
-0.087500058 -0.034577947 -0.065329142
0.087500058 -0.034962788 -0.06593515
-0.087500051 -0.024451228 -0.065678962
0.087500058 -0.025215089 -0.065464802
-0.087500051 -0.014679124 -0.065469362
0.087500058 -0.014986092 -0.064820066
-0.087500043 -0.0055640312 -0.0652823
0.087500066 -0.0051235105 -0.064483881
-0.085371099 0.00062546972 -0.064854071
-0.074454531 0 -0.064867586
-0.064650372 0 -0.064580582
-0.054997727 0 -0.064976029
-0.044975813 0 -0.064914972
-0.035455201 0 -0.064507291
-0.025173785 0 -0.065268852
-0.015246801 0 -0.064994536
-0.0048783305 0 -0.065065838
0.0053992555 0 -0.065291621
0.015572601 0 -0.065403491
0.024793901 0 -0.065556578
0.03520871 0 -0.065213293
0.045426447 0 -0.065602645
0.055312265 0 -0.064926147
0.065326288 0 -0.065306894
0.075501591 0 -0.065943331
0.084890738 0.00040792141 -0.064564966
-0.094311401 -0.079999954 -0.055126019
-0.087816671 -0.076116532 -0.054834023
0.08780957 -0.07554657 -0.054912962
0.094370939 -0.079999968 -0.054248765
-0.087500058 -0.065129541 -0.055245027
0.087500066 -0.064805739 -0.055328835
-0.087500058 -0.054956984 -0.054921787
0.087500043 -0.055101413 -0.054834269
-0.087500058 -0.045468133 -0.055350896
0.087500066 -0.044494156 -0.055621207
-0.087500051 -0.034965485 -0.055438351
0.087500058 -0.03488991 -0.055055056
-0.087500058 -0.025245979 -0.054954004
0.087500058 -0.024353852 -0.054740708
-0.087500058 -0.015483451 -0.055228896
0.087500058 -0.014853301 -0.055113088
-0.087500066 -0.0048773335 -0.05497925
0.087500058 -0.005238052 -0.054654445
-0.084926844 0.00046758237 -0.055227105
-0.074973948 0 -0.055003423
-0.065218568 0 -0.054370601
-0.054198015 0 -0.054871771
-0.045033917 0 -0.054372489
-0.035151836 0 -0.054567505
-0.025273122 0 -0.05510205
-0.015421909 0 -0.054764379
-0.0048422022 0 -0.055152852
0.0054342216 0 -0.054844294
0.015838042 0 -0.055055108
0.025191437 0 -0.054764565
0.034915742 0 -0.054915566
0.045301486 0 -0.055125784
0.054937318 0 -0.054683227
0.064736739 0 -0.054769583
0.074911758 0 -0.054715589
0.084648177 0.00047919087 -0.055242386
-0.094791383 -0.079999961 -0.044539452
-0.087819912 -0.07602226 -0.045137323
0.087681748 -0.075934149 -0.045499176
0.09434171 -0.079999968 -0.044939112
-0.087500058 -0.06441763 -0.045021266
0.087500051 -0.06473539 -0.044874512
-0.087500058 -0.055466916 -0.044980627
0.087500058 -0.055663511 -0.045073275
-0.087500066 -0.044722997 -0.045134418
0.087500058 -0.044317134 -0.04556977
-0.087500043 -0.035257846 -0.045708679
0.087500058 -0.035190031 -0.045522071
-0.087500051 -0.024639562 -0.045393866
0.087500058 -0.025293121 -0.044772841
-0.087500051 -0.014920825 -0.045120943
0.087500058 -0.015016708 -0.044803269
-0.087500051 -0.0042841854 -0.045775961
0.087500058 -0.0049039186 -0.045162719
-0.085143514 0.00058807549 -0.045791216
-0.074919797 0 -0.044243515
-0.064915486 0 -0.044633459
-0.054496344 0 -0.044776741
-0.045516711 0 -0.04511264
-0.035447404 0 -0.044928689
-0.025035091 0 -0.044854954
-0.014794304 0 -0.045732468
-0.0054607233 0 -0.045201391
0.0050151669 0 -0.044699717
0.014524761 0 -0.044677809
0.02506157 0 -0.044777863
0.03470755 0 -0.045633137
0.044660293 0 -0.045344014
0.054519556 0 -0.044620465
0.065301165 0 -0.045587618
0.075451083 0 -0.044635583
0.08557456 0.00067859306 -0.044407066
-0.094686158 -0.079999961 -0.034797844
-0.087765671 -0.076047204 -0.034978371
0.087731019 -0.075933181 -0.035493113
0.094456516 -0.079999954 -0.035221998
-0.087500058 -0.065222457 -0.03469792
0.087500058 -0.06541729 -0.034730766
-0.087500036 -0.055345658 -0.034964859
0.087500058 -0.0550499 -0.035296563
-0.087500058 -0.044949856 -0.034835428
0.087500058 -0.045405135 -0.03482756
-0.087500058 -0.035227086 -0.035248913
0.087500051 -0.034938481 -0.035248633
-0.087500058 -0.025044518 -0.035290513
0.087500058 -0.025243513 -0.034610905
-0.087500051 -0.01479472 -0.035247006
0.087500051 -0.014699924 -0.034603417
-0.087500066 -0.0050249514 -0.034843989
0.087500058 -0.0047912579 -0.034886427
-0.08496467 0.00061784021 -0.034689844
-0.074463919 0 -0.03464637
-0.064620063 0 -0.035261612
-0.054829348 0 -0.034967616
-0.044828247 0 -0.034974195
-0.03522845 0 -0.034641698
-0.024999492 0 -0.034625474
-0.014840976 0 -0.034522373
-0.0056014629 0 -0.035416957
0.0056810989 0 -0.034674123
0.014950586 0 -0.035277881
0.025056068 0 -0.034873553
0.034797478 0 -0.034548286
0.045237996 0 -0.03533718
0.055001054 0 -0.034572411
0.065979779 0 -0.035015479
0.074701615 0 -0.03474335
0.084587932 0.00035693668 -0.034522839
-0.094892666 -0.079999961 -0.02502808
-0.087663531 -0.076023161 -0.025108855
0.087598465 -0.075562321 -0.024760922
0.094365478 -0.079999968 -0.024649585
-0.087500043 -0.06511233 -0.025093954
0.087500036 -0.064397499 -0.024743287
-0.087500051 -0.054605722 -0.024595868
0.087500058 -0.055748008 -0.025227219
-0.087500051 -0.044757906 -0.024917344
0.087500058 -0.04498278 -0.02424193
-0.087500058 -0.034926698 -0.024960864
0.087500058 -0.035351109 -0.024773713
-0.087500066 -0.025160279 -0.025431626
0.087500051 -0.025049156 -0.02553671
-0.087500051 -0.015123404 -0.024625558
0.087500058 -0.01485859 -0.025056988
-0.087500066 -0.0053337039 -0.024118183
0.087500058 -0.0051255305 -0.024595046
-0.084852912 0.00054364343 -0.024914384
-0.075267389 0 -0.024375504
-0.065488733 0 -0.024992837
-0.054997731 0 -0.025026098
-0.044359103 0 -0.024970124
-0.035398327 0 -0.024590639
-0.024834735 0 -0.025059292
-0.015090932 0 -0.025022455
-0.0050357636 0 -0.02484603
0.0041282936 0 -0.024459504
0.015706327 0 -0.025102904
0.025063416 0 -0.02479838
0.035451353 0 -0.02536891
0.045639161 0 -0.024781257
0.05483048 0 -0.025399493
0.065108664 0 -0.02458436
0.075353615 0 -0.02468968
0.085204236 0.00069217477 -0.025106585
-0.094090395 -0.079999954 -0.015536829
-0.087672919 -0.0753638 -0.015048886
0.087721258 -0.07554666 -0.014984518
0.09385328 -0.079999961 -0.01469865
-0.087500058 -0.065237202 -0.014996883
0.087500043 -0.065342657 -0.015115582
-0.087500058 -0.05520552 -0.014574951
0.087500058 -0.055238388 -0.015082682
-0.087500043 -0.045125946 -0.014971922
0.087500066 -0.045237932 -0.015254274
-0.087500058 -0.034816083 -0.014695852
0.087500058 -0.035357725 -0.015288291
-0.087500051 -0.025326561 -0.015391572
0.087500066 -0.024814257 -0.015149822
-0.087500058 -0.014840459 -0.014983333
0.087500058 -0.014790337 -0.014910529
-0.087500051 -0.0042008297 -0.015045518
0.087500058 -0.0048992708 -0.014826437
-0.084743887 0.0005259646 -0.014773309
-0.075018167 0 -0.014788974
-0.065318756 0 -0.014864577
-0.055366445 0 -0.015219842
-0.044902723 0 -0.015559047
-0.035613552 0 -0.014987781
-0.025454519 0 -0.015360228
-0.015591829 0 -0.014697509
-0.0051389239 0 -0.015150957
0.0048199096 0 -0.014430145
0.015643287 0 -0.014484229
0.025207713 0 -0.014988813
0.035261568 0 -0.015574208
0.04501849 0 -0.015011981
0.055189855 0 -0.015124748
0.065451488 0 -0.01492086
0.074450105 0 -0.014778542
0.08533287 0.00057124428 -0.014774746
-0.09417361 -0.079999961 -0.0051488513
-0.087836243 -0.075950004 -0.005789327
0.087705143 -0.075754754 -0.004476544
0.093864821 -0.079999968 -0.0053379298
-0.087500051 -0.064842507 -0.0049441545
0.087500051 -0.064885668 -0.0050791441
-0.087500051 -0.05506755 -0.0048447005
0.087500058 -0.055222061 -0.0046371608
-0.087500051 -0.04498272 -0.0046626241
0.087500058 -0.044851664 -0.0051798038
-0.087500058 -0.035174921 -0.0055408739
0.087500066 -0.035116848 -0.0051322039
-0.087500058 -0.025763452 -0.0047560777
0.087500051 -0.024717504 -0.0048373314
-0.087500066 -0.014699479 -0.0047546672
0.087500066 -0.014626636 -0.0041618994
-0.087500058 -0.0046970434 -0.004550016
0.087500051 -0.0048919674 -0.0048431149
-0.084864169 0.00051631784 -0.0050942926
-0.074943833 0 -0.0050379955
-0.064281292 0 -0.0054926835
-0.055248559 0 -0.0049806722
-0.044512544 0 -0.0050238939
-0.035222538 0 -0.0049946085
-0.025321186 0 -0.0052844924
-0.015143654 0 -0.0051264437
-0.0048529534 0 -0.004939897
0.0052476563 0 -0.0045983074
0.015103521 0 -0.0052116006
0.024972955 0 -0.0047882688
0.035331547 0 -0.0053618089
0.045560207 0 -0.0049438938
0.055014063 0 -0.0054730093
0.064962931 0 -0.0044691521
0.075606607 0 -0.0048149992
0.085309878 0.0006575663 -0.0060231388
-0.094102077 -0.079999968 0.005092096
-0.08778771 -0.076080218 0.0046720179
0.087681256 -0.075992696 0.0048242663
0.094154492 -0.079999968 0.0047544045
-0.087500066 -0.065155663 0.0047007357
0.087500058 -0.065408587 0.0050532231
-0.087500051 -0.054516755 0.0054747774
0.087500058 -0.055403389 0.0052748513
-0.087500051 -0.04515532 0.0050455937
0.087500051 -0.046205401 0.0047004763
-0.087500051 -0.034311917 0.0048537273
0.087500051 -0.03494937 0.0053447946
-0.087500051 -0.024505181 0.0053229649
0.087500066 -0.025784239 0.0051972517
-0.087500058 -0.014981718 0.0042589409
0.087500058 -0.014579344 0.0049614082
-0.087500058 -0.0050024767 0.0048595034
0.087500058 -0.0050728046 0.0047430429
-0.084788352 0.00078001118 0.0050892509
-0.074975565 0 0.0051207524
-0.064436309 0 0.0046239793
-0.055199936 0 0.0052285413
-0.04471143 0 0.0047849077
-0.034641743 0 0.0055356147
-0.02535456 0 0.0045367228
-0.014935283 0 0.0047447048
-0.0048940652 0 0.004874263
0.0049036313 0 0.0050695953
0.015318728 0 0.0050433455
0.025152579 0 0.0046959617
0.03522237 0 0.0053408733
0.0451492 0 0.0054502375
0.054856591 0 0.0047583943
0.064826511 0 0.004313203
0.075351775 0 0.0050697234
0.085045911 0.0006387778 0.0051351418
-0.094757251 -0.079999961 0.014943353
-0.087655298 -0.075610131 0.014814558
0.087779887 -0.076564305 0.015214358
0.09435387 -0.079999961 0.015289576
-0.087500051 -0.065377742 0.015264946
0.087500058 -0.064673886 0.014839194
-0.087500051 -0.055250302 0.014839232
0.087500051 -0.054528676 0.014824983
-0.087500051 -0.045832384 0.014740011
0.087500058 -0.04518418 0.015278187
-0.087500058 -0.035182692 0.015424388
0.087500058 -0.034790203 0.015301552
-0.087500051 -0.024600986 0.014475673
0.087500058 -0.024716154 0.015219547
-0.087500058 -0.015012756 0.015071882
0.087500066 -0.015157588 0.014559101
-0.087500058 -0.0051019015 0.014913516
0.087500051 -0.0046872883 0.0150174
-0.084324755 0.00043211968 0.014690964
-0.074688852 0 0.015499496
-0.064618938 0 0.014910432
-0.055149037 0 0.015271794
-0.045344636 0 0.015219503
-0.034979634 0 0.015679352
-0.024845693 0 0.01560721
-0.015387158 0 0.01475074
-0.0046354057 0 0.015595546
0.0051343441 0 0.014871038
0.014868896 0 0.014956192
0.02418641 0 0.014583772
0.034971476 0 0.015034474
0.044657111 0 0.014821176
0.054258633 0 0.014191018
0.064754143 0 0.014318282
0.07468383 0 0.015370064
0.085151009 0.00048418911 0.015090406
0.092775047 -0.080000006 0.027371772
-0.094887652 -0.079999961 0.025171045
-0.087769322 -0.075920731 0.025324762
0.087741442 -0.075332463 0.02526834
0.094401389 -0.079999961 0.024270372
-0.087500058 -0.064880513 0.024681276
0.087500058 -0.065585166 0.025272183
-0.087500066 -0.055009399 0.025329366
0.087500058 -0.055027805 0.024636386
-0.087500058 -0.045145024 0.024103062
0.087500058 -0.044711336 0.025398418
-0.087500058 -0.035389833 0.025127364
0.087500058 -0.035205677 0.024989706
-0.087500051 -0.024691224 0.024753582
0.087500051 -0.025361113 0.024920139
-0.087500058 -0.014620965 0.024558308
0.087500058 -0.015611235 0.025440227
-0.087500066 -0.0045075109 0.025051693
0.087500051 -0.0051203463 0.025178494
-0.084920324 0.0006102703 0.024923742
-0.074942894 0 0.024530927
-0.065430723 0 0.024380764
-0.05483536 0 0.024874315
-0.04576366 0 0.025307428
-0.034460563 0 0.024775371
-0.025357889 0 0.024151476
-0.014653028 0 0.025549475
-0.0049808235 0 0.025056586
0.0050943182 0 0.024926964
0.015207527 0 0.024721052
0.024600271 0 0.024431186
0.035387095 0 0.024869645
0.044890292 0 0.025072277
0.054700781 0 0.024658253
0.065071672 0 0.025506511
0.074872479 0 0.024657682
0.084873877 0.00042189361 0.024323372
-0.088807888 -0.080000006 0.03252244
-0.093771324 -0.079999968 0.034871284
-0.087790884 -0.076539792 0.03503149
0.08769989 -0.076424085 0.035372209
0.095000602 -0.079999968 0.034859121
-0.087500058 -0.065052092 0.03498162
0.087500058 -0.065001078 0.034954723
-0.087500058 -0.054988086 0.034937713
0.087500066 -0.055144049 0.034773275
-0.087500051 -0.045353644 0.035268895
0.087500058 -0.045040444 0.034797516
-0.087500058 -0.035194248 0.034668144
0.087500058 -0.035782788 0.035089489
-0.087500058 -0.025509782 0.035228156
0.087500058 -0.02486987 0.034618132
-0.087500051 -0.014460755 0.03530626
0.087500051 -0.014981121 0.035947293
-0.087500058 -0.0058483183 0.035185501
0.087500051 -0.0049558175 0.034746081
-0.085157029 0.00052814261 0.034495525
-0.074787907 0 0.03482797
-0.065201387 0 0.034581687
-0.055362202 0 0.034581713
-0.045184765 0 0.034916479
-0.03440487 0 0.034616817
-0.024965879 0 0.0348651
-0.014557481 0 0.035195008
-0.0044940878 0 0.034960777
0.0051135151 0 0.034953006
0.014720886 0 0.035053492
0.024657264 0 0.035426293
0.035432275 0 0.034793582
0.044486944 0 0.03499575
0.054898363 0 0.03510071
0.064577512 0 0.035583094
0.074413761 0 0.035699777
0.084673941 0.00056665717 0.034671851
-0.094992086 -0.079999961 0.044362448
-0.087852456 -0.076589517 0.044628181
0.087720849 -0.076261722 0.04532535
0.094998121 -0.079999968 0.044991113
-0.087500058 -0.065152064 0.04440818
0.087500058 -0.065418348 0.045253441
-0.087500051 -0.055055045 0.044700291
0.087500058 -0.055718146 0.045487974
-0.087500058 -0.044903751 0.045400333
0.087500058 -0.045363914 0.044814359
-0.087500058 -0.034793384 0.045234039
0.087500058 -0.034861177 0.04547587
-0.087500043 -0.024917176 0.045290854
0.087500058 -0.024764145 0.045243856
-0.087500051 -0.014803394 0.044877455
0.087500043 -0.015172322 0.046023846
-0.087500051 -0.0049723685 0.04507158
0.087500066 -0.0051134783 0.04501503
-0.084678389 0.0004416017 0.0447261
-0.075632662 0 0.044976149
-0.064972252 0 0.045067713
-0.055109508 0 0.044484776
-0.045119867 0 0.045081515
-0.034305658 0 0.045720734
-0.02450732 0 0.045095205
-0.014494828 0 0.044982892
-0.0050780419 0 0.045700219
0.0055686915 0 0.044787399
0.014746222 0 0.045544814
0.024870645 0 0.04509915
0.035590541 0 0.045273267
0.045099769 0 0.045104645
0.054622099 0 0.045210276
0.064930752 0 0.04499808
0.075212456 0 0.045452408
0.08508268 0.00047591765 0.044740021
-0.094270706 -0.079999961 0.055542197
-0.087717757 -0.075526044 0.054915618
0.087617248 -0.076015465 0.054935373
0.094450511 -0.079999961 0.055306055
-0.087500058 -0.065090276 0.054597545
0.087500066 -0.064385854 0.054824874
-0.087500043 -0.05512806 0.055743601
0.087500058 -0.055119049 0.055144504
-0.087500051 -0.046098836 0.05424989
0.087500051 -0.045166593 0.055321451
-0.087500051 -0.035469864 0.054896872
0.087500051 -0.035422385 0.054744329
-0.087500051 -0.025156718 0.055274006
0.087500051 -0.025371432 0.054904945
-0.087500066 -0.015097882 0.055222236
0.087500058 -0.014569245 0.055447742
-0.087500051 -0.0052299472 0.05455105
0.087500058 -0.0047514476 0.054852113
-0.084925205 0.00056824449 0.055013154
-0.074156612 0 0.055526424
-0.064956285 0 0.054962389
-0.054363396 0 0.054739073
-0.045156177 0 0.055185288
-0.035175122 0 0.054883644
-0.024879672 0 0.055340335
-0.015399901 0 0.054591972
-0.0058071804 0 0.054856025
0.0052646459 0 0.054966599
0.014980891 0 0.055189382
0.025108641 0 0.055504248
0.035201147 0 0.055172693
0.044854354 0 0.054593533
0.055078376 0 0.054917134
0.064601287 0 0.055454355
0.074643664 0 0.054789878
0.084935218 0.0005998711 0.055534553
-0.088688746 -0.080000006 0.069578826
-0.094495513 -0.079999961 0.06509994
-0.087720439 -0.076445989 0.06498041
0.087746568 -0.075412795 0.065602258
0.094598919 -0.079999961 0.065624498
-0.087500066 -0.065292001 0.064948693
0.087500066 -0.064839244 0.065364584
-0.087500043 -0.055278219 0.065514676
0.087500058 -0.055537656 0.065428302
-0.087500058 -0.044662423 0.065124303
0.087500058 -0.045290057 0.065754823
-0.087500051 -0.035273973 0.064852789
0.087500058 -0.034846514 0.065340795
-0.087500058 -0.024712056 0.065180235
0.087500058 -0.025279343 0.065233178
-0.087500051 -0.01449331 0.065167844
0.087500051 -0.015234244 0.065268122
-0.087500058 -0.0050141774 0.064803325
0.087500051 -0.0053617349 0.065440349
-0.084850371 0.00049581687 0.06500259
-0.075082093 0 0.064843163
-0.065152973 0 0.065455988
-0.055117831 0 0.065280728
-0.045169391 0 0.065511487
-0.034817994 0 0.065203637
-0.025064213 0 0.064819768
-0.014862146 0 0.064727969
-0.0047789258 0 0.064873435
0.0051016393 0 0.064987704
0.01519478 0 0.065491989
0.024754649 0 0.065198272
0.035010614 0 0.06449081
0.045272101 0 0.06532
0.054813851 0 0.065505832
0.065678291 0 0.064709075
0.075017296 0 0.064824186
0.084564984 0.00040036938 0.064663492
-0.094853058 -0.079999968 0.074761651
-0.087719269 -0.075669065 0.07513088
0.087725431 -0.075964816 0.075019486
0.094247907 -0.079999961 0.074951671
-0.087500066 -0.065036051 0.074763551
0.087500051 -0.065061152 0.075261407
-0.087500051 -0.054446787 0.074881636
0.087500051 -0.054489098 0.075060569
-0.087500036 -0.045263518 0.075001024
0.087500058 -0.045078345 0.074429058
-0.087500051 -0.036081124 0.074716993
0.087500058 -0.035614729 0.075188071
-0.087500051 -0.024453826 0.075306959
0.087500051 -0.024746893 0.075053975
-0.087500051 -0.015646163 0.074959606
0.087500058 -0.015394646 0.075309433
-0.087500058 -0.0049786456 0.074850954
0.087500051 -0.0058333557 0.074830949
-0.085078962 0.00061555632 0.075184599
-0.075124905 0 0.074661791
-0.064944483 0 0.074625731
-0.055248257 0 0.074381083
-0.045519851 0 0.074768439
-0.034700297 0 0.075231761
-0.025056116 0 0.075065762
-0.01469962 0 0.074791804
-0.0047983229 0 0.075037852
0.005064765 0 0.074794039
0.015423186 0 0.075208887
0.025005551 0 0.075208448
0.035028461 0 0.074520387
0.045327827 0 0.07538832
0.054913376 0 0.075299427
0.065203778 0 0.074634887
0.075028211 0 0.074852906
0.08510001 0.00051852124 0.074941255
-0.088023312 -0.080000006 0.086577818
-0.094524197 -0.079999961 0.085339338
-0.087771133 -0.07619068 0.084965691
0.087703496 -0.075667918 0.08512266
0.094745241 -0.079999961 0.085162073
-0.087500051 -0.065313533 0.084767886
0.087500051 -0.064800262 0.084291376
-0.087500058 -0.055138592 0.085544452
0.087500051 -0.054298904 0.085437432
-0.087500051 -0.045028679 0.085459083
0.087500058 -0.044712074 0.084657446
-0.087500058 -0.035278399 0.085544743
0.087500058 -0.034875996 0.084989108
-0.087500058 -0.024798384 0.084923163
0.087500058 -0.024574151 0.085395351
-0.087500058 -0.01482406 0.084913038
0.087500058 -0.014894356 0.085791104
-0.087500058 -0.0050283 0.084586695
0.087500058 -0.0049156682 0.085424736
-0.084910586 0.00062411628 0.085108452
-0.075310923 0 0.084390692
-0.064683892 0 0.084899843
-0.054745547 0 0.085113905
-0.045158412 0 0.084582917
-0.035409175 0 0.08498349
-0.024900813 0 0.084606223
-0.015070239 0 0.085255913
-0.005071213 0 0.08483839
0.0041701668 0 0.08551953
0.015352158 0 0.085192785
0.024957545 0 0.084456131
0.03505975 0 0.084705979
0.044934824 0 0.08485762
0.054493044 0 0.08493416
0.064871311 0 0.084936962
0.075221047 0 0.085159637
0.085193679 0.00074454042 0.084906511
-0.09494409 -0.079999961 0.094879419
-0.087656781 -0.075279824 0.095188655
0.087739341 -0.076235227 0.094693653
0.094525293 -0.079999968 0.094896175
-0.087500058 -0.064964868 0.095104836
0.087500058 -0.064984165 0.094327547
-0.087500051 -0.05470717 0.09553533
0.087500058 -0.055307049 0.094596155
-0.087500058 -0.045204442 0.094938904
0.087500051 -0.045127831 0.094173752
-0.087500051 -0.034626212 0.095107459
0.087500058 -0.0348971 0.095072463
-0.087500058 -0.024744954 0.09554325
0.087500051 -0.025692619 0.094696835
-0.087500058 -0.014886239 0.095466159
0.087500051 -0.014597058 0.094889462
-0.09263356 -0.0044999998 0.098496974
-0.087616749 -0.0045098467 0.095269732
0.087601855 -0.005115754 0.095574275
0.091844074 -0.0045000003 0.098489456
-0.085460678 0.00072256691 0.095149465
-0.075340636 0 0.094980657
-0.065405183 0 0.095608532
-0.055374946 0 0.094901793
-0.044546582 0 0.095805362
-0.035290316 0 0.094849691
-0.024929721 0 0.094801664
-0.014809943 0 0.095310017
-0.0047742175 0 0.095368199
0.0045378944 0 0.094422594
0.014964618 0 0.095089667
0.024908518 0 0.095176302
0.035555325 0 0.095570311
0.045187313 0 0.095008433
0.054663669 0 0.095465928
0.0647498 0 0.094621338
0.075214334 0 0.095163494
0.084316455 0.00038434565 0.094798617
-0.088408187 -0.080000006 0.10432372
-0.093700029 -0.07818827 0.10649869
-0.087875247 -0.076160319 0.10597087
0.087870754 -0.075628877 0.1067464
0.093356818 -0.078164615 0.10703446
-0.092530876 -0.064628445 0.10949997
-0.087611549 -0.064980693 0.10531313
0.087699629 -0.065113418 0.10606818
0.092696257 -0.064923987 0.10949998
-0.09252578 -0.054713979 0.10949995
-0.087778904 -0.054457728 0.1062748
0.087795466 -0.05477196 0.10552583
0.092716709 -0.055773221 0.10949998
-0.092970833 -0.045696869 0.10949998
-0.087745145 -0.044845857 0.10609689
0.08786989 -0.045466945 0.10630272
0.09283486 -0.045104537 0.10949998
-0.092624702 -0.034980603 0.10949998
-0.087710693 -0.035029072 0.10607652
0.087787136 -0.035302818 0.10621639
0.092648767 -0.035295829 0.10949996
-0.09247335 -0.025728587 0.10949998
-0.087790005 -0.024818867 0.10613875
0.087661147 -0.02490207 0.10535208
0.092827864 -0.025378741 0.10949997
-0.092775941 -0.014456064 0.10949997
-0.087655954 -0.014964592 0.10574177
0.087708123 -0.014535813 0.10574086
0.092531912 -0.015051481 0.10949997
-0.093574837 -0.00517911 0.1061978
-0.08786571 -0.0053972737 0.10546393
0.087836184 -0.0051286253 0.10546099
0.093992367 -0.0051505389 0.10621999
-0.084947534 0.00049663649 0.10522088
-0.07486897 0 0.10473467
-0.06501767 0 0.10527091
-0.055060338 0 0.10475159
-0.045146398 0 0.10553154
-0.03516271 0 0.10513779
-0.024986302 0 0.10480271
-0.014844487 0 0.10494392
-0.0048103281 0 0.1052156
0.0053492323 0 0.10528883
0.015499698 0 0.10485217
0.02520493 0 0.10514466
0.035128072 0 0.10479531
0.044973392 0 0.10512064
0.054710463 0 0.10513107
0.065276675 0 0.1047571
0.074463978 0 0.1053999
0.084705122 0.00048719195 0.10532013
-0.089273691 -0.080000006 0.11410919
0.088757709 -0.080000006 0.11711902
-0.094408885 -0.079999961 0.11563566
-0.087670691 -0.075915061 0.11516713
0.087848909 -0.076932549 0.1150744
0.094888531 -0.079999961 0.1148
-0.087500051 -0.064841263 0.1148033
0.087500058 -0.064734362 0.11548968
-0.087500058 -0.05564874 0.1148539
0.087500051 -0.054711282 0.11456421
-0.087500036 -0.044881489 0.11509636
0.087500058 -0.045181509 0.11481979
-0.087500058 -0.034975406 0.1153142
0.087500058 -0.034958828 0.11507623
-0.087500058 -0.025492378 0.11414228
0.087500058 -0.025279848 0.11476967
-0.087500066 -0.014902313 0.11486305
0.087500066 -0.014855142 0.11479051
-0.094635725 -0.0045000012 0.11476772
-0.087752074 -0.0048961197 0.11457406
0.087714776 -0.0050016004 0.11466049
0.094328664 -0.0045000012 0.11542416
-0.084968314 0.00055275083 0.11521649
-0.075230137 0 0.11546641
-0.065310776 0 0.11527501
-0.055581316 0 0.11543422
-0.044922933 0 0.11535206
-0.034727804 0 0.11478058
-0.024973864 0 0.11464167
-0.01394447 0 0.11549715
-0.005458191 0 0.11541142
0.0048264898 0 0.11532555
0.015123372 0 0.11510114
0.024920989 0 0.11465421
0.03473768 0 0.11505785
0.044782426 0 0.11483502
0.055058517 0 0.11534915
0.064277627 0 0.11473288
0.074790135 0 0.11458213
0.085025594 0.00045342161 0.11527961
-0.088440098 -0.080000006 0.1270647
0.08834748 -0.080000006 0.1271413
-0.094191521 -0.079999961 0.12520364
-0.087720975 -0.075386666 0.1244465
0.087762594 -0.075396113 0.12493784
0.094190158 -0.079999961 0.12513225
-0.087500058 -0.064894795 0.12557885
0.087500051 -0.065390974 0.12465253
-0.087500058 -0.05444302 0.12540001
0.087500051 -0.055209585 0.12520786
-0.087500066 -0.04494103 0.12476344
0.087500058 -0.045200139 0.12493887
-0.087500051 -0.035205044 0.12469444
0.087500043 -0.034388512 0.12503523
-0.087500066 -0.025014175 0.12479775
0.087500051 -0.025132336 0.12512323
-0.087500058 -0.015718933 0.1250532
0.087500058 -0.014994755 0.12471022
-0.094753921 -0.0045000012 0.12456363
-0.087717623 -0.0050675031 0.12496897
0.087842248 -0.0046842718 0.12485626
0.094328612 -0.0045000012 0.12552626
-0.084773526 0.00056375709 0.12485722
-0.075017132 0 0.12516482
-0.065164551 0 0.12495148
-0.05491095 0 0.12478763
-0.044899356 0 0.12497288
-0.035153825 0 0.12508173
-0.025277948 0 0.12512557
-0.0148568 0 0.12515062
-0.0047848099 0 0.1246374
0.0049678609 0 0.12555973
0.014798856 0 0.12524503
0.024907261 0 0.12493856
0.035351049 0 0.12498724
0.045843646 0 0.12497747
0.055432186 0 0.12507004
0.065112382 0 0.12472972
0.075112335 0 0.12449627
0.085209243 0.00050442794 0.12483985
-0.069698453 -0.080000006 0.1383436
0.05670552 -0.080000006 0.13880309
0.067469791 -0.080000006 0.13879842
0.097139366 -0.080000006 0.13976352
-0.09446191 -0.079999961 0.13479719
-0.085878216 -0.076048858 0.13584895
-0.074861586 -0.076142646 0.13772164
-0.064896606 -0.075951293 0.1378483
-0.055439755 -0.075906396 0.1377328
-0.044891369 -0.076322153 0.13786431
-0.03525085 -0.076179631 0.13777658
-0.024743157 -0.076153763 0.13773838
-0.014925377 -0.076341584 0.13771909
-0.0048568738 -0.076007135 0.13777681
0.0047526215 -0.076358922 0.13775498
0.015606058 -0.07626947 0.1376804
0.024596507 -0.075449243 0.13767551
0.034985341 -0.076446056 0.13775486
0.045060452 -0.076155715 0.13773964
0.05585146 -0.076057129 0.13798633
0.065062061 -0.076568045 0.1378109
0.075193055 -0.075896934 0.13763325
0.085747711 -0.075808108 0.13590926
0.094220661 -0.079999961 0.13463585
-0.085608065 -0.064965278 0.13566224
-0.07539165 -0.064982392 0.1374999
-0.065575153 -0.064355284 0.13749991
-0.056074046 -0.065149024 0.13784012
-0.04464826 -0.065172881 0.13749991
-0.034429669 -0.065100774 0.1374999
-0.025362989 -0.065301731 0.1374999
-0.015139947 -0.064838082 0.13749991
-0.0049549513 -0.064961262 0.1374999
0.0045933546 -0.064905122 0.13749991
0.015591494 -0.065461054 0.13749994
0.024694212 -0.065108359 0.13749988
0.035006095 -0.064647213 0.13749991
0.044401322 -0.065007113 0.13749991
0.055403627 -0.065115176 0.13761844
0.064867981 -0.065054387 0.13749991
0.075225718 -0.065176584 0.1374999
0.085776493 -0.065238871 0.13536376
-0.085492499 -0.055200141 0.13534546
-0.075134367 -0.054661784 0.1374999
-0.065410443 -0.055009902 0.1374999
-0.055668522 -0.05430422 0.13764064
-0.045029271 -0.054501053 0.13749991
-0.035228796 -0.055222109 0.1374999
-0.02476321 -0.054464824 0.13749988
-0.014692746 -0.055109013 0.13749991
-0.0047470354 -0.055068407 0.1374999
0.0051317425 -0.055051714 0.1374999
0.015423745 -0.054928657 0.1374999
0.024786517 -0.054983098 0.13749991
0.034021243 -0.055135004 0.1374999
0.044478394 -0.054855451 0.1374999
0.056191098 -0.055255532 0.13770138
0.064934172 -0.055495065 0.13749988
0.074901655 -0.055014364 0.1374999
0.085846104 -0.055258792 0.1355238
-0.085473493 -0.044693958 0.13543351
-0.07526949 -0.045463145 0.13749991
-0.065085277 -0.044684861 0.1374999
-0.055363432 -0.044626348 0.13769017
-0.045166101 -0.04472924 0.1374999
-0.03485572 -0.04485191 0.13749991
-0.025096212 -0.044979837 0.13749991
-0.014784893 -0.045174416 0.13749991
-0.0047259163 -0.044604689 0.1374999
0.0048625465 -0.044983894 0.13749988
0.015398894 -0.045439798 0.13749991
0.025202736 -0.045341037 0.1374999
0.035728604 -0.044618998 0.1374999
0.04471105 -0.044365443 0.1374999
0.055612635 -0.044503018 0.13766606
0.06472075 -0.044821449 0.1374999
0.075543277 -0.045175482 0.13749991
0.085751571 -0.045145608 0.13566913
-0.085163973 -0.034900397 0.13584931
-0.07483995 -0.035360731 0.13749993
-0.064316876 -0.035240274 0.13749991
-0.056151107 -0.035675399 0.13780577
-0.044588599 -0.034641143 0.13749993
-0.03536623 -0.035365187 0.1374999
-0.024760947 -0.03559269 0.13749993
-0.015424087 -0.034501866 0.1374999
-0.0051688999 -0.035314251 0.1374999
0.0050130486 -0.035129771 0.1374999
0.014243923 -0.034960795 0.13749988
0.025157867 -0.035244729 0.13749991
0.035285849 -0.034688182 0.13749991
0.045083873 -0.035073563 0.1374999
0.055698603 -0.034661096 0.13767166
0.065042719 -0.03559028 0.1374999
0.074797876 -0.035491269 0.13749988
0.085442111 -0.035052348 0.1355041
-0.085569344 -0.024823444 0.13568249
-0.074543156 -0.024590056 0.1374999
-0.06483987 -0.024647279 0.13749988
-0.056370229 -0.025354013 0.13778371
-0.045756966 -0.024718719 0.13749988
-0.035655346 -0.024813 0.13749991
-0.025045434 -0.025300151 0.1374999
-0.01494187 -0.02495355 0.13749991
-0.0052143517 -0.025185296 0.13749991
0.0046137511 -0.025527827 0.13749993
0.015451902 -0.025553333 0.1374999
0.025152786 -0.024834406 0.13749988
0.034759529 -0.024837954 0.1374999
0.04455338 -0.025043022 0.1374999
0.055770505 -0.025135675 0.13774136
0.064844973 -0.024594177 0.1374999
0.074867204 -0.025107209 0.1374999
0.085987322 -0.025300803 0.13573566
-0.086143464 -0.014761085 0.13615024
-0.075179599 -0.015249535 0.1374999
-0.064543143 -0.015186151 0.13749991
-0.055860717 -0.014843713 0.13770552
-0.045544337 -0.014788892 0.13749988
-0.035067584 -0.015122753 0.13749991
-0.024960324 -0.015204579 0.13749991
-0.015388577 -0.014774866 0.1374999
-0.0046860841 -0.015200411 0.13749988
0.0050559328 -0.014545937 0.13749991
0.014831119 -0.014662796 0.1374999
0.024553817 -0.015350885 0.13749993
0.034692902 -0.015594285 0.1374999
0.044654641 -0.015484051 0.1374999
0.055537771 -0.014712108 0.1378198
0.065546997 -0.014295229 0.13749991
0.074987747 -0.014736475 0.1374999
0.086085744 -0.014749764 0.1356499
-0.094441421 -0.0045000012 0.13487257
-0.086097009 -0.0052237851 0.13596898
-0.075132623 -0.0051022428 0.13766454
-0.065006159 -0.0048943241 0.13768102
-0.055756602 -0.005435755 0.13793038
-0.044992067 -0.0046645985 0.13757215
-0.035209697 -0.0049227248 0.1374999
-0.024977697 -0.0047965776 0.1374999
-0.015381387 -0.0048967144 0.13749988
-0.0047051022 -0.0056207376 0.13749988
0.0045775124 -0.0049885698 0.13749991
0.014914152 -0.004851839 0.13749991
0.025349859 -0.00538356 0.1374999
0.034840055 -0.0053482889 0.1374999
0.045299556 -0.0045849276 0.13757548
0.05547744 -0.0048237164 0.13778719
0.064887553 -0.004831837 0.13776076
0.075067341 -0.0046396772 0.13781805
0.086270712 -0.005466558 0.13624123
0.094198368 -0.0045000012 0.13525826
-0.084133081 0.000657039 0.13407621
-0.074848495 0.0004794164 0.13478215
-0.064980157 0.00084525242 0.13551664
-0.054844994 0.00065934291 0.13518272
-0.045011457 0.0005413217 0.13493492
-0.035219658 0.00055782759 0.13449296
-0.025187749 0.00063962018 0.13511938
-0.01511477 0.00052462262 0.1349218
-0.0050780065 0.00053069158 0.13509727
0.0048605446 0.0004655011 0.13468049
0.014822307 0.00050346245 0.13420485
0.025368283 0.00036203844 0.13476044
0.035451055 0.00043273624 0.1343336
0.045218896 0.00035602716 0.13434213
0.055828527 0.0005699718 0.13507856
0.06481684 0.00054540258 0.13526455
0.074974127 0.0004465922 0.13467738
0.084741168 0.00093455875 0.13505821
0.039527263 -0.080000006 0.14724167
0.047877625 -0.080000006 0.14641182
0.065765291 -0.080000006 0.1479516
0.079736337 -0.080000006 0.14858963
-0.094104216 -0.079999983 0.14332095
-0.085061178 -0.079999961 0.14464675
-0.075117305 -0.079999968 0.14453393
-0.064283825 -0.079999954 0.14504898
-0.056832541 -0.07816533 0.14342816
-0.045073371 -0.079999961 0.14422689
-0.035172876 -0.079999954 0.1444886
-0.024754845 -0.079999968 0.14399222
-0.014499509 -0.079999961 0.14472766
-0.0048272959 -0.079999968 0.14423127
0.0052204072 -0.079999968 0.14496675
0.015128268 -0.079999968 0.14457554
0.025035737 -0.079999961 0.14499022
0.035096947 -0.079999968 0.14463247
0.045254741 -0.079999968 0.14455116
0.056330692 -0.078552641 0.14360124
0.064950995 -0.079999968 0.14458129
0.074794203 -0.079999961 0.14460255
0.085028723 -0.079999961 0.14450924
0.09392187 -0.079999983 0.14313148
-0.059499983 -0.065623954 0.14238474
0.059499986 -0.065088913 0.14247148
-0.059499986 -0.055598997 0.14298886
0.059499986 -0.05440658 0.14272135
-0.059499983 -0.044654187 0.14270896
0.059499986 -0.045168351 0.14251173
-0.059499983 -0.034314506 0.14313743
0.059499986 -0.034647096 0.14293061
-0.059499986 -0.02459407 0.14279026
0.05949999 -0.026070451 0.14244492
-0.090324879 -0.011550414 0.14032488
-0.059499986 -0.015957603 0.14290851
0.059499983 -0.015262067 0.14287333
-0.093432069 -0.0049928138 0.14290468
-0.084920771 -0.0045000012 0.1441967
-0.075294346 -0.0045000012 0.14565817
