# .PCD v0.7 - Point Cloud Data file format
VERSION 0.7
FIELDS x y z
SIZE 4 4 4
TYPE F F F
COUNT 1 1 1
WIDTH 1439
HEIGHT 1
VIEWPOINT 0 0 0 1 0 0 0
POINTS 1439
DATA ascii
-0.087499991 -0.027792601 -0.11278158
0.087499984 -0.027792605 -0.1125894
-0.087499991 -0.022914667 -0.1129787
0.087499984 -0.02246503 -0.11231745
-0.087499984 -0.017553711 -0.11290283
0.087499984 -0.017194699 -0.11282397
-0.087499984 -0.012015192 -0.11241481
0.087499991 -0.012164999 -0.11198898
-0.087499984 -0.0075370916 -0.11231053
0.087499984 -0.0072882031 -0.11197203
-0.096994229 -0.0045000007 -0.11285548
-0.092429407 -0.0045000003 -0.11268116
-0.088078804 -0.0031041172 -0.11241379
0.087866426 -0.0027824556 -0.11243428
0.092627347 -0.0045000007 -0.11251488
0.097105436 -0.0045000007 -0.11209957
-0.087163918 0.001012089 -0.11228842
-0.082918592 0 -0.11249797
-0.078187756 0 -0.11244439
-0.072305866 0 -0.11275408
-0.067201607 0 -0.11238049
-0.062715411 0 -0.11253205
-0.057151042 0 -0.11219656
-0.053231686 0 -0.11162499
-0.047561452 0 -0.11307058
-0.043224193 0 -0.11229231
-0.037509963 0 -0.11260933
-0.031630084 0 -0.11228409
-0.027045097 0 -0.11254384
-0.022997476 0 -0.11263595
-0.017675729 0 -0.11243046
-0.012756548 0 -0.11271182
-0.0071057202 0 -0.11240496
-0.0021264188 0 -0.11194215
0.0018251785 0 -0.11244312
0.0073284395 0 -0.11287256
0.012922013 0 -0.11208232
0.017038949 0 -0.11220613
0.022670856 0 -0.11258186
0.027353423 0 -0.11269355
0.032198492 0 -0.11256867
0.037614506 0 -0.1131471
0.042921204 0 -0.1122836
0.047665585 0 -0.11256397
0.052294213 0 -0.112763
0.057620898 0 -0.11236893
0.062075317 0 -0.11242762
0.066956215 0 -0.11223939
0.072320074 0 -0.11269229
0.077012137 0 -0.11262846
0.082659155 0 -0.11219034
0.086752765 0.00066910882 -0.11281998
-0.088190384 -0.080000006 -0.10826584
0.096329115 -0.080000006 -0.10774362
-0.096823022 -0.07982409 -0.10783052
-0.092762895 -0.078898445 -0.10862442
-0.088243559 -0.078636162 -0.10846543
0.087932542 -0.077731758 -0.10782361
0.092443116 -0.078623042 -0.10893606
0.096641861 -0.079500429 -0.10746489
-0.092439011 -0.071875401 -0.10950001
-0.087806612 -0.07197351 -0.10815033
0.087784424 -0.072574235 -0.10834768
0.09283939 -0.072116755 -0.10949998
0.095080607 -0.073039576 -0.1095
-0.092822857 -0.067927927 -0.10950002
-0.08780957 -0.06763839 -0.10830035
0.087967575 -0.067360543 -0.10805993
0.092357077 -0.067631543 -0.10950002
0.095387436 -0.066626191 -0.10949999
-0.095225364 -0.061943788 -0.10949999
-0.092429727 -0.062296011 -0.10949999
-0.0879099 -0.062718153 -0.10792833
0.087941825 -0.062816292 -0.10748374
0.092542663 -0.062384296 -0.10950001
0.095311359 -0.062086813 -0.10950001
-0.095472887 -0.058287859 -0.10949999
-0.091873109 -0.057691637 -0.10950002
-0.087929606 -0.057643615 -0.10823443
0.088097237 -0.057973552 -0.10822458
0.092565179 -0.057598732 -0.10950001
0.095275119 -0.058100842 -0.10950001
-0.095332891 -0.053308088 -0.10950001
-0.092983119 -0.052366015 -0.1095
-0.087939523 -0.052036364 -0.1083689
0.088075109 -0.052369863 -0.1082321
0.092563987 -0.052288957 -0.1095
0.095175818 -0.051788978 -0.10950001
-0.095275953 -0.046234865 -0.10950001
-0.092443816 -0.047371879 -0.10950001
-0.08775568 -0.047201734 -0.10778788
0.087593764 -0.047573138 -0.1076827
0.092385478 -0.047077477 -0.10950001
-0.095253587 -0.042091899 -0.1095
-0.09217225 -0.042178221 -0.10950001
-0.087938793 -0.042625207 -0.10862181
0.087820627 -0.042460822 -0.10780675
0.092610434 -0.041618325 -0.1095
0.095409974 -0.042576432 -0.1095
-0.095284775 -0.036841743 -0.10950001
-0.093041174 -0.037389968 -0.1095
-0.08779525 -0.037619807 -0.10824979
0.08813341 -0.037090357 -0.10833056
0.092831403 -0.037219834 -0.10950001
0.095193565 -0.039827764 -0.1095
-0.095393896 -0.030630499 -0.10949999
-0.093010038 -0.032438483 -0.10950001
-0.088013113 -0.032330323 -0.10799463
0.087951332 -0.032603186 -0.1081071
0.092842437 -0.03287854 -0.1095
0.095182687 -0.033151403 -0.1095
-0.095221803 -0.027217813 -0.10950001
-0.092104211 -0.027213775 -0.10950001
-0.08788985 -0.027005777 -0.10785389
0.087959684 -0.027585818 -0.10799219
0.093069784 -0.027362093 -0.10950002
0.095224835 -0.028114509 -0.1095
-0.095214933 -0.023496369 -0.1095
-0.091947332 -0.02281072 -0.10950001
-0.087916598 -0.02234865 -0.10802578
0.087733299 -0.02233693 -0.10774329
0.092932984 -0.021800224 -0.10950001
0.095375307 -0.021287147 -0.10950001
-0.095102526 -0.018519215 -0.1095
-0.092159875 -0.017963929 -0.10949999
-0.087815136 -0.017740795 -0.10796265
0.08801958 -0.017578756 -0.10822967
0.092889123 -0.017318258 -0.10950001
0.095304184 -0.017988531 -0.1095
-0.095215581 -0.012663983 -0.10949999
-0.091529921 -0.012278831 -0.10949999
-0.088038146 -0.012195821 -0.10829002
0.087720357 -0.012651428 -0.10741773
0.092036225 -0.012704962 -0.10950001
0.095258273 -0.013220144 -0.10950001
-0.095148757 -0.0079382425 -0.1095
-0.092692323 -0.0074588084 -0.10950001
-0.088004708 -0.0075572212 -0.10835817
0.08794269 -0.0076577608 -0.10862914
0.091959387 -0.0075006387 -0.10950002
0.095490277 -0.0072472538 -0.1095
-0.096942529 -0.0045000007 -0.10737082
-0.093106665 -0.004567293 -0.1077811
-0.088244401 -0.0036973292 -0.10780655
0.087973945 -0.0035027496 -0.10754199
0.091883101 -0.0045026513 -0.10754962
0.09713611 -0.0045000003 -0.10709748
-0.086807549 0.00076539122 -0.10778258
-0.082329683 0 -0.10814197
-0.07780581 0 -0.1071324
-0.073264055 0 -0.10721736
-0.067323759 0 -0.10738844
-0.062001094 0 -0.10786204
-0.057331026 0 -0.10759399
-0.053045873 0 -0.10829648
-0.047083743 0 -0.10747781
-0.043073718 0 -0.10747389
-0.037202034 0 -0.10658279
-0.032276727 0 -0.10772514
-0.027789211 0 -0.10739861
-0.022518523 0 -0.10794082
-0.01734161 0 -0.10760782
-0.012529538 0 -0.10681339
-0.0074860579 0 -0.10712672
-0.002528785 0 -0.10821761
0.0028660279 0 -0.10761935
0.0079743676 0 -0.10771759
0.011919292 0 -0.10738207
0.017955374 0 -0.10673066
0.022847334 0 -0.10732518
0.027323103 0 -0.10752386
0.032307725 0 -0.10684517
0.037253328 0 -0.1076265
0.043133453 0 -0.10790826
0.047465231 0 -0.10820239
0.052087169 0 -0.10780499
0.057484929 0 -0.10773221
0.062093258 0 -0.10768056
0.068399362 0 -0.1077435
0.072300747 0 -0.10822684
0.077427462 0 -0.10781404
0.08217337 0 -0.10671871
0.086976953 0.00098758785 -0.10705075
0.093504019 -0.080000006 -0.1029588
0.097425207 -0.080000006 -0.10399037
-0.096750312 -0.079999991 -0.10222651
-0.092981808 -0.079999991 -0.10167382
-0.087838367 -0.077841401 -0.10268327
0.088143408 -0.078574553 -0.10285948
0.0925714 -0.080000006 -0.10204388
0.097075559 -0.080000006 -0.10242704
-0.087499984 -0.072653934 -0.10227146
0.087499984 -0.072344638 -0.10222236
-0.087499991 -0.067266725 -0.10155174
0.087499984 -0.067532495 -0.10215473
-0.087499984 -0.06300018 -0.10247829
0.087499984 -0.062273882 -0.10186898
-0.087499991 -0.057875931 -0.10325559
0.087499984 -0.057664011 -0.10206125
-0.087499999 -0.052602015 -0.10260023
0.087499984 -0.052829862 -0.10232463
-0.087499984 -0.047455709 -0.10267941
0.087499991 -0.047699302 -0.1024679
-0.087499991 -0.042596392 -0.10229924
0.087499984 -0.042813506 -0.10220906
-0.087499999 -0.03808067 -0.10280852
0.087499999 -0.037751127 -0.10257819
-0.087499984 -0.032452032 -0.10300685
0.087499984 -0.032359038 -0.1026683
-0.087500006 -0.027124263 -0.10185417
0.087499991 -0.027696628 -0.10214395
-0.087499984 -0.02299053 -0.10253581
0.087499991 -0.022012819 -0.10303015
-0.087499999 -0.017587064 -0.10218358
0.087499991 -0.018306199 -0.10176303
-0.087499984 -0.011930573 -0.10271298
0.087499991 -0.012890027 -0.10254315
-0.087499984 -0.0075967587 -0.10226974
0.087499984 -0.0074984431 -0.10261056
-0.096677646 -0.0044999998 -0.1039443
-0.092627466 -0.0045000003 -0.10158017
-0.087821171 -0.002964871 -0.1029716
0.08814916 -0.0037905984 -0.10299684
0.092503823 -0.0045000007 -0.10216362
0.096447594 -0.0045000003 -0.10295034
-0.087141275 0.0011604117 -0.10260137
-0.081931658 0 -0.10275292
-0.077646345 0 -0.10238422
-0.072464265 0 -0.10209625
-0.067972764 0 -0.1018948
-0.062554397 0 -0.1024731
-0.057126474 0 -0.10348654
-0.05215114 0 -0.10295621
-0.047792543 0 -0.10321473
-0.042257551 0 -0.1022344
-0.038026743 0 -0.10228334
-0.032013886 0 -0.10255357
-0.0275652 0 -0.10227372
-0.022300418 0 -0.10263943
-0.017900007 0 -0.10229972
-0.012680301 0 -0.10249892
-0.0074876766 0 -0.10167073
-0.0026172507 0 -0.10280994
0.0025810583 0 -0.10259438
0.0075754761 0 -0.10265289
0.012517101 0 -0.1027436
0.017117402 0 -0.10255152
0.023263104 0 -0.10236068
0.027274802 0 -0.10198643
0.032335501 0 -0.10271979
0.038502935 0 -0.10277401
0.041920733 0 -0.10271836
0.047793519 0 -0.10251252
0.052326832 0 -0.10299164
0.057276174 0 -0.10234897
0.062343299 0 -0.10172218
0.067507967 0 -0.10259854
0.072872221 0 -0.10249101
0.078224175 0 -0.10264666
0.082505703 0 -0.10279907
0.086971007 0.0010132811 -0.10270213
-0.096767358 -0.079999991 -0.097188585
-0.09286844 -0.079999991 -0.097309202
-0.087848224 -0.07835184 -0.097257696
0.08759518 -0.077616766 -0.098047011
0.092554785 -0.079999998 -0.098283291
0.09688548 -0.080000006 -0.097570196
-0.087499984 -0.072017342 -0.097446024
0.087499984 -0.072680108 -0.097623609
-0.087499984 -0.067323245 -0.097354628
0.087499991 -0.067769587 -0.097641647
-0.087499984 -0.0626048 -0.098233566
0.087499984 -0.062418383 -0.097562544
-0.087499991 -0.057370752 -0.097315907
0.087499991 -0.056892633 -0.097811148
-0.087499984 -0.051461004 -0.097167961
0.087499991 -0.052745622 -0.097133234
-0.087499984 -0.047669981 -0.09775617
0.087499991 -0.047504667 -0.097892791
-0.087499984 -0.042221669 -0.097280845
0.087499991 -0.042936612 -0.097697556
-0.087499984 -0.037851654 -0.097870432
0.087499984 -0.037663039 -0.097219668
-0.087499984 -0.032699861 -0.098032527
0.087499991 -0.032318484 -0.097661637
-0.087499984 -0.027524564 -0.097317062
0.087499984 -0.026624406 -0.096769556
-0.087499984 -0.022123501 -0.098104402
0.087499984 -0.022851074 -0.097365819
-0.087499991 -0.01711064 -0.097766072
0.087499984 -0.016804537 -0.096994519
-0.087499991 -0.011503545 -0.097676329
0.087499984 -0.012077493 -0.097264759
-0.087499984 -0.0073638358 -0.097494937
0.087499984 -0.0068146004 -0.09748362
-0.091964304 -0.0044999998 -0.098604694
-0.087952822 -0.0027374807 -0.097786948
0.087862842 -0.003319507 -0.097224966
0.092967965 -0.0045000003 -0.098895825
-0.086818889 0.00077816547 -0.097875565
-0.082320899 0 -0.097134396
-0.077203438 0 -0.096992038
-0.072535135 0 -0.097945593
-0.067370288 0 -0.097616643
-0.062442139 0 -0.09822882
-0.057396326 0 -0.097296998
-0.052786317 0 -0.09770681
-0.047534794 0 -0.096900195
-0.042278908 0 -0.097800985
-0.037028458 0 -0.09703251
-0.032509033 0 -0.097354181
-0.027625637 0 -0.096767649
-0.022520799 0 -0.09754511
-0.017596154 0 -0.09723793
-0.012197271 0 -0.097137019
-0.0074308417 0 -0.097487226
-0.0023235134 0 -0.098028831
0.0027852217 0 -0.097423516
0.0079165995 0 -0.096981831
0.012748793 0 -0.097772993
0.017348364 0 -0.097921327
0.022199914 0 -0.097449444
0.027601454 0 -0.097741
0.032768719 0 -0.097537145
0.03763653 0 -0.097906366
0.042684801 0 -0.097574741
0.047701508 0 -0.097071946
0.052686252 0 -0.09798079
0.056833513 0 -0.0980222
0.062284816 0 -0.097178966
0.068066053 0 -0.09728191
0.07274504 0 -0.098316565
0.077509448 0 -0.097113185
0.082449704 0 -0.09745305
0.087043874 0.0009583293 -0.097821303
-0.090598308 -0.080000006 -0.094894223
-0.088032141 -0.080000006 -0.092677511
0.095306754 -0.080000006 -0.092372686
-0.096457407 -0.080000006 -0.092150107
-0.092884772 -0.080000006 -0.092419364
-0.087854877 -0.078326859 -0.092271313
0.087949857 -0.078140095 -0.092774257
0.092528887 -0.080000006 -0.092171103
0.097050346 -0.079999991 -0.093004845
-0.087500006 -0.072546542 -0.092503995
0.087499991 -0.072310761 -0.092778586
-0.087499984 -0.067468196 -0.092881829
0.087499984 -0.067605488 -0.093110062
-0.087500013 -0.062537394 -0.092627294
0.087499984 -0.06281504 -0.092525251
-0.087499984 -0.057773873 -0.09208867
0.087499991 -0.057789668 -0.092511371
-0.087499984 -0.051977515 -0.091882832
0.087499984 -0.051920492 -0.09279646
-0.087499999 -0.047004808 -0.092695571
0.087499984 -0.047483098 -0.092547148
-0.087499984 -0.043186489 -0.091813646
0.087499984 -0.042440567 -0.092569575
-0.087500006 -0.037156396 -0.092852935
0.087499984 -0.037276048 -0.093246177
-0.087499984 -0.032431588 -0.092732176
0.087499984 -0.032532718 -0.092574507
-0.087499991 -0.027592504 -0.092444383
0.087499984 -0.027455043 -0.092454746
-0.087499984 -0.022649674 -0.0922876
0.087499991 -0.022348791 -0.092426494
-0.087499984 -0.017228998 -0.092333697
0.087499984 -0.017714512 -0.091860659
-0.087499984 -0.01250073 -0.092647709
0.087499984 -0.012330275 -0.091874808
-0.087499984 -0.007484674 -0.092573531
0.087499984 -0.007734023 -0.092961676
-0.087499984 -0.0024907638 -0.092454471
0.087499984 -0.002998369 -0.092368059
-0.087257475 0.0012788869 -0.092336848
-0.083151631 0 -0.091976397
-0.077454343 0 -0.093048543
-0.072571538 0 -0.092356011
-0.067654021 0 -0.092703313
-0.062254015 0 -0.092172682
-0.056652043 0 -0.092675619
-0.052136283 0 -0.092085458
-0.048073258 0 -0.09183348
-0.042713389 0 -0.092063405
-0.038370736 0 -0.092650793
-0.032398876 0 -0.092797972
-0.027320242 0 -0.092288449
-0.021934099 0 -0.092566103
-0.016981902 0 -0.091997728
-0.011985463 0 -0.092559718
-0.0073460401 0 -0.092672922
-0.0028058377 0 -0.092352837
0.0025207906 0 -0.093306594
0.0071229311 0 -0.092722952
0.012075166 0 -0.09235286
0.016735937 0 -0.092530839
0.022429122 0 -0.092427462
0.027288096 0 -0.092560716
0.032280583 0 -0.092461646
0.037497308 0 -0.092812665
0.042302474 0 -0.092738025
0.047609325 0 -0.092035107
0.052391883 0 -0.092352033
0.05787627 0 -0.092472911
0.062991016 0 -0.092162937
0.067919075 0 -0.092724033
0.072746567 0 -0.092451461
0.07755927 0 -0.092672437
0.082609557 0 -0.092299223
0.086826317 0.00088239997 -0.092509195
0.096848391 -0.080000006 -0.086384267
-0.097401105 -0.079999991 -0.087389067
-0.092606664 -0.079999991 -0.087250546
-0.087832697 -0.078092545 -0.087595396
0.087942503 -0.078151308 -0.087576732
0.092693165 -0.079999991 -0.087330237
0.097134031 -0.080000006 -0.087210745
-0.087499991 -0.071959227 -0.088285506
0.087499991 -0.072887436 -0.087402843
-0.087499984 -0.067859001 -0.087106377
0.087499984 -0.067687973 -0.08820226
-0.087499984 -0.062781148 -0.087214723
0.087499984 -0.062488023 -0.087753892
-0.087499984 -0.057553966 -0.088062949
0.087499984 -0.057327338 -0.087071754
-0.087499984 -0.052164454 -0.087399296
0.087499984 -0.052610863 -0.087062821
-0.087499984 -0.048040867 -0.087685719
0.087499984 -0.046755984 -0.087784134
-0.087499984 -0.042514253 -0.087292649
0.087499999 -0.042808224 -0.087491862
-0.087499984 -0.038273457 -0.087490141
0.087499984 -0.037797634 -0.087941721
-0.087499984 -0.032658368 -0.087202363
0.087499984 -0.032832056 -0.087332316
-0.087499984 -0.02743586 -0.087537818
0.087499984 -0.027402326 -0.087644346
-0.087499991 -0.02277798 -0.087503023
0.087499984 -0.021429691 -0.087396264
-0.087499984 -0.01778863 -0.087126911
0.087499984 -0.017774018 -0.087131575
-0.087499984 -0.012740271 -0.087060623
0.087499984 -0.012598378 -0.087590493
-0.087499984 -0.0083050104 -0.087275006
0.087499984 -0.0071285767 -0.086816363
-0.087499984 -0.002037005 -0.087102428
0.087499984 -0.002829633 -0.08745791
-0.087287575 0.0010335559 -0.086999699
-0.082374409 0 -0.086688481
-0.077685311 0 -0.086975537
-0.072274119 0 -0.087604605
-0.067437388 0 -0.087220803
-0.062817961 0 -0.087238856
-0.05758097 0 -0.087480932
-0.052524637 0 -0.087380297
-0.047429848 0 -0.087754384
-0.042841557 0 -0.087681375
-0.037545379 0 -0.087558374
-0.031845476 0 -0.087281123
-0.027769646 0 -0.087605998
-0.022440158 0 -0.087519579
-0.018181015 0 -0.087593906
-0.012468644 0 -0.087425634
-0.0072285775 0 -0.087007686
-0.0026289325 0 -0.087898061
0.0028390312 0 -0.087811776
0.0069198031 0 -0.087191127
0.012296245 0 -0.087532215
0.017249962 0 -0.087191455
0.022831857 0 -0.087725185
0.027217221 0 -0.087400228
0.032602679 0 -0.087133877
0.038109645 0 -0.087491587
0.042491153 0 -0.087608188
0.047734108 0 -0.087430313
0.052462887 0 -0.087487042
0.057651713 0 -0.087477222
0.062123284 0 -0.087271005
0.067405038 0 -0.087692499
0.072517656 0 -0.087316051
0.076482937 0 -0.087970793
0.082429297 0 -0.087536596
0.087082841 0.0011234331 -0.08783529
-0.090326861 -0.080000006 -0.083735801
-0.097526215 -0.079999991 -0.082599349
-0.092740439 -0.079999991 -0.081994317
-0.087866791 -0.078619458 -0.082689814
0.08782994 -0.077976651 -0.082652904
0.092547499 -0.080000006 -0.082890421
0.097514488 -0.079999991 -0.08150541
-0.087499991 -0.073254853 -0.082215607
0.087499984 -0.072404042 -0.082250923
-0.087499984 -0.06765309 -0.082381077
0.087499984 -0.067422181 -0.083056033
-0.087499984 -0.062422797 -0.082394868
0.087499984 -0.062854819 -0.08222048
-0.087499984 -0.056759167 -0.083004758
0.087499984 -0.057674415 -0.082503706
-0.087499984 -0.052342393 -0.082529321
0.087499984 -0.051761158 -0.082150444
-0.087499984 -0.04761688 -0.08288946
0.087499984 -0.047558676 -0.082939334
-0.087499984 -0.042688102 -0.082546137
0.087499984 -0.043191694 -0.082590416
-0.087499984 -0.037209615 -0.082654588
0.087499991 -0.03741207 -0.082340449
-0.087499984 -0.032838624 -0.082242139
0.087499991 -0.032504354 -0.082514979
-0.087499984 -0.027026525 -0.081920855
0.087499984 -0.026928613 -0.08219678
-0.087499984 -0.022266945 -0.081745796
0.087499991 -0.022044403 -0.082499713
-0.087499984 -0.016810518 -0.081969142
0.087499991 -0.018140692 -0.082109734
-0.087499984 -0.012360434 -0.082251005
0.087500013 -0.012779019 -0.082450397
-0.087499984 -0.0071983915 -0.082768001
0.087499991 -0.0073784478 -0.082635388
-0.087499984 -0.0025277187 -0.082063973
0.087499984 -0.0026510293 -0.08245863
-0.087189011 0.0011738032 -0.082134746
-0.082593583 0 -0.082339257
-0.077038802 0 -0.083019629
-0.072560035 0 -0.082816608
-0.067655005 0 -0.082313672
-0.06229043 0 -0.082648195
-0.057212126 0 -0.08239726
-0.053076714 0 -0.082663052
-0.047851559 0 -0.082686603
-0.042368595 0 -0.082505561
-0.038409237 0 -0.082601182
-0.032767933 0 -0.082439929
-0.027800897 0 -0.082510903
-0.022538815 0 -0.082929917
-0.017090349 0 -0.082078248
-0.012065494 0 -0.082414925
-0.0073947497 0 -0.082186066
-0.0021048512 0 -0.082298897
0.0020781462 0 -0.082543403
0.007227845 0 -0.082112767
0.012864592 0 -0.082832061
0.016904786 0 -0.081730753
0.02280831 0 -0.082356773
0.027214305 0 -0.082715847
0.031761654 0 -0.082440577
0.037610333 0 -0.082382724
0.042553097 0 -0.081788659
0.047517397 0 -0.082505733
0.052638106 0 -0.082012221
0.056835316 0 -0.082140267
0.062671192 0 -0.082988694
0.067410372 0 -0.082674749
0.072601661 0 -0.082513034
0.077234633 0 -0.082521804
0.081857063 0 -0.082704559
0.08710289 0.0010982326 -0.082433827
-0.087939888 -0.080000006 -0.076259993
-0.096770503 -0.079999991 -0.077565491
-0.093241543 -0.080000013 -0.077235542
-0.087889671 -0.078250952 -0.077822126
0.08806853 -0.078273065 -0.077486545
0.092580959 -0.080000006 -0.077475108
0.097015679 -0.079999991 -0.078092068
-0.087499991 -0.072250076 -0.076917142
0.087499984 -0.072243959 -0.077336147
-0.087499984 -0.068294138 -0.077280484
0.087499991 -0.067533538 -0.077425897
-0.087499984 -0.062520765 -0.07787919
0.087499991 -0.062222473 -0.077490598
-0.087499984 -0.057626314 -0.077626854
0.087499984 -0.056858655 -0.077581316
-0.087499991 -0.052170839 -0.077399954
0.087499984 -0.05269694 -0.076965675
-0.087499984 -0.047321048 -0.077399917
0.087499991 -0.04767416 -0.077070244
-0.087499984 -0.042861681 -0.077696428
0.087499984 -0.042809188 -0.077525578
-0.087499984 -0.037879579 -0.078030095
0.087499984 -0.037271336 -0.077631064
-0.087499984 -0.032432508 -0.077442959
0.087499991 -0.032987103 -0.077778049
-0.087499984 -0.027271487 -0.077008381
0.087499984 -0.027596442 -0.078192487
-0.087499984 -0.022468582 -0.077266857
0.087499984 -0.022365293 -0.07686656
-0.087499984 -0.017875344 -0.077660568
0.087499984 -0.017416162 -0.07760933
-0.087499984 -0.012295977 -0.077239938
0.087499984 -0.012219952 -0.07773456
-0.087499984 -0.0073311846 -0.077736527
0.087499991 -0.0064031822 -0.07805001
-0.087499991 -0.0024785304 -0.076912224
0.087499984 -0.0024545535 -0.077309974
-0.087099627 0.0010867697 -0.077786781
-0.082647845 0 -0.077502638
-0.077351302 0 -0.077547655
-0.072348557 0 -0.077535257
-0.067576446 0 -0.077110521
-0.06251622 0 -0.077629216
-0.056923874 0 -0.07742051
-0.053013209 0 -0.077265605
-0.047283307 0 -0.076591909
-0.042632479 0 -0.077479728
-0.037031699 0 -0.077541493
-0.032776356 0 -0.078126453
-0.027925707 0 -0.0777492
-0.021923395 0 -0.077401139
-0.017543325 0 -0.077772915
-0.012178727 0 -0.07717184
-0.0078704283 0 -0.077532999
-0.0026461156 0 -0.077335283
0.0023318636 0 -0.077392846
0.0075083175 0 -0.077171765
0.012984892 0 -0.077741213
0.017756185 0 -0.077448584
0.021854823 0 -0.077265657
0.027648605 0 -0.077396989
0.032470588 0 -0.077989489
0.038056072 0 -0.077922419
0.042801812 0 -0.07762412
0.047527172 0 -0.078262798
0.05169265 0 -0.077795908
0.057244759 0 -0.077433199
0.062808312 0 -0.077628151
0.067069076 0 -0.077326059
0.072520815 0 -0.077056013
0.07722827 0 -0.076880559
0.082021073 0 -0.077367574
0.086991452 0.0011366815 -0.078157097
-0.09643741 -0.079999991 -0.072144546
-0.092259705 -0.079999998 -0.072445825
-0.087948017 -0.078103654 -0.072395526
0.087906286 -0.078628369 -0.072578959
0.093112141 -0.080000006 -0.072359584
0.097124808 -0.079999998 -0.072671831
-0.087499984 -0.072265536 -0.072220936
0.087499984 -0.072878957 -0.072757266
-0.087499984 -0.06730479 -0.072441824
0.087499991 -0.067767262 -0.072914064
-0.087499984 -0.062277198 -0.072579853
0.087499984 -0.062633455 -0.072499625
-0.087499984 -0.05773443 -0.072808161
0.087499991 -0.057490204 -0.072518021
-0.087499984 -0.052638561 -0.072713204
0.087499984 -0.052274831 -0.07247977
-0.087499984 -0.047289737 -0.07287769
0.087499991 -0.047224265 -0.073068999
-0.087499984 -0.04173547 -0.072208025
0.087499984 -0.042271156 -0.072306208
-0.087499984 -0.037513185 -0.072280809
0.087499991 -0.037848793 -0.07234133
-0.087499984 -0.032009553 -0.07294742
0.087499984 -0.032504681 -0.072516039
-0.087499999 -0.028963754 -0.073047258
0.087499984 -0.027617546 -0.072060108
-0.087499984 -0.022402421 -0.072674081
0.087500006 -0.022575324 -0.072266877
-0.087499984 -0.017920705 -0.072610177
0.087499984 -0.017486759 -0.072911143
-0.087499984 -0.012542224 -0.072660796
0.087499984 -0.012549633 -0.072809033
-0.087499991 -0.0077330666 -0.072872706
0.087499984 -0.007689219 -0.072863117
-0.087499984 -0.0024399546 -0.072418816
0.087499999 -0.0024501316 -0.072803259
-0.086919919 0.0011497946 -0.072324321
-0.082199603 0 -0.072393745
-0.077774778 0 -0.072023593
-0.07254611 0 -0.072698988
-0.067640007 0 -0.071843788
-0.062681846 0 -0.0725931
-0.057677764 0 -0.072464213
-0.052600499 0 -0.072457895
-0.047522496 0 -0.072475135
-0.042915653 0 -0.071846612
-0.037687961 0 -0.072807908
-0.032744639 0 -0.072185948
-0.027461864 0 -0.072566308
-0.02228895 0 -0.072018914
-0.017387249 0 -0.07205078
-0.011928551 0 -0.073218316
-0.0071261995 0 -0.072290607
-0.0024927859 0 -0.072218597
0.0020449217 0 -0.072080836
0.0075019142 0 -0.072462939
0.012619295 0 -0.073010989
0.01706991 0 -0.07219857
0.022895005 0 -0.0722095
0.027544301 0 -0.07212209
0.03268306 0 -0.072439678
0.037531614 0 -0.072270669
0.0421292 0 -0.073755145
0.04757449 0 -0.072723113
0.052694026 0 -0.071647316
0.057506014 0 -0.072664976
0.062398542 0 -0.072990961
0.067256846 0 -0.072916403
0.072752208 0 -0.072239839
0.077528112 0 -0.072203822
0.082228504 0 -0.072200552
0.087031983 0.0010250346 -0.071923181
-0.09640301 -0.079999991 -0.066950738
-0.092086457 -0.079999991 -0.067653738
-0.087823108 -0.078344539 -0.067723751
0.087897487 -0.078443766 -0.067662224
0.092771739 -0.079999998 -0.068231374
0.09698569 -0.079999991 -0.067682222
-0.087499984 -0.072825126 -0.067195214
0.087499991 -0.072685771 -0.067341693
-0.087499984 -0.068149135 -0.066520192
0.087499999 -0.067301124 -0.067925692
-0.087499984 -0.062236335 -0.068105206
0.087499984 -0.062590078 -0.067782849
-0.087499984 -0.057508919 -0.067716189
0.087499991 -0.058104258 -0.067815736
-0.087499984 -0.051658932 -0.067318708
0.087499984 -0.052710671 -0.068180494
-0.087499984 -0.047249507 -0.067486696
0.087499984 -0.047248501 -0.06740801
-0.087499984 -0.042544838 -0.067726649
0.087499991 -0.042381473 -0.067186967
-0.087499984 -0.037241917 -0.067800775
0.087500013 -0.037170783 -0.06782984
-0.087499984 -0.032737821 -0.068439208
0.087499984 -0.032335058 -0.067956649
-0.087499991 -0.027539328 -0.067205623
0.087499984 -0.027852079 -0.067931794
-0.087499984 -0.022514535 -0.068295054
0.087499991 -0.022389906 -0.06759128
-0.087499991 -0.017655231 -0.067602307
0.087499984 -0.017878396 -0.067293763
-0.087499984 -0.012163848 -0.067723595
0.087499984 -0.012465371 -0.067762129
-0.087499984 -0.0085300039 -0.067923628
0.087499984 -0.0074007371 -0.066844903
-0.087499991 -0.0022431081 -0.067385621
0.087499991 -0.0026081696 -0.067961
-0.086956024 0.0012335214 -0.067405835
-0.083188981 0 -0.066716939
-0.077848688 0 -0.067291208
-0.072121784 0 -0.067772821
-0.066702768 0 -0.066778153
-0.062555842 0 -0.066795647
-0.058092289 0 -0.067206532
-0.052168939 0 -0.067194849
-0.047482014 0 -0.067990653
-0.042414125 0 -0.067102507
-0.037424091 0 -0.067305274
-0.03231119 0 -0.06810455
-0.026894173 0 -0.067114145
-0.022421833 0 -0.067562021
-0.017634744 0 -0.067347571
-0.012211076 0 -0.0675283
-0.0072416035 0 -0.067504257
-0.0021483246 0 -0.067891583
0.0028811262 0 -0.068222374
0.0077409502 0 -0.067637943
0.012802114 0 -0.06724716
0.01838797 0 -0.067840509
0.022574464 0 -0.067674525
0.027298471 0 -0.067767553
0.032838263 0 -0.067327157
0.03741629 0 -0.067784317
0.043075901 0 -0.067388088
0.047406841 0 -0.067797244
0.052882649 0 -0.067179807
0.057605296 0 -0.067310371
0.062191144 0 -0.067309983
0.06745486 0 -0.067680426
0.072595015 0 -0.067076407
0.077507861 0 -0.067610189
0.082706124 0 -0.067567676
0.08709988 0.00074745581 -0.068024583
0.095746115 -0.080000006 -0.06014362
-0.097456425 -0.079999991 -0.061950602
-0.092351526 -0.080000013 -0.062863797
-0.0880052 -0.078527503 -0.062167972
0.087861545 -0.07837557 -0.062227167
0.09290351 -0.079999998 -0.061736777
0.096976854 -0.079999998 -0.062299185
-0.087499991 -0.07235001 -0.063154534
0.087499984 -0.072447501 -0.063133717
-0.087499984 -0.067560636 -0.062151622
0.087499984 -0.067232929 -0.062096082
-0.087499991 -0.063324504 -0.062811866
0.087500006 -0.062950797 -0.062509768
-0.087499991 -0.057798728 -0.062042467
0.087499984 -0.05741461 -0.062538937
-0.087499984 -0.052389923 -0.062338524
0.087499991 -0.05293034 -0.062934645
-0.087499984 -0.046948276 -0.062613063
0.087499984 -0.047159981 -0.062836543
-0.087499984 -0.042579561 -0.062971696
0.087499984 -0.043295059 -0.063263714
-0.087499991 -0.037243411 -0.062278431
0.087499999 -0.037023392 -0.062795736
-0.087499984 -0.032126274 -0.062434994
0.087499991 -0.032414142 -0.06274353
-0.087499984 -0.027389972 -0.062777326
0.087499991 -0.027400881 -0.062330253
-0.087499984 -0.022391712 -0.062740833
0.087499984 -0.022941729 -0.062359937
-0.087499991 -0.01846781 -0.062319346
0.087499984 -0.016853368 -0.062394712
-0.087499984 -0.012558293 -0.062700249
0.087499984 -0.012604228 -0.062670231
-0.087499984 -0.0074493629 -0.062538922
0.087499984 -0.0076300129 -0.06222659
-0.087499991 -0.0030090951 -0.062283013
0.087500006 -0.0030805697 -0.062167421
-0.086790718 0.00077567279 -0.062540039
-0.082446933 0 -0.062639251
-0.077255458 0 -0.062614687
-0.071920156 0 -0.062527247
-0.067821302 0 -0.06281326
-0.062614202 0 -0.062475692
-0.057871155 0 -0.063040689
-0.052479781 0 -0.062303681
-0.047728412 0 -0.062209696
-0.042372189 0 -0.063040078
-0.0383384 0 -0.062883615
-0.03207399 0 -0.062589124
-0.027357861 0 -0.062526748
-0.021919204 0 -0.062570646
-0.01765763 0 -0.062588252
-0.012788128 0 -0.062501699
-0.0073450804 0 -0.062467095
-0.0022403763 0 -0.062363826
0.002083079 0 -0.06248552
0.0079307705 0 -0.062571689
0.012395735 0 -0.061169975
0.01699882 0 -0.062757581
0.022280615 0 -0.062768795
0.026920738 0 -0.062598534
0.031823397 0 -0.062308207
0.037689749 0 -0.062644556
0.042550091 0 -0.062164787
0.047698133 0 -0.063021496
0.052860685 0 -0.062565982
0.057383299 0 -0.062376227
0.061939735 0 -0.062362067
0.068075627 0 -0.062786989
0.073210157 0 -0.06248223
0.078079447 0 -0.062784582
0.082155727 0 -0.06203955
0.086920656 0.0007550146 -0.061898686
-0.097466514 -0.080000006 -0.057981879
-0.092131846 -0.080000013 -0.057187721
-0.087979451 -0.078231752 -0.057589639
0.087907158 -0.078907534 -0.05768466
0.09256728 -0.079999991 -0.057563778
0.097005807 -0.079999991 -0.057179973
-0.087499984 -0.072843589 -0.057563685
0.087499999 -0.072447173 -0.05729086
-0.087499991 -0.067629568 -0.057427086
0.087499991 -0.068013355 -0.057369959
-0.087499984 -0.06224047 -0.057805728
0.087499984 -0.062253788 -0.057876799
-0.087499984 -0.057096235 -0.057804864
0.087499991 -0.057314798 -0.057838693
-0.087499984 -0.052375406 -0.05780552
0.087499991 -0.052213829 -0.05748098
-0.087499984 -0.047923129 -0.057548951
0.087499991 -0.047638081 -0.05802824
-0.087499984 -0.04285495 -0.056840464
0.087499984 -0.0421956 -0.057884365
-0.087499984 -0.0370472 -0.057118986
0.087499984 -0.037857741 -0.057267837
-0.087499984 -0.032234505 -0.058214262
0.087499984 -0.032575361 -0.056944907
-0.087499984 -0.026811205 -0.057536505
0.087499999 -0.027786633 -0.057091031
-0.087499984 -0.021830039 -0.057526588
0.087499984 -0.022406872 -0.057617176
-0.087499991 -0.01771643 -0.057262667
0.087499984 -0.017150549 -0.057181828
-0.087499984 -0.013105866 -0.057845823
0.087499984 -0.012333453 -0.057700127
-0.087499984 -0.0072917119 -0.057312787
0.087499984 -0.0074648228 -0.057415519
-0.087499984 -0.0026999086 -0.057319019
0.087499984 -0.0021512045 -0.057207193
-0.086796045 0.00082977739 -0.057574272
-0.082642257 0 -0.057778407
-0.077798761 0 -0.057746086
-0.072698668 0 -0.058009926
-0.06758751 0 -0.057220913
-0.062123001 0 -0.057897672
-0.057595927 0 -0.057579119
-0.052263316 0 -0.058012482
-0.047977339 0 -0.057519183
-0.04162531 0 -0.057406578
-0.038110305 0 -0.057875514
-0.032362048 0 -0.057247274
-0.028057912 0 -0.057635918
-0.022591965 0 -0.05720536
-0.01717663 0 -0.057576925
-0.01216745 0 -0.057293009
-0.008215473 0 -0.057630852
-0.0022637076 0 -0.05658916
0.0022282291 0 -0.058343466
0.0067918813 0 -0.057304129
0.012659242 0 -0.058354847
0.017477226 0 -0.057235517
0.022827318 0 -0.05724125
0.027549829 0 -0.057141759
0.031899855 0 -0.05736718
0.037845086 0 -0.057377938
0.041799165 0 -0.057979904
0.04781444 0 -0.057634979
0.051975716 0 -0.057344519
0.057376504 0 -0.057411317
0.061723076 0 -0.05692688
0.067171365 0 -0.057366032
0.072592147 0 -0.057239797
0.077417225 0 -0.057493374
0.08167924 0 -0.057709854
0.087072976 0.0012026806 -0.057345245
-0.096805014 -0.079999998 -0.052236855
-0.091897592 -0.080000006 -0.052251164
-0.087998405 -0.077938132 -0.052605908
0.088296406 -0.078825712 -0.052188691
0.092368901 -0.079999998 -0.052114815
0.09664613 -0.079999998 -0.052357055
-0.087499984 -0.072288729 -0.052433938
0.087499984 -0.072280377 -0.05235821
-0.087499984 -0.067760684 -0.052756738
0.087499984 -0.067592628 -0.052110042
-0.087499984 -0.062573455 -0.052446105
0.087499984 -0.06247732 -0.052432317
-0.087499991 -0.057850368 -0.052865058
0.087499984 -0.057728451 -0.053038042
-0.087499984 -0.052716896 -0.052148405
0.087499991 -0.052130915 -0.052501682
-0.087499984 -0.047186468 -0.053017352
0.087499984 -0.047660962 -0.051931143
-0.087499984 -0.042655583 -0.05233454
0.087499991 -0.042420238 -0.052491814
-0.087499984 -0.03753899 -0.052286156
0.087499984 -0.03821782 -0.052691739
-0.087499984 -0.032532915 -0.052478492
0.087499984 -0.032008439 -0.052559368
-0.087499984 -0.027536182 -0.05260117
0.087499984 -0.026811436 -0.05227511
-0.087499991 -0.023364997 -0.052426245
0.087499984 -0.022036338 -0.052434482
-0.087499984 -0.018074874 -0.052770928
0.087499984 -0.017437879 -0.052072555
-0.087499984 -0.012777062 -0.052476127
0.087499984 -0.012817937 -0.052705862
-0.087499991 -0.007042578 -0.052743874
0.087499984 -0.0073448066 -0.052518476
-0.087499984 -0.0024852569 -0.052773781
0.087499991 -0.0029606528 -0.052740809
-0.086901896 0.00093994226 -0.052065995
-0.082859926 0 -0.052547082
-0.077521048 0 -0.052395366
-0.072307833 0 -0.053235389
-0.067177042 0 -0.052708946
-0.062741756 0 -0.052278522
-0.057183698 0 -0.052144218
-0.052382324 0 -0.051952075
-0.047294475 0 -0.052186288
-0.04284605 0 -0.051698044
-0.038257517 0 -0.052279085
-0.032470591 0 -0.052302059
-0.027279355 0 -0.052638333
-0.022317229 0 -0.053050939
-0.017476246 0 -0.052690327
-0.013341152 0 -0.05227612
-0.007112023 0 -0.052615378
-0.001923403 0 -0.052831929
0.0021799789 0 -0.051627692
0.007213206 0 -0.053086996
0.013227225 0 -0.052804761
0.01734457 0 -0.052189674
0.022388637 0 -0.052539624
0.027485892 0 -0.052860253
0.032825418 0 -0.052177548
0.037500586 0 -0.052317083
0.042770933 0 -0.05203142
0.047173481 0 -0.052572284
0.052521732 0 -0.052479941
0.057684429 0 -0.052002743
0.062452737 0 -0.052639723
0.066992618 0 -0.051910345
0.072611891 0 -0.052687548
0.07790231 0 -0.051964473
0.082373567 0 -0.052607503
0.087231219 0.00064333703 -0.052728124
-0.097393177 -0.079999998 -0.048096657
-0.091735803 -0.079999991 -0.047949351
-0.087844864 -0.078140169 -0.047644224
0.087868929 -0.078588262 -0.047832262
0.092376605 -0.079999998 -0.047993854
0.096885264 -0.079999991 -0.047361936
-0.087499984 -0.072195195 -0.047102869
0.087499984 -0.072151557 -0.047329154
-0.087499984 -0.067015864 -0.047185238
0.087499984 -0.067290053 -0.048097532
-0.087499991 -0.062064927 -0.047667596
0.087499984 -0.062824041 -0.048205499
-0.087499984 -0.057865769 -0.047742337
0.087499984 -0.057787057 -0.047360491
-0.087499984 -0.052931149 -0.047757193
0.087499984 -0.052590162 -0.047501527
-0.087499984 -0.047129218 -0.047905613
0.087499984 -0.047601763 -0.047536634
-0.087499999 -0.042681232 -0.047322601
0.087500013 -0.042497166 -0.047452368
-0.087499984 -0.037208021 -0.04830512
0.087499984 -0.037951905 -0.047037911
-0.087499984 -0.032284085 -0.047737341
0.087499984 -0.032692034 -0.047620155
-0.087499984 -0.027783865 -0.047365118
0.087499984 -0.027636256 -0.047601946
-0.087499984 -0.022707123 -0.047804441
0.087499984 -0.022762358 -0.047168434
-0.087499991 -0.017313162 -0.047259741
0.087499984 -0.017243847 -0.047123056
-0.087499991 -0.012310883 -0.047683083
0.087499984 -0.012401469 -0.047309227
-0.087499984 -0.0069179088 -0.047835898
0.087499991 -0.0074700839 -0.047589548
-0.087499991 -0.0023949286 -0.047680791
0.087499984 -0.0028089334 -0.047376804
-0.086807668 0.0011568604 -0.047556359
-0.08269497 0 -0.04798599
-0.076941863 0 -0.047840089
-0.073318668 0 -0.046811923
-0.067466028 0 -0.047982037
-0.062498096 0 -0.048117775
-0.057564698 0 -0.047303401
-0.05197493 0 -0.047309846
-0.04776014 0 -0.047433589
-0.042593639 0 -0.048113044
-0.03713578 0 -0.047528647
-0.032513209 0 -0.047849007
-0.027192263 0 -0.047185171
-0.022853311 0 -0.04709683
-0.017261839 0 -0.047480494
-0.012540831 0 -0.047580015
-0.0074755438 0 -0.04743664
-0.0022338997 0 -0.047086328
0.0025894612 0 -0.046157178
0.0071370997 0 -0.047034498
0.012646324 0 -0.047548108
0.017878681 0 -0.047233094
0.022351375 0 -0.047030386
0.027274296 0 -0.047539003
0.032761738 0 -0.04756299
0.037671775 0 -0.047485873
0.042641118 0 -0.047124729
0.046475992 0 -0.047578637
0.05230169 0 -0.046926767
0.05739421 0 -0.047852952
0.06275814 0 -0.047362287
0.067436986 0 -0.047424566
0.072257981 0 -0.047131404
0.077551752 0 -0.047613721
0.083057806 0 -0.047141958
0.087060846 0.00098240667 -0.046932492
-0.09741576 -0.079999998 -0.042551465
-0.092498727 -0.080000013 -0.041757919
-0.088219449 -0.078562014 -0.04231659
0.087722354 -0.078438886 -0.042626243
0.09235429 -0.079999998 -0.042762715
0.096705973 -0.079999998 -0.042873427
-0.087499991 -0.072751187 -0.042295687
0.087499999 -0.072256453 -0.043024942
-0.087499984 -0.067432478 -0.042585142
0.087499984 -0.067114793 -0.042562209
-0.087499984 -0.062913142 -0.042550936
0.087499984 -0.062253781 -0.041975372
-0.087499984 -0.057979722 -0.042310137
0.087499984 -0.05742377 -0.042464659
-0.087499984 -0.052625526 -0.042280674
0.087499984 -0.052946452 -0.042265806
-0.087499984 -0.048023254 -0.041900229
0.087499984 -0.047387809 -0.043379426
-0.087499984 -0.042069614 -0.042638805
0.087499984 -0.0425901 -0.042450111
-0.087499991 -0.037843272 -0.042067744
0.087499984 -0.037333939 -0.042273216
-0.087499984 -0.032783076 -0.042320773
0.087499984 -0.032269742 -0.043154888
-0.087499984 -0.027458215 -0.04253998
0.087499991 -0.027385905 -0.042385709
-0.087499991 -0.022499749 -0.042781144
0.087499984 -0.022599107 -0.042281255
-0.087499984 -0.017515074 -0.042485166
0.087499984 -0.017266806 -0.04286642
-0.087499991 -0.012749516 -0.042552792
0.087499984 -0.012385663 -0.042355105
-0.087499984 -0.0072616115 -0.042353015
0.087499984 -0.0075499266 -0.042688005
-0.087499999 -0.0017071608 -0.042870395
0.087499984 -0.0026933071 -0.042640503
-0.086930588 0.00085232686 -0.0424616
-0.083084807 0 -0.042644069
-0.077558063 0 -0.042032216
-0.072021395 0 -0.042847499
-0.067426287 0 -0.042367768
-0.062448345 0 -0.042405404
-0.057808854 0 -0.042960834
-0.052208748 0 -0.042219561
-0.0474126 0 -0.042827968
-0.042182274 0 -0.042437945
-0.037700977 0 -0.042697057
-0.032590579 0 -0.041768193
-0.027479978 0 -0.042621724
-0.022448039 0 -0.042970605
-0.01712556 0 -0.042229395
-0.013166996 0 -0.042730801
-0.0080745891 0 -0.042760622
-0.0024497809 0 -0.042780157
0.0024012153 0 -0.042327229
0.0073091476 0 -0.042144202
0.012512956 0 -0.042597469
0.017648343 0 -0.042383879
0.022647096 0 -0.042114198
0.026989836 0 -0.042496871
0.032289904 0 -0.042730432
0.037811805 0 -0.042403024
0.042255569 0 -0.042627193
0.047482636 0 -0.042612359
0.052009046 0 -0.042053249
0.057341956 0 -0.04239016
0.062596567 0 -0.041904241
0.068089604 0 -0.042183757
0.072962455 0 -0.042628802
0.077699259 0 -0.04263553
0.08275719 0 -0.042024255
0.087064303 0.0011169738 -0.042411022
-0.09702903 -0.079999998 -0.037154216
-0.092580818 -0.079999998 -0.036836646
-0.087972127 -0.078318737 -0.037177797
0.087976441 -0.078799479 -0.037021458
0.092651926 -0.080000013 -0.037375085
0.096961081 -0.079999991 -0.038463574
-0.087499984 -0.072348133 -0.037720002
0.087499984 -0.072652586 -0.03744768
-0.087499984 -0.067485824 -0.037104566
0.087499984 -0.067697316 -0.037327915
-0.087499984 -0.063021876 -0.037566848
0.087499984 -0.062643237 -0.037173983
-0.087499991 -0.057890825 -0.037917886
0.087499984 -0.057043996 -0.037602074
-0.087499991 -0.052369319 -0.036577478
0.087499984 -0.052367631 -0.03766112
-0.087499984 -0.046919744 -0.037349138
0.087499984 -0.047568664 -0.037549332
-0.087499984 -0.042934868 -0.037106425
0.087499984 -0.042521458 -0.037647668
-0.087499991 -0.037742175 -0.037755989
0.087499984 -0.037837796 -0.037324771
-0.087499984 -0.032624573 -0.037998188
0.087499984 -0.032085139 -0.037481315
-0.087499991 -0.027472192 -0.037737347
0.087499984 -0.02713849 -0.03760916
-0.087499984 -0.021837573 -0.037803896
0.087499984 -0.022643806 -0.037616849
-0.087499991 -0.017343951 -0.037402194
0.087499984 -0.017689262 -0.037346795
-0.087499984 -0.012297745 -0.037013162
0.087499999 -0.013187633 -0.037407018
-0.087499984 -0.0076608374 -0.037296455
0.087499984 -0.0073110242 -0.037785023
-0.087499984 -0.0027558557 -0.037157688
0.087499984 -0.0020301016 -0.037655827
-0.087213151 0.0010477697 -0.037650343
-0.082120113 0 -0.037937086
-0.077584386 0 -0.037493307
-0.072213888 0 -0.037848748
-0.067484193 0 -0.037453741
-0.062599033 0 -0.037470598
-0.057066478 0 -0.038187198
-0.052273758 0 -0.037557568
-0.047302879 0 -0.037362382
-0.043455776 0 -0.037426595
-0.038542543 0 -0.037411913
-0.032533146 0 -0.037379764
-0.027232816 0 -0.036938138
-0.022548344 0 -0.036893521
-0.017682219 0 -0.037254669
-0.011955071 0 -0.037526254
-0.0074148937 0 -0.037696909
-0.0022551916 0 -0.037720703
0.002101949 0 -0.0373067
0.0078013074 0 -0.037600949
0.012354461 0 -0.037374977
0.01777952 0 -0.03755752
0.022655707 0 -0.037840832
0.027691536 0 -0.037538137
0.032474067 0 -0.037815072
0.037195433 0 -0.037428021
0.042339258 0 -0.037299484
0.047452699 0 -0.03752555
0.052035321 0 -0.037075501
0.057300568 0 -0.037328694
0.062326837 0 -0.037950937
0.068179585 0 -0.037344389
0.072271802 0 -0.038497642
0.077813096 0 -0.037698258
0.082520381 0 -0.036981799
0.086338356 0.00076740701 -0.037303783
-0.096837595 -0.079999998 -0.032143388
-0.092421837 -0.079999998 -0.032628164
-0.087878399 -0.078057475 -0.032367196
0.087815225 -0.078330502 -0.033631489
0.092346542 -0.080000006 -0.032719545
0.097016513 -0.080000006 -0.032861236
-0.087499984 -0.072693191 -0.032569569
0.087499984 -0.072521985 -0.032050095
-0.087499984 -0.067331038 -0.032186043
0.087499984 -0.067948617 -0.03299249
-0.087499984 -0.06261871 -0.032753952
0.087499984 -0.06291353 -0.032324858
-0.087499991 -0.05772429 -0.032918081
0.087499984 -0.057447329 -0.03248072
-0.087499984 -0.053062584 -0.033104368
0.087499984 -0.053873889 -0.032253239
-0.087499984 -0.04778247 -0.032063652
0.087499984 -0.046981283 -0.03271256
-0.087499984 -0.043022409 -0.032398302
0.087499991 -0.042843569 -0.031932328
-0.087499984 -0.038096111 -0.032908961
0.087499984 -0.038148113 -0.032981161
-0.087499984 -0.032695368 -0.032565609
0.087499984 -0.032717619 -0.032716215
-0.087499984 -0.027703021 -0.032313578
0.087499991 -0.027751293 -0.032414392
-0.087499984 -0.022314761 -0.032045949
0.087499984 -0.022537237 -0.032444894
-0.087499984 -0.017518425 -0.032571383
0.087499991 -0.016488511 -0.032844536
-0.087499984 -0.012519671 -0.032764323
0.087499999 -0.012644458 -0.032888215
-0.087499984 -0.0072893421 -0.032607801
0.087499991 -0.0074328035 -0.032139082
-0.087499999 -0.0027703696 -0.032153055
0.087499984 -0.0027953701 -0.03212624
-0.086892232 0.0010913144 -0.032164738
-0.082166903 0 -0.031944782
-0.077694118 0 -0.032745648
-0.071997426 0 -0.032682735
-0.067400746 0 -0.032474399
-0.062179018 0 -0.033024311
-0.057553437 0 -0.032035872
-0.052888479 0 -0.032071851
-0.047772147 0 -0.03185631
-0.042090207 0 -0.032287512
-0.037822656 0 -0.03220598
-0.032763824 0 -0.032557946
-0.027621048 0 -0.032513916
-0.022936907 0 -0.032747898
-0.017137326 0 -0.032048043
-0.01262352 0 -0.032679901
-0.0077320039 0 -0.032986894
-0.0032109974 0 -0.032327052
0.0025815209 0 -0.032737959
0.0076409886 0 -0.03288481
0.012590249 0 -0.032201096
0.018054474 0 -0.031971935
0.022825995 0 -0.032163966
0.027107259 0 -0.032519404
0.032619365 0 -0.032483846
0.036901575 0 -0.032869492
0.042018872 0 -0.032425527
0.047305718 0 -0.033325221
0.052534394 0 -0.032692213
0.056932602 0 -0.032605834
0.062152803 0 -0.033043094
0.068028405 0 -0.032754716
0.072668463 0 -0.032688208
0.077606335 0 -0.031957481
0.082359508 0 -0.032724611
0.08698196 0.00068073341 -0.032266449
-0.096947178 -0.079999998 -0.027274638
-0.093133472 -0.080000006 -0.027679231
-0.087701127 -0.077595621 -0.028220627
0.087624311 -0.077641658 -0.027246321
0.092681207 -0.079999998 -0.027306603
0.096462227 -0.079999991 -0.027251268
-0.087499991 -0.072465502 -0.027933333
0.087499984 -0.072296306 -0.027188672
-0.087499991 -0.067933142 -0.027450247
0.087499991 -0.067062601 -0.027986143
-0.087499984 -0.062679544 -0.027577922
0.087499984 -0.062873222 -0.027175894
-0.087499984 -0.057304189 -0.027489185
0.087499999 -0.0575248 -0.027512562
-0.087499984 -0.052824859 -0.027365036
0.087499984 -0.052980274 -0.027374517
-0.087499984 -0.046587143 -0.027994821
0.087499984 -0.04762334 -0.027530873
-0.087499984 -0.042233702 -0.02772592
0.087499984 -0.042379055 -0.028061518
-0.087499984 -0.037425134 -0.027673332
0.087499984 -0.037743278 -0.02744844
-0.087499991 -0.032340035 -0.026873711
0.087499984 -0.032866914 -0.027765106
-0.087499984 -0.027460456 -0.027938671
0.087499984 -0.027472382 -0.027630171
-0.087499991 -0.02273811 -0.02759609
0.087499984 -0.022433331 -0.027352793
-0.087499984 -0.017355209 -0.027737029
0.087499984 -0.017238943 -0.027614027
-0.087499984 -0.012747252 -0.027294703
0.087499984 -0.012564321 -0.027848044
-0.087499984 -0.0078741442 -0.027275875
0.087499984 -0.0081042517 -0.026972389
-0.087499984 -0.0026806763 -0.027104486
0.087499991 -0.0025526416 -0.027426515
-0.086774133 0.00076601416 -0.027173886
-0.082957201 0 -0.027800361
-0.076757804 0 -0.027341278
-0.072962917 0 -0.027158994
-0.067513302 0 -0.0273
-0.062441967 0 -0.027936118
-0.058109783 0 -0.027454389
-0.052306637 0 -0.027443107
-0.047695626 0 -0.02793462
-0.042524606 0 -0.027828617
-0.037803318 0 -0.027417161
-0.032479864 0 -0.027359325
-0.027439183 0 -0.028116956
-0.022781203 0 -0.027491111
-0.017618775 0 -0.027878275
-0.012370835 0 -0.027742002
-0.0073186248 0 -0.027565572
-0.001704398 0 -0.028007004
0.0023289646 0 -0.02774146
0.0086712809 0 -0.027213436
0.012826647 0 -0.027587034
0.017728947 0 -0.027522961
0.021164102 0 -0.028501539
0.027131759 0 -0.027025491
0.032052051 0 -0.027080063
0.037943572 0 -0.027563743
0.042565554 0 -0.027363246
0.047846083 0 -0.027354665
0.052398141 0 -0.027444411
0.057476632 0 -0.027142685
0.06296242 0 -0.027095398
0.067309268 0 -0.0270009
0.072475366 0 -0.028034417
0.077404484 0 -0.027786938
0.082445972 0 -0.026779199
0.08727593 0.0011535148 -0.028046368
-0.097686663 -0.080000006 -0.022357592
-0.091893867 -0.079999998 -0.022471853
-0.087809898 -0.078262277 -0.022666456
0.087704308 -0.077959307 -0.022044687
0.092807189 -0.080000006 -0.022343002
0.096692249 -0.079999991 -0.022576103
-0.087499984 -0.072705589 -0.022255929
0.087499984 -0.071985886 -0.022340331
-0.087499984 -0.068238035 -0.022228373
0.087499984 -0.067579366 -0.02261892
-0.087499984 -0.062782355 -0.022346599
0.087499984 -0.062406883 -0.022922346
-0.087499984 -0.057617944 -0.021893654
0.087499984 -0.057728797 -0.022360761
-0.087499999 -0.0525098 -0.022989182
0.087499984 -0.052742559 -0.022492746
-0.087499984 -0.047600105 -0.022224367
0.087499984 -0.047809411 -0.022398671
-0.087499984 -0.041956194 -0.022284826
0.087500013 -0.042172972 -0.022258855
-0.087499984 -0.037475254 -0.022422604
0.087499984 -0.037189007 -0.022702293
-0.087499984 -0.032340135 -0.022818636
0.087499984 -0.032535423 -0.022152498
-0.087499999 -0.027460786 -0.022610679
0.087499984 -0.027240891 -0.02295642
-0.087499984 -0.022504985 -0.022711871
0.087499984 -0.023057662 -0.022802383
-0.087499984 -0.017462833 -0.021909529
0.087499984 -0.017846618 -0.022522401
-0.087499984 -0.012491968 -0.022073183
0.087499984 -0.012337659 -0.021934589
-0.087499999 -0.0074491142 -0.022156211
0.087499984 -0.0072441692 -0.022651957
-0.087499991 -0.0022100455 -0.022110235
0.087499991 -0.0031768798 -0.022334004
-0.086885542 0.0013227211 -0.023019513
-0.082518436 0 -0.022403514
-0.07757213 0 -0.022560941
-0.072725877 0 -0.02275222
-0.067256704 0 -0.022747949
-0.062612407 0 -0.022602001
-0.057551261 0 -0.022159539
-0.052004918 0 -0.022987422
-0.046831734 0 -0.022964943
-0.04246664 0 -0.022290384
-0.037414927 0 -0.022215504
-0.032879416 0 -0.022312211
-0.027890477 0 -0.022920216
-0.022446651 0 -0.02181994
-0.017577093 0 -0.022282111
-0.012141026 0 -0.022170385
-0.0074722394 0 -0.02192305
-0.0030231599 0 -0.022481171
0.0024356376 0 -0.022227522
0.0075573009 0 -0.022582458
0.012614741 0 -0.021770028
0.018145535 0 -0.022445431
0.022552233 0 -0.022044279
0.028105795 0 -0.022856601
0.032096576 0 -0.022914937
0.037199698 0 -0.022213813
0.042138796 0 -0.022209508
0.048239667 0 -0.02220026
0.05251392 0 -0.0231064
0.057397589 0 -0.022470929
0.063239492 0 -0.022386763
0.066657268 0 -0.022930309
0.072509564 0 -0.022891119
0.077775195 0 -0.022716604
0.082110524 0 -0.022218257
0.087089017 0.0011665778 -0.022805363
-0.097533107 -0.079999991 -0.018129244
-0.092593238 -0.080000006 -0.017691134
-0.087711096 -0.077892922 -0.017431231
0.087728404 -0.078344107 -0.017999787
0.092124648 -0.080000006 -0.017841674
0.097984396 -0.079999991 -0.016712317
-0.087499984 -0.072205581 -0.01761586
0.087499984 -0.072113551 -0.018078394
-0.087499991 -0.067161068 -0.017558467
0.087499984 -0.068341501 -0.017236132
-0.087499984 -0.062376898 -0.017692465
0.087499984 -0.062553473 -0.017557992
-0.087499984 -0.05781173 -0.017844895
0.087499984 -0.056905709 -0.017756935
-0.087499984 -0.052456193 -0.018000452
0.087499984 -0.052636769 -0.017521976
-0.087499991 -0.047564436 -0.017820287
