# .PCD v0.7 - Point Cloud Data file format
VERSION 0.7
FIELDS x y z
SIZE 4 4 4
TYPE F F F
COUNT 1 1 1
WIDTH 1380
HEIGHT 1
VIEWPOINT 0 0 0 1 0 0 0
POINTS 1380
DATA ascii
0.13646494 0.15260665 0.016850071
0.14347805 0.15440786 0.015000001
0.15566863 0.15659174 0.015000001
0.16406921 0.15342972 0.015000001
0.17262197 0.15682383 0.015000001
0.18213193 0.15623929 0.017240813
0.20900004 0.15466774 0.015572824
0.22243714 0.15438445 0.015682202
-0.22274482 0.16548824 0.017192701
-0.20900004 0.16489673 0.014148593
-0.18175068 0.16576692 0.016388983
-0.17648637 0.16562277 0.015
-0.16569319 0.16608483 0.014999999
-0.1547835 0.1635467 0.015
-0.14530535 0.16838877 0.015
-0.13626488 0.16542165 0.015
-0.12584773 0.16620812 0.014999999
-0.11440583 0.16544077 0.014999999
-0.10632417 0.16504966 0.015000001
-0.094858587 0.16395409 0.015000001
-0.085532837 0.16414122 0.015000001
-0.073569186 0.16630624 0.015000001
-0.065581456 0.16432406 0.015000001
-0.054994784 0.16626646 0.015
-0.043656498 0.16538945 0.015000001
-0.03358477 0.16435064 0.015000001
-0.026418144 0.16536459 0.015000001
-0.014334748 0.16525316 0.015896734
0.01225134 0.16664483 0.017227681
0.023867868 0.16479383 0.014999999
0.034937646 0.16415775 0.015000001
0.044662669 0.16658811 0.015000001
0.054846872 0.16496687 0.015000001
0.065470241 0.16506399 0.015000001
0.073806778 0.16552599 0.014999999
0.084831089 0.16624548 0.014999999
0.095723584 0.16521677 0.015
0.10535315 0.16421799 0.014999999
0.11691371 0.16506471 0.015000001
0.12450262 0.16464406 0.015
0.13537596 0.16562219 0.015000001
0.14595008 0.1669815 0.015000001
0.15865979 0.16508444 0.015000001
0.16622649 0.1667095 0.014999999
0.17370693 0.1631548 0.015
0.1818722 0.16326301 0.017057447
0.20900002 0.16506876 0.014761024
0.22257359 0.16568442 0.015778344
-0.22369708 0.17517912 0.015076065
-0.20900001 0.17583244 0.015146753
-0.18147767 0.17538747 0.015650928
-0.17458148 0.17453404 0.015
-0.16614664 0.17770004 0.014999999
-0.15689409 0.17344876 0.015
-0.14103088 0.17477888 0.015
-0.13448687 0.17479861 0.015
-0.12557913 0.17433129 0.015000001
-0.11442818 0.17584279 0.014999999
-0.10420315 0.1769563 0.014999999
-0.096833996 0.17338379 0.015
-0.084756054 0.17459215 0.014999999
-0.075807475 0.17528902 0.015000001
-0.066638358 0.17337017 0.015000001
-0.055167664 0.17549533 0.015000001
-0.047453951 0.17366578 0.015
-0.035695773 0.17206921 0.015
-0.026973408 0.17691909 0.015000001
-0.015159786 0.17467199 0.015226934
0.013995117 0.17463568 0.015363807
0.025576705 0.17350937 0.015000001
0.034398634 0.17529047 0.015
0.044650722 0.17390354 0.015000001
0.055825334 0.17307498 0.015000001
0.064493559 0.1744346 0.015000001
0.074872822 0.17622595 0.015
0.085823663 0.17698191 0.015000001
0.093871124 0.17443821 0.015000001
0.10269491 0.17298721 0.015000001
0.11299274 0.17526861 0.014999999
0.12550528 0.17447859 0.015000001
0.1359074 0.17496443 0.015
0.14483698 0.17453989 0.015000001
0.15516058 0.1758249 0.015
0.16524738 0.17461124 0.015000001
0.17640035 0.17375088 0.015000001
0.18092678 0.17334481 0.015094978
0.20900001 0.17433791 0.015707234
0.22248434 0.17727146 0.015225494
-0.22343785 0.18555084 0.015666779
-0.20899999 0.18583488 0.014707509
-0.18167129 0.18476768 0.016244689
-0.17378742 0.18453605 0.015000001
-0.16438761 0.18475659 0.015
-0.15515387 0.18667106 0.015000001
-0.14516334 0.18331067 0.015000001
-0.13623376 0.18532522 0.015000001
-0.12285598 0.18625847 0.015000001
-0.11554512 0.18292366 0.015
-0.1048162 0.18584408 0.015000001
-0.095877275 0.18529862 0.015
-0.082533143 0.1857415 0.015000001
-0.075215444 0.18320833 0.015
-0.066349216 0.18741889 0.015000001
-0.055081677 0.18334711 0.015000001
-0.044993639 0.18601322 0.015000001
-0.035449654 0.18588421 0.014999999
-0.025703887 0.18432751 0.014999999
-0.015692096 0.18384174 0.015618311
0.014761135 0.18376683 0.015785715
0.027528564 0.18298224 0.015000001
0.035290871 0.18472806 0.015000001
0.045449987 0.18475616 0.015
0.055068791 0.18455251 0.015000001
0.066689037 0.18390167 0.015000001
0.075981162 0.18551546 0.014999999
0.084961221 0.1836895 0.014999999
0.095004506 0.18522526 0.015
0.10564107 0.18425661 0.015000001
0.11409803 0.18504429 0.014999998
0.12564477 0.18588753 0.015000001
0.13483089 0.18504615 0.015000001
0.14487004 0.1873046 0.015000001
0.15603644 0.18540263 0.015000001
0.1659947 0.18623866 0.014999999
0.17367052 0.18478008 0.015
0.18186845 0.18462217 0.016466722
0.20900001 0.1855212 0.013886724
0.22314309 0.18455276 0.015266438
-0.22380015 0.1952012 0.017031189
-0.20900005 0.19569184 0.014250567
-0.18159191 0.19648802 0.015745297
-0.1740524 0.19677909 0.015000001
-0.16519225 0.19501038 0.015
-0.15327689 0.19670187 0.015
-0.14367604 0.19465189 0.014999999
-0.13577433 0.19410715 0.015000001
-0.12652868 0.19539544 0.015000001
-0.11403951 0.19515319 0.015000001
-0.10444418 0.19581085 0.015
-0.096391857 0.19448693 0.015000001
-0.085550182 0.19457754 0.014999999
-0.074130423 0.19595167 0.015
-0.065096125 0.19390656 0.015
-0.056075931 0.19434783 0.015
-0.043657761 0.19461454 0.015000001
-0.036056276 0.19284065 0.015
-0.025430376 0.1938729 0.015000001
-0.013317832 0.19549511 0.016567266
0.012486311 0.19597527 0.016236454
0.025208794 0.19314767 0.014999999
0.035266347 0.19497375 0.015
0.044383619 0.19559003 0.015
0.055238768 0.19467796 0.014999999
0.064761221 0.19634797 0.015
0.075815491 0.19715783 0.014999999
0.085122935 0.19352956 0.015
0.094126575 0.19418432 0.014999999
0.10469425 0.1943804 0.015
0.11486734 0.19562133 0.014999999
0.12379151 0.19426735 0.015000001
0.13503197 0.19568796 0.015000001
0.14589342 0.19635364 0.014999999
0.15668721 0.19586824 0.015000001
0.16637984 0.19588025 0.015000001
0.17529812 0.19483797 0.015000001
0.18229392 0.19545016 0.018359372
0.20900001 0.19594778 0.013067482
0.22364499 0.19566377 0.015613337
-0.22330445 0.20572005 0.015792729
-0.20900001 0.20557223 0.015220335
-0.18178743 0.20409928 0.016644506
-0.17364402 0.20591176 0.015
-0.16497117 0.20507543 0.014999999
-0.15449886 0.20274194 0.015000001
-0.14362895 0.2033475 0.015000001
-0.1342181 0.20375767 0.015000001
-0.12492547 0.20394896 0.015
-0.11532415 0.20449607 0.015
-0.10381013 0.20566006 0.015
-0.094325416 0.20462839 0.014999999
-0.085503355 0.20492184 0.014999999
-0.074156098 0.20502119 0.015
-0.065510385 0.20550266 0.015000001
-0.054945339 0.20324449 0.015000001
-0.044682812 0.20563854 0.015000001
-0.035797074 0.20637375 0.015000001
-0.025562426 0.20573556 0.015000001
-0.015325124 0.20385194 0.01584122
0.013925014 0.20529261 0.015133085
0.024206433 0.20440526 0.014999999
0.033212099 0.20513149 0.015
0.049159031 0.20524454 0.014999999
0.054981153 0.2048831 0.015
0.065084465 0.20683084 0.015000001
0.076479875 0.20516135 0.015000001
0.083426997 0.20647797 0.015
0.092912875 0.20332676 0.015
0.10518711 0.20594604 0.015
0.1130763 0.20519035 0.015
0.1241601 0.20583718 0.015000001
0.13720885 0.20476262 0.014999999
0.14743111 0.20379615 0.014999999
0.15565091 0.20497181 0.015000001
0.16555338 0.20626117 0.015000001
0.17522526 0.20621142 0.014999999
0.18183002 0.20352054 0.016684549
0.20900001 0.20674211 0.014308476
0.22316863 0.2044457 0.016569026
-0.22312783 0.21447858 0.014279268
-0.20900001 0.21584843 0.013795803
-0.18198767 0.21424884 0.015890244
-0.17747955 0.21472827 0.014999999
-0.16447136 0.21475247 0.015000001
-0.15411736 0.2158989 0.015000001
-0.14553092 0.21506278 0.015
-0.13515936 0.21489415 0.015000001
-0.12579338 0.21547975 0.015
-0.11559172 0.21359873 0.014999999
-0.10704066 0.21441717 0.014999999
-0.094548211 0.21544628 0.015
-0.084583625 0.21471041 0.015000001
-0.074133627 0.21491776 0.015000001
-0.064392515 0.21555756 0.015
-0.056116413 0.21547754 0.015000001
-0.045942713 0.21494462 0.015
-0.035586879 0.21411428 0.015
-0.023165375 0.21556973 0.014999999
-0.014626216 0.21489328 0.015461192
0.013822252 0.21668695 0.015935648
0.023297589 0.21469156 0.015
0.032936174 0.21444145 0.014999999
0.046189398 0.21452722 0.015000001
0.054297611 0.21466735 0.014999999
0.063262202 0.21572649 0.015
0.074577428 0.21731248 0.015
0.086388253 0.21453793 0.014999999
0.095078759 0.21700431 0.015
0.10501994 0.21368147 0.015000001
0.11358128 0.21685186 0.015000001
0.12398393 0.21505593 0.015
0.13288336 0.21431951 0.015
0.14486745 0.2159981 0.015000001
0.15483606 0.21598393 0.015
0.16383001 0.21581031 0.015
0.17399627 0.21432966 0.014999999
0.18192028 0.21275379 0.016897555
0.20900001 0.21476509 0.015334937
0.22348677 0.21518174 0.016309148
-0.22201611 0.22540377 0.016644355
-0.20900001 0.22415692 0.013785262
-0.1819253 0.22378798 0.016393797
-0.17446989 0.22617002 0.015
-0.16538164 0.2245363 0.015
-0.15537548 0.22377123 0.014999999
-0.14483584 0.2235706 0.015641199
-0.1347152 0.22495627 0.016168064
-0.12548861 0.2261169 0.014999999
-0.11652662 0.22649384 0.014999999
-0.106204 0.22659498 0.015
-0.094227493 0.22865425 0.015000001
-0.085843317 0.22497983 0.015000001
-0.076986156 0.22399837 0.015000001
-0.065688215 0.2242959 0.015666666
-0.055379178 0.22656767 0.016647225
-0.045745391 0.22684506 0.015
-0.034859952 0.22388327 0.015000001
-0.025524296 0.22523169 0.015
-0.014957696 0.22496846 0.015698437
0.01295929 0.22592337 0.017096845
0.025519406 0.22453523 0.015000001
0.033145972 0.22706945 0.015000001
0.045257594 0.22410059 0.015000001
0.054678023 0.22630849 0.016594287
0.061640598 0.22399065 0.016065411
0.074861653 0.22506647 0.015000001
0.086005718 0.22474048 0.015
0.094811238 0.22594628 0.015000001
0.10425546 0.22478029 0.015000001
0.11348377 0.22476533 0.015
0.12751977 0.22682586 0.015623534
0.13418907 0.22339143 0.015379053
0.14434971 0.22540238 0.01548866
0.15512156 0.22444193 0.015000001
0.16658153 0.22555459 0.015000001
0.1762767 0.22387816 0.015
0.18174323 0.22524813 0.016437437
0.20900001 0.22409974 0.015300264
0.22298335 0.22520633 0.01476494
-0.22252788 0.23526531 0.01565256
-0.20899999 0.2344531 0.014558618
-0.18146823 0.23730639 0.016279848
-0.1759847 0.23480518 0.014999999
-0.16586243 0.2353515 0.015000001
-0.15520318 0.23418598 0.014999999
-0.14289449 0.23527622 0.018080974
-0.13482897 0.23416662 0.019000001
-0.12604955 0.23334765 0.016370771
-0.11498526 0.2345802 0.015000001
-0.10743279 0.23520304 0.015
-0.095266014 0.23482895 0.015000001
-0.085561574 0.23357163 0.015000001
-0.075501412 0.2346075 0.015000001
-0.063554056 0.23535548 0.017991491
-0.054635935 0.23253517 0.018670926
-0.047439583 0.23527554 0.015317799
-0.035753299 0.23488551 0.015
-0.025635475 0.23704761 0.015000001
-0.015524904 0.23442395 0.015160833
0.013517252 0.23510458 0.016308935
0.025256231 0.23475151 0.014999999
0.03455662 0.2338528 0.014999999
0.047874562 0.23538789 0.015786704
0.053399712 0.23554359 0.018613974
0.0654568 0.23440275 0.016682165
0.077176161 0.23589221 0.015
0.084470376 0.23402019 0.015
0.093368925 0.23507875 0.015
0.10358856 0.23395385 0.014999999
0.11484247 0.23457585 0.015000001
0.12624906 0.23437083 0.016396798
0.1336934 0.23305167 0.019000001
0.1438012 0.23555869 0.016710551
0.15489429 0.23438685 0.015000001
0.16233002 0.23896983 0.014999999
0.17606771 0.2351514 0.015
0.18180919 0.23487279 0.017109601
0.20899999 0.23582773 0.014918556
0.22300759 0.2341352 0.014578878
-0.22372755 0.24556094 0.015928268
-0.20900002 0.24730982 0.016625253
-0.18210837 0.24350424 0.018330969
-0.17413999 0.2448642 0.015000001
-0.16527936 0.24416251 0.015000001
-0.15675624 0.24434645 0.015000001
-0.14457272 0.24473456 0.015113019
-0.13377497 0.24316901 0.016067009
-0.12552106 0.24540246 0.015
-0.11840507 0.24392805 0.015
-0.10293703 0.24468747 0.015
-0.095627949 0.24566507 0.014999999
-0.085192688 0.24588424 0.015000001
-0.074425071 0.24331112 0.015
-0.064709246 0.24490364 0.015176759
-0.057221115 0.24340907 0.015600968
-0.044775374 0.24570811 0.015000001
-0.034336492 0.24513416 0.015000001
-0.024940679 0.24501748 0.015000001
-0.014108936 0.24393076 0.015992321
0.014184919 0.24650653 0.015
0.024083896 0.24523772 0.015000001
0.037202738 0.24496661 0.015
0.046921398 0.24660261 0.015000001
0.054351438 0.24380055 0.016129462
0.062245157 0.24332535 0.016173033
0.073860005 0.24553084 0.015000001
0.08630541 0.24594711 0.015000001
0.095676132 0.24442115 0.014999999
0.10352898 0.24675536 0.015
0.11422799 0.24643546 0.015000001
0.12393486 0.24387841 0.015000001
0.13616773 0.24458732 0.015372696
0.14424759 0.24302439 0.015330235
0.15395704 0.24475773 0.015000001
0.16435088 0.24378206 0.015000001
0.17738195 0.24573007 0.015
0.18117593 0.24520962 0.01550778
0.20899999 0.24512498 0.013998225
0.22309789 0.24413855 0.015230051
-0.22292003 0.25329903 0.016383257
-0.20899999 0.25633949 0.014777869
-0.18168582 0.25691089 0.016322505
-0.1747089 0.25587168 0.015000001
-0.1637736 0.25486857 0.014999999
-0.15426077 0.25427824 0.015000001
-0.14352553 0.25489864 0.015000001
-0.13398962 0.25587586 0.014999999
-0.12332579 0.25387442 0.015
-0.11366165 0.25655401 0.015000001
-0.10805786 0.2548351 0.014999999
-0.095094956 0.25247622 0.015000001
-0.085024342 0.25472653 0.015000001
-0.074997 0.25501469 0.015000001
-0.064755492 0.25503379 0.015000001
-0.054693185 0.2564972 0.015000001
-0.043501794 0.25609133 0.015000001
-0.034301396 0.25493872 0.015000001
-0.026219808 0.25621462 0.015000001
-0.015272876 0.25476748 0.015568533
0.013478093 0.25561184 0.016595786
0.027575584 0.25607312 0.015000001
0.034078766 0.25501049 0.015000001
0.0447479 0.2555078 0.015
0.054635208 0.25547004 0.014999999
0.064464435 0.25556427 0.014999999
0.07403706 0.2553049 0.015
0.083118349 0.25290826 0.015000001
0.095536925 0.25382495 0.014999999
0.10595993 0.25303513 0.015
0.11546595 0.25408608 0.015000001
0.12649043 0.25814924 0.015000001
0.13388661 0.25328442 0.015
0.14653264 0.25620413 0.014999999
0.15487315 0.25759602 0.015
0.16509643 0.25436923 0.015
0.17525703 0.2555877 0.014999999
0.18196586 0.25701311 0.016779942
0.20899999 0.25874522 0.013962825
0.2234 0.25461477 0.017538078
-0.22288156 0.26585901 0.014938027
-0.20900002 0.26658463 0.015907269
-0.1820689 0.2661685 0.016623633
-0.17576963 0.26410627 0.015000001
-0.16227756 0.26629451 0.015000001
-0.15345857 0.26774731 0.015000001
-0.14456601 0.26533908 0.015
-0.13412127 0.26358041 0.015000001
-0.12478687 0.26488647 0.015
-0.11542181 0.26563224 0.014999999
-0.10293064 0.26285619 0.015000001
-0.095595509 0.26285496 0.015000001
-0.085698739 0.26517242 0.014999999
-0.073756158 0.26459771 0.015
-0.064944252 0.26573431 0.015000001
-0.055203114 0.26512483 0.015000001
-0.043572407 0.26405871 0.015
-0.034718722 0.26414627 0.014999999
-0.023723131 0.26415163 0.014999999
-0.013704543 0.26456845 0.015695605
0.015495916 0.26521289 0.015065603
0.02475629 0.26617494 0.015000001
0.035594527 0.26559484 0.015000001
0.047670979 0.26500478 0.015
0.053598851 0.26411498 0.015000001
0.066134602 0.26360834 0.015
0.074159332 0.26648924 0.015000001
0.085256234 0.26468289 0.015000001
0.094646797 0.26375577 0.015000001
0.10472456 0.26548204 0.015
0.11405154 0.2661491 0.015000001
0.12587339 0.26482001 0.015000001
0.13467361 0.26573855 0.015000001
0.14841186 0.26531431 0.015000001
0.15357506 0.2642436 0.015
0.16484295 0.26429266 0.015000001
0.17665945 0.2648572 0.015000001
0.18163271 0.26350567 0.015984802
0.20899999 0.26356822 0.015148032
0.22321449 0.26504606 0.015319578
-0.22291321 0.27421772 0.016274689
-0.20899999 0.27624971 0.01639891
-0.18179736 0.27249557 0.01657363
-0.17285678 0.27596968 0.015000001
-0.16482572 0.27505165 0.015000001
-0.15723757 0.27334514 0.014999999
-0.14294931 0.27428529 0.014999999
-0.13359591 0.27473792 0.015
-0.12611586 0.27582404 0.015000001
-0.11539253 0.27660698 0.015000001
-0.10509321 0.27345887 0.014999999
-0.093860999 0.27501205 0.014999999
-0.083764054 0.27386498 0.014999999
-0.072716899 0.27532223 0.015000001
-0.062926382 0.27529633 0.015
-0.050400306 0.27885842 0.015
-0.045893382 0.27610803 0.015
-0.03553158 0.27618885 0.015000001
-0.027734617 0.27473274 0.014999999
-0.013962853 0.27389377 0.016167764
0.014960592 0.27481884 0.016042771
0.025540721 0.27403444 0.014999999
0.03499243 0.27367845 0.014999999
0.044730835 0.27610263 0.015000001
0.055502255 0.27443209 0.015000001
0.06413348 0.27538288 0.015000001
0.076059386 0.2740919 0.015000001
0.082897305 0.27373478 0.015000001
0.094767302 0.27756825 0.015000001
0.10719139 0.27769035 0.015
0.1143251 0.27375314 0.015
0.12603521 0.27677283 0.015000001
0.13710469 0.27772945 0.015
0.14385159 0.27504113 0.015000001
0.15312703 0.27483302 0.015000001
0.16541308 0.27323771 0.015
0.17650743 0.27645689 0.015000001
0.20900002 0.27346486 0.012838244
0.221701 0.27319407 0.01534051
-0.22300771 0.28456792 0.015424767
-0.20900004 0.28471032 0.015037066
-0.18227737 0.28534016 0.018170232
-0.17536603 0.28389075 0.015000001
-0.16485231 0.2846418 0.015000001
-0.15412864 0.28687587 0.014999999
-0.14526071 0.28524584 0.014999999
-0.1347807 0.28500438 0.015000001
-0.1238507 0.28565416 0.015000001
-0.11635479 0.28433639 0.015
-0.10728987 0.2834273 0.015000001
-0.095730379 0.2850343 0.015
-0.085621998 0.28448182 0.014999999
-0.073404267 0.28542855 0.014999999
-0.064805657 0.28547785 0.015
-0.054979648 0.28538755 0.015000001
-0.045383383 0.2845796 0.014999999
-0.034961525 0.28544867 0.015000001
-0.026565658 0.28534669 0.015000001
-0.012902576 0.284814 0.016540227
0.01409176 0.28584364 0.015746439
0.028042937 0.28549528 0.015
0.034057513 0.28247195 0.014999999
0.044270698 0.28420848 0.015
0.055516783 0.28369954 0.015
0.066507317 0.28651667 0.015000001
0.073360659 0.28546771 0.015
0.08523535 0.28330261 0.014999999
0.093877748 0.28433296 0.015000001
0.10564792 0.2855356 0.015000001
0.1135449 0.28444216 0.015000001
0.12523207 0.28521425 0.015000001
0.13428855 0.28530106 0.015000001
0.14543496 0.28440154 0.014999999
0.15336479 0.28463122 0.015000001
0.16467154 0.28575316 0.015
0.17532235 0.28575656 0.015000001
0.18214726 0.28494519 0.017618032
0.20900001 0.28301215 0.015382679
0.22224702 0.28400895 0.015702127
-0.22368649 0.29545206 0.015602742
-0.20900004 0.29470283 0.015077855
-0.18175618 0.29383096 0.016154785
-0.17688072 0.2953859 0.015000001
-0.16504164 0.29549241 0.015
-0.15287578 0.29504725 0.015000001
-0.14837846 0.29811034 0.014999999
-0.134745 0.29497904 0.015000001
-0.12567781 0.29436931 0.015000001
-0.11659073 0.29493278 0.015000001
-0.10440757 0.29341736 0.014999999
-0.093219861 0.2974411 0.015000001
-0.083023041 0.2965802 0.015000001
-0.075802624 0.29741463 0.015000001
-0.066134714 0.29403618 0.015000001
-0.055778392 0.29294243 0.015
-0.044977978 0.29612735 0.015
-0.033935811 0.29657674 0.015
-0.024901107 0.29566178 0.015000001
-0.012777113 0.29463518 0.016414056
0.01456893 0.29315194 0.015377734
0.025081854 0.29488865 0.015000001
0.03564344 0.29770014 0.015000001
0.044187564 0.29248247 0.015
0.055508673 0.29461336 0.014999999
0.063222036 0.29343459 0.015
0.074390769 0.29681486 0.015
0.084824696 0.29550749 0.015000001
0.094599634 0.29713479 0.015000001
0.10492015 0.2933495 0.014999999
0.11523522 0.29490459 0.015
0.12582365 0.29617685 0.014999999
0.13320987 0.29375461 0.015000001
0.14708483 0.29423559 0.014999999
0.15680769 0.2954334 0.015000001
0.16438448 0.29619926 0.015
0.17490993 0.29425853 0.015000001
0.18149392 0.29512951 0.016281299
0.20899999 0.29505414 0.014635693
0.22271338 0.29400384 0.015981926
-0.22273941 0.30493528 0.016081752
-0.20900001 0.30399495 0.01638565
-0.18138158 0.30469444 0.016399154
-0.1742617 0.30580664 0.016633252
-0.16526987 0.30678296 0.015534824
-0.15497909 0.30675581 0.015765402
-0.14519015 0.30713126 0.015974632
-0.13680203 0.3050763 0.015000001
-0.12535195 0.30431497 0.015000001
-0.11538102 0.30454969 0.015000001
-0.10609951 0.30612057 0.015000001
-0.095465854 0.3056426 0.014999999
-0.084805049 0.30360383 0.015000001
-0.076164514 0.30473396 0.014999999
-0.063831195 0.30192971 0.015000001
-0.055320714 0.30592591 0.016018417
-0.04476824 0.30494058 0.015127475
-0.034506466 0.30714157 0.016480999
-0.023796581 0.30679423 0.016351087
-0.015228658 0.30629605 0.016434299
0.014682857 0.30492526 0.016219744
0.024728682 0.3069593 0.016410487
0.03432912 0.30720419 0.016457373
0.043717504 0.30637863 0.015994558
0.054510292 0.30563578 0.015476876
0.064081356 0.30692941 0.016135372
0.074570589 0.3046895 0.015
0.085648164 0.30725056 0.014999999
0.094414756 0.30523759 0.015000001
0.10448305 0.30644521 0.015000001
0.11704624 0.3056809 0.015000001
0.12564385 0.30512843 0.015000001
0.1354371 0.30476525 0.015000001
0.14563815 0.3057799 0.015880143
0.15524091 0.30559781 0.01525078
0.16501202 0.30658376 0.015760224
0.17633434 0.3060697 0.01560588
0.18174961 0.30251196 0.016721994
0.20900001 0.30399904 0.015040605
0.22325267 0.3053768 0.01602035
-0.22225858 0.31657559 0.015881486
-0.20900001 0.31650466 0.015085902
-0.14030783 0.31555581 0.017999215
-0.13404354 0.31603035 0.015000001
-0.12487587 0.3155643 0.015000001
-0.11490989 0.31641912 0.015000001
-0.10307498 0.31732091 0.015000001
-0.094223112 0.31403688 0.014999999
-0.085226476 0.31493908 0.015
-0.075482972 0.31542334 0.015000001
-0.064598434 0.31371766 0.016888538
0.064764619 0.31550932 0.018529879
0.074386768 0.31410596 0.015000001
0.087337404 0.31387371 0.015
0.096093901 0.31584495 0.015000001
0.10526828 0.31654885 0.015
0.11494638 0.31569639 0.015000001
0.12310387 0.31308037 0.015
0.13453431 0.3157813 0.015
0.14093441 0.31392005 0.01943163
0.20900004 0.31553057 0.014539654
0.2238126 0.31562492 0.016721047
-0.22255009 0.32432339 0.015669264
-0.20648015 0.32570675 0.01559996
-0.19370502 0.32919985 0.015249608
-0.18528616 0.32881343 0.0171325
-0.17557724 0.32911465 0.016098851
-0.16498601 0.32898304 0.016595058
-0.15518638 0.32890481 0.017361637
-0.14259891 0.32549411 0.019179072
-0.13568373 0.32514358 0.015000001
-0.12544617 0.32368743 0.015
-0.1163335 0.32518318 0.015000001
-0.10630538 0.32518235 0.015000001
-0.096531011 0.32450601 0.015
-0.083811611 0.3266668 0.015
-0.0767055 0.32840258 0.014999999
-0.064871371 0.32575989 0.016464943
-0.054293811 0.32862866 0.01924433
-0.045540065 0.32889587 0.016190108
-0.03632801 0.32889953 0.017217489
-0.025482101 0.32882008 0.017331501
-0.013282212 0.32890308 0.016107986
-0.0024678942 0.32899615 0.015043993
0.0069884956 0.3286548 0.018945513
0.018483687 0.32920009 0.016434364
0.024764108 0.32919696 0.017092377
0.033869985 0.32891768 0.017141681
0.04641797 0.32870954 0.018319834
0.054234736 0.32902017 0.017118888
0.064818405 0.32490847 0.01669883
0.076036915 0.32409471 0.015000001
0.083774418 0.32555243 0.015
0.096522518 0.32622615 0.015000001
0.10486881 0.32828441 0.015
0.11388592 0.32552233 0.015
0.12425963 0.3245149 0.015000001
0.13593763 0.3251406 0.014999999
0.14303951 0.32558668 0.017685244
0.1525275 0.32882074 0.017319148
0.1644913 0.32880744 0.017953228
0.17427838 0.32886949 0.016491819
0.18463963 0.32870829 0.018334202
0.19596791 0.32874131 0.017956665
0.20706466 0.32682201 0.015669758
0.22304185 0.3244997 0.016355561
-0.22311109 0.33428732 0.015016427
-0.20628431 0.33488315 0.015884068
-0.19476359 0.33670273 0.016348606
-0.18476094 0.33475527 0.015488327
-0.17349546 0.33586127 0.015640849
-0.16595788 0.33498403 0.01527178
-0.1554713 0.3359597 0.015632752
-0.14441249 0.33588666 0.016161881
-0.13442053 0.33659557 0.01601976
-0.12320276 0.3341324 0.015287296
-0.11553932 0.33606675 0.016243158
-0.10486051 0.33849892 0.017320355
-0.096070737 0.33505017 0.015769655
-0.084362142 0.33697021 0.016558954
-0.073621385 0.3358674 0.016604735
-0.065105692 0.33462536 0.015909225
-0.054549634 0.33556607 0.015494279
-0.044574037 0.33445337 0.015875168
-0.034388281 0.33597916 0.015805757
-0.024698818 0.3354069 0.015843622
-0.016026305 0.33763093 0.016753387
-0.0034218223 0.33493996 0.015753629
0.0047809328 0.33592901 0.015509787
0.015763799 0.33470303 0.015201567
0.025799846 0.33475953 0.015282249
0.036187474 0.33545193 0.015079824
0.044468176 0.3336235 0.015423775
0.054612555 0.33553308 0.01649731
0.064912505 0.33535263 0.016207371
0.075873882 0.33720517 0.01669009
0.082925655 0.33672285 0.016908992
0.094710827 0.3354032 0.016227411
0.10633648 0.33627909 0.016053986
0.1168261 0.33307371 0.016069153
0.12610938 0.33682689 0.016040998
0.13647906 0.33567122 0.015943198
0.14554453 0.33695209 0.01720619
0.15435746 0.33625323 0.016365407
0.16548456 0.33622065 0.015402784
0.17543027 0.33632946 0.015683454
0.18400642 0.33568528 0.015497023
0.19257736 0.3385416 0.017309859
0.20664282 0.33581436 0.016745508
0.22334728 0.33569971 0.015394111
-0.22268566 0.345539 0.014826998
-0.21815002 0.3478536 0.017522149
-0.20419727 0.34141281 0.015642429
-0.1940866 0.34299996 0.01504444
-0.18574481 0.34299836 0.013939215
-0.17447065 0.34298748 0.013900585
-0.16540708 0.34299999 0.016079355
-0.15553772 0.34299996 0.016691867
-0.14625791 0.34299999 0.014730968
-0.1330452 0.34299999 0.017989505
-0.1237315 0.34299996 0.01545754
-0.11668326 0.34299996 0.015744379
-0.10506646 0.34299996 0.015569418
-0.09515778 0.34300002 0.012408677
-0.084533244 0.34299996 0.0165595
-0.075406924 0.34299999 0.013919128
-0.062726401 0.34299999 0.015403677
-0.054635424 0.34299996 0.015749514
-0.045276955 0.34299996 0.014457447
-0.032634106 0.34299996 0.016326224
-0.026003582 0.34299996 0.015021817
-0.014006605 0.34299996 0.015390786
-0.0057781409 0.34299996 0.01678839
0.0050998176 0.34299996 0.014028586
0.015973005 0.34299999 0.014965077
0.026001671 0.34299996 0.013631648
0.034947768 0.34299996 0.014982668
0.04488368 0.34299996 0.0154867
0.05537755 0.34299996 0.013151689
0.065119721 0.34299999 0.01254562
0.074983977 0.34299996 0.01274389
0.086924255 0.34299999 0.014763701
0.094179459 0.34299996 0.016093675
0.10584545 0.34299996 0.01443405
0.11514586 0.34299999 0.016450893
0.12586622 0.34299996 0.016154943
0.1353872 0.34299996 0.014582608
0.14695661 0.34299996 0.014320043
0.153716 0.34299996 0.015232953
0.16542727 0.34299999 0.014450151
0.17507702 0.34299207 0.016466001
0.1849927 0.34299996 0.015244456
0.19387186 0.34299999 0.017330248
0.20315441 0.34196347 0.014271292
0.21846013 0.34789681 0.01578817
0.22313972 0.34559974 0.016299121
-0.22041532 0.3517209 0.017490815
-0.21497744 0.35427916 0.014402119
-0.20610811 0.35673997 0.016311817
-0.19693063 0.35657951 0.015478657
-0.18331838 0.35741815 0.014171627
-0.1751453 0.3580589 0.015304345
-0.16536082 0.3568075 0.016460398
-0.15504785 0.35736677 0.015631579
-0.14405735 0.3569048 0.016051691
-0.13478921 0.35848138 0.015404846
-0.12433887 0.35685113 0.015198511
-0.11491556 0.35671756 0.015329991
-0.10579611 0.35635918 0.016921556
-0.094788007 0.35752106 0.015816057
-0.085867465 0.35718057 0.015263457
-0.075083345 0.35712981 0.015687967
-0.065296188 0.35595635 0.014819102
-0.054766994 0.35737348 0.017026521
-0.04424176 0.35760733 0.015407059
-0.034251142 0.35712636 0.015341241
-0.02590814 0.35635185 0.014952681
-0.014415174 0.35578412 0.016395053
-0.00314362 0.35710081 0.015878886
0.0055020549 0.35714054 0.015576235
0.014519095 0.35676783 0.01643089
0.025051372 0.35706258 0.016513987
0.034301143 0.35743359 0.014984484
0.045258332 0.35698155 0.014923044
0.055666611 0.35815528 0.015539939
0.065027803 0.35652331 0.014935972
0.075508513 0.35732624 0.016322108
0.084411778 0.35662264 0.014806472
0.094056115 0.35680386 0.015381529
0.10506976 0.35711977 0.016954167
0.11430341 0.35745806 0.015420251
0.12428544 0.35682058 0.015449803
0.13491671 0.35675839 0.015769755
0.14416374 0.35795593 0.01459967
0.15386517 0.35631856 0.015639549
0.16600482 0.35753417 0.016212301
0.17395212 0.35669911 0.01662939
0.18545131 0.3571243 0.016640386
0.19445342 0.3573935 0.016007293
0.20456879 0.3571485 0.015419781
0.21588273 0.35229284 0.015677234
0.22076702 0.35121861 0.018401148
-0.2210193 -0.35085833 0.025444468
-0.21494626 -0.35474107 0.025502231
-0.20576341 -0.35675934 0.025633704
-0.19512638 -0.35504752 0.024458898
-0.18491624 -0.35630563 0.024624867
-0.17401239 -0.35689473 0.024788251
-0.16512609 -0.35666654 0.024711646
-0.15609835 -0.35724816 0.024341544
-0.1446213 -0.35757142 0.024173934
-0.13541837 -0.35621098 0.023983946
-0.12506917 -0.35651585 0.02492629
-0.11401558 -0.3542977 0.025611147
-0.10460022 -0.35698998 0.024465568
-0.095026225 -0.35614955 0.024692584
-0.084199138 -0.3572222 0.024017569
-0.075085357 -0.35605368 0.024832042
-0.064437881 -0.35525641 0.02542682
-0.0545865 -0.35421011 0.026467172
-0.04480144 -0.35657665 0.024354728
-0.035186119 -0.35607979 0.024287926
-0.026324887 -0.35697544 0.023476504
-0.014639181 -0.35638091 0.023985777
-0.0057175662 -0.35627672 0.023927648
0.0035984043 -0.35568863 0.024821153
0.014947412 -0.35542852 0.024935504
0.02595425 -0.35640752 0.025886936
0.034464933 -0.35705855 0.024773492
0.043696914 -0.35635415 0.02572177
0.054456692 -0.35635489 0.025660157
0.065759465 -0.35614288 0.026048327
0.073655248 -0.35609579 0.024503762
0.083902381 -0.35793334 0.02493022
0.09403538 -0.35667521 0.025214378
0.10551659 -0.35570469 0.024615355
0.11541606 -0.3558794 0.025232283
0.12536855 -0.35451135 0.025134185
0.13569707 -0.35710856 0.025362559
0.14387421 -0.35691479 0.025569672
0.15503313 -0.35730642 0.026401948
0.1650037 -0.35677192 0.023483453
0.1739475 -0.35430634 0.024431413
0.18407054 -0.35582092 0.02495667
0.19437532 -0.35619193 0.024424365
0.20519726 -0.35538945 0.024638869
0.21552832 -0.3539688 0.026198681
0.22085981 -0.35108614 0.026199892
-0.22258401 -0.34473541 0.025462044
-0.21799643 -0.34524259 0.025217444
-0.20380872 -0.34562731 0.026887218
-0.19441193 -0.34352899 0.024557751
-0.18629918 -0.34527084 0.025767356
-0.17618839 -0.3448866 0.025290439
-0.1655906 -0.34430268 0.025257718
-0.15555152 -0.34384546 0.024678258
-0.14386173 -0.34491 0.025363596
-0.13674109 -0.34532103 0.025389163
-0.12588204 -0.3438344 0.024562044
-0.11584867 -0.34494233 0.025873536
-0.10570976 -0.34640592 0.025577461
-0.096838117 -0.34446573 0.025929395
-0.086175375 -0.34580684 0.025154449
-0.074353941 -0.34547043 0.026210811
-0.064705476 -0.34495553 0.026048569
-0.055356167 -0.34624654 0.026331745
-0.045654513 -0.34479475 0.025354404
-0.035306651 -0.34521803 0.026193729
-0.025115559 -0.34466469 0.026133498
-0.015589137 -0.34447685 0.024834262
-0.0055366564 -0.34411028 0.02404396
0.0044250898 -0.34592953 0.026288271
0.01397483 -0.34521484 0.026441425
0.023349138 -0.34515053 0.026142616
0.034741696 -0.34489703 0.02440832
0.042557832 -0.34491631 0.025383797
0.052993629 -0.34590626 0.024639357
0.066227831 -0.34458485 0.025491193
0.076645173 -0.34352469 0.02406363
0.084721252 -0.34433615 0.023561809
0.095450416 -0.34346747 0.024079556
0.1036023 -0.34548125 0.024739722
0.11432386 -0.34514078 0.025126813
0.12525479 -0.3441937 0.024469431
0.13535906 -0.344432 0.025515951
0.14455682 -0.34420386 0.02382838
0.15457503 -0.34390157 0.024262408
0.16554424 -0.34459168 0.024296766
0.17640407 -0.3444168 0.024803739
0.18422644 -0.34299996 0.022263294
0.19414929 -0.34510213 0.024838163
0.20368429 -0.34403285 0.024974573
0.21602862 -0.34500504 0.026250908
0.22318113 -0.3453795 0.025683314
-0.22296816 -0.33633021 0.024461886
-0.21556979 -0.33583343 0.027000001
-0.20600732 -0.33335221 0.026094928
-0.19545561 -0.33866301 0.024930649
-0.18446577 -0.33899999 0.024910662
-0.17557287 -0.33899999 0.024673343
-0.1657889 -0.33899993 0.025547232
-0.15393138 -0.33899999 0.024356155
-0.14456055 -0.33899999 0.023690511
-0.13370955 -0.33899996 0.025908532
-0.12504055 -0.33899999 0.024321482
-0.11556839 -0.33899999 0.023451082
-0.1070816 -0.33899999 0.025640873
-0.0961022 -0.33899999 0.023572918
-0.085595921 -0.33899999 0.025468342
-0.075004868 -0.33899999 0.024848828
-0.065209441 -0.33899999 0.023810059
-0.057264518 -0.33899999 0.02299639
-0.044242799 -0.33899999 0.024141802
-0.034902073 -0.33899999 0.026286369
-0.02363674 -0.33899996 0.024802964
-0.015131705 -0.33899999 0.024647461
-0.0076101404 -0.33899999 0.023804564
0.0058090845 -0.33899999 0.025382929
0.015090396 -0.33899999 0.024074722
0.024058707 -0.33899999 0.02374593
0.036460087 -0.33899999 0.023939276
0.0454215 -0.33899999 0.024618685
0.055721879 -0.33899999 0.022960624
0.064422294 -0.33899999 0.024697127
0.074368291 -0.33899999 0.024064049
0.08574111 -0.33899999 0.024362693
0.095198028 -0.33899999 0.024379771
0.10571292 -0.33899999 0.024577761
0.11412897 -0.33899999 0.024159646
0.12529753 -0.33899999 0.025383154
0.13354565 -0.33899999 0.024485098
0.14548789 -0.33899999 0.025522823
0.1558767 -0.33899999 0.024141276
0.16545808 -0.33899999 0.025040973
0.17354926 -0.33899999 0.024171099
0.18420601 -0.33899999 0.024163637
0.19412434 -0.33880958 0.024812864
0.20735572 -0.33412153 0.024234911
0.21393831 -0.33354774 0.027000001
0.22297101 -0.33599097 0.024695016
-0.22313331 -0.32560605 0.023733636
-0.21498397 -0.32489356 0.027000004
-0.20677502 -0.32642204 0.024989994
0.20681821 -0.32465723 0.023766743
0.21618243 -0.32459405 0.026999999
0.22246554 -0.32547128 0.024059143
-0.22348393 -0.31501326 0.024567459
-0.21553648 -0.31464902 0.027000003
-0.20808816 -0.31500471 0.023289919
0.20570587 -0.31560361 0.025448119
0.21329059 -0.31450513 0.027000003
0.22307904 -0.31559932 0.025290791
-0.22333331 -0.30537996 0.023875026
-0.21416582 -0.30497742 0.027000001
-0.20684616 -0.30466431 0.023577262
0.20660003 -0.30415779 0.024210555
0.21500544 -0.3043038 0.027000001
0.22334918 -0.30556399 0.025695253
-0.22420001 -0.29475829 0.026485404
-0.21570337 -0.29534453 0.026999999
-0.20727198 -0.29455978 0.024607019
0.20813544 -0.29414198 0.024467383
0.21670179 -0.29651302 0.027000001
0.22212641 -0.29480475 0.024669338
-0.22253844 -0.28457695 0.02385677
-0.21613061 -0.28497836 0.026999999
-0.20661266 -0.28505832 0.024856711
-0.13195796 -0.28290626 0.024207849
-0.12525211 -0.28717589 0.025655316
-0.11669856 -0.28747636 0.024981152
-0.10439874 -0.28738457 0.025083711
-0.094279729 -0.28782791 0.023820007
-0.085033581 -0.2874898 0.025076669
-0.074656419 -0.28745189 0.025082665
-0.064071968 -0.28539875 0.026240891
0.064493753 -0.28529152 0.024660246
0.076256208 -0.28799894 0.022941975
0.085121848 -0.28785828 0.023474492
0.096627526 -0.28712049 0.026477782
0.10590769 -0.28787771 0.023555288
0.11567104 -0.28743505 0.025177248
0.12346434 -0.28740522 0.025529729
0.13235481 -0.28141844 0.022374623
0.207 -0.2836996 0.024409756
0.21474524 -0.28548384 0.027000001
0.22311762 -0.28440192 0.023532968
-0.22280683 -0.2757287 0.024584293
-0.21775916 -0.27476069 0.026999999
-0.20800002 -0.27524769 0.023017716
-0.1314896 -0.27478573 0.0253835
-0.12362013 -0.27129582 0.027749348
-0.11667976 -0.27100751 0.026897434
-0.10547061 -0.27129552 0.027748432
-0.09146037 -0.27125034 0.027614901
-0.087565705 -0.2708123 0.026320651
-0.073048525 -0.27120078 0.027468488
-0.062898278 -0.27393994 0.025131285
0.061982669 -0.27474377 0.025671827
0.072494917 -0.27055755 0.025567954
0.082348689 -0.2711429 0.027297452
0.094523668 -0.27096093 0.026759807
0.1050581 -0.27081609 0.026331861
0.11552285 -0.27094504 0.026712881
0.12535 -0.27134636 0.027830094
0.13183679 -0.2760711 0.025965206
0.20699999 -0.27496558 0.022561744
0.21439607 -0.27321875 0.027000001
0.22316404 -0.27419612 0.026000343
-0.22399996 -0.26465115 0.024609055
-0.21378335 -0.265044 0.027000003
-0.20728676 -0.26387632 0.024297616
-0.12126136 -0.26945931 0.020249875
-0.11315925 -0.26971829 0.022927478
-0.10769381 -0.26978874 0.023187689
-0.094306782 -0.26951322 0.020865899
-0.082874648 -0.26960799 0.021949366
-0.072062023 -0.26995263 0.02378054
-0.066822231 -0.26967952 0.022160606
0.06559334 -0.26962936 0.021168726
0.084466457 -0.26956305 0.021435741
0.094155744 -0.2696414 0.022167075
0.104913 -0.26961163 0.021881094
0.11457074 -0.26977104 0.022893984
0.1225456 -0.26962408 0.021819901
0.20675001 -0.26428598 0.023736043
0.21451454 -0.26482275 0.026999999
0.2237692 -0.26626375 0.024487499
-0.22371809 -0.25426582 0.026074467
-0.21612416 -0.25515452 0.027000001
-0.20596637 -0.25516236 0.024227133
0.20720993 -0.25434124 0.025330257
0.21395926 -0.25449038 0.027000003
0.22233331 -0.25457156 0.024023866
-0.222 -0.24485295 0.025249958
-0.21581365 -0.2457094 0.026999999
-0.20728572 -0.24620095 0.023911877
0.20719866 -0.243779 0.026202882
0.21754596 -0.24349578 0.026999999
0.22233142 -0.24456631 0.023515029
-0.22266667 -0.23501231 0.025169052
-0.21483117 -0.23532626 0.026999999
-0.20600002 -0.23410112 0.026110528
0.20706484 -0.2340723 0.024300111
0.21608329 -0.23232906 0.026999999
0.22366667 -0.23589537 0.024413986
-0.22315645 -0.22526942 0.025340382
-0.21701221 -0.22473247 0.027000001
-0.20762154 -0.22571082 0.024553223
0.20689476 -0.22426648 0.024828577
0.21442716 -0.22531784 0.027000001
0.22249997 -0.22490391 0.023907935
-0.22260001 -0.21505506 0.023665963
-0.21508431 -0.21551351 0.026999999
-0.20645453 -0.21455126 0.025117315
0.20586868 -0.21336384 0.024709137
0.21394862 -0.21568322 0.027000001
0.22325276 -0.21484491 0.023388555
-0.2235714 -0.2045922 0.025643799
-0.21620761 -0.20414226 0.026999997
-0.20700002 -0.20553699 0.024057543
0.20748521 -0.20456886 0.024797
0.21549661 -0.2045745 0.026999999
0.22419998 -0.20572023 0.026345784
-0.22280934 -0.19541121 0.024815423
-0.21374354 -0.19567449 0.027000001
-0.20825781 -0.1949117 0.025038972
0.20583901 -0.19550066 0.024458846
0.21599156 -0.19580828 0.026999999
0.22374921 -0.19701746 0.026247319
-0.2233398 -0.18372326 0.024371142
-0.21470846 -0.18572752 0.026999999
-0.20813894 -0.18653913 0.025280418
-0.1920927 -0.18827093 0.023333579
-0.18563232 -0.18532933 0.025504936
-0.010897775 -0.18362288 0.023301756
-0.0058157016 -0.18704541 0.025125839
0.0064689582 -0.18676116 0.025698902
0.011331242 -0.18310031 0.022531645
0.18481994 -0.18474425 0.024740875
0.19379988 -0.18825969 0.023461852
0.20612828 -0.18642902 0.023904013
0.21447372 -0.18443915 0.027000001
0.22414283 -0.1844503 0.024903711
-0.22299999 -0.17543055 0.023545051
-0.21395917 -0.17239821 0.027000001
-0.20913942 -0.17472962 0.024746411
-0.18365195 -0.17695801 0.025588151
-0.011166075 -0.17565367 0.022516577
-0.0096451947 -0.17292903 0.027923584
0.010687658 -0.17388248 0.024578918
0.18416989 -0.17421632 0.027068168
0.20908707 -0.17450884 0.024447234
0.21676211 -0.17354521 0.026999999
0.22322729 -0.1743902 0.024638472
-0.22308838 -0.16582631 0.02431188
-0.21562998 -0.16435301 0.026999999
-0.20900001 -0.161975 0.022760848
-0.18380393 -0.16511112 0.025902258
-0.010976925 -0.16541044 0.023498558
-0.0096667763 -0.16159549 0.027859816
0.0095180077 -0.16383897 0.028299378
0.01121423 -0.16495927 0.022621078
0.18337601 -0.16633329 0.024783943
0.20900001 -0.16522428 0.022113055
0.21516448 -0.16493277 0.026999999
0.22362454 -0.16479473 0.024598166
-0.22271429 -0.15569486 0.023135871
-0.21612212 -0.15601142 0.026999999
-0.20899999 -0.15740395 0.022312775
-0.18375601 -0.15617542 0.02610792
-0.011068353 -0.15515307 0.023219556
-0.0089471424 -0.15867339 0.029986123
0.0090318518 -0.15505928 0.02973583
0.010959598 -0.15383033 0.023129102
0.18317933 -0.15474766 0.024098795
0.20900001 -0.15701643 0.022986976
0.21600813 -0.15601881 0.027000001
0.22295059 -0.15410616 0.02316883
-0.22366667 -0.14542323 0.024677785
-0.2158412 -0.14452243 0.026999999
-0.20916928 -0.1472598 0.023663772
-0.18353729 -0.14444673 0.025041793
-0.010684651 -0.14449991 0.024573466
-0.0092418287 -0.14858091 0.029115409
0.0099767335 -0.14516984 0.026943985
0.010971298 -0.145364 0.02358607
0.18338217 -0.14571324 0.024603643
0.20900001 -0.14446461 0.024290442
0.21605118 -0.14773302 0.027000003
0.22253841 -0.14616038 0.023917457
-0.2239069 -0.13505305 0.023904903
-0.21541631 -0.13381477 0.027000001
-0.20902808 -0.13556121 0.025580931
-0.1836648 -0.13433588 0.025810547
-0.010810916 -0.13418926 0.02442662
-0.0097157545 -0.13446389 0.0277151
0.0097065335 -0.13326229 0.027742343
0.010991226 -0.13400531 0.023696288
0.18322478 -0.13605216 0.024408581
0.20899999 -0.13449441 0.023208605
0.21557978 -0.13524795 0.027000001
0.22370449 -0.13516125 0.025472734
-0.22200085 -0.12329197 0.024397509
-0.21525091 -0.1260137 0.027000001
-0.20903476 -0.12872851 0.024343304
-0.18392925 -0.12441362 0.026481269
-0.010789551 -0.12786345 0.024408931
-0.0093558254 -0.12602803 0.028778583
0.0091761388 -0.1278611 0.029309506
0.011443944 -0.12274825 0.021355743
0.18337668 -0.12467632 0.024595916
0.20900001 -0.12449837 0.023752451
0.216187 -0.12631106 0.026999999
0.22219999 -0.12384063 0.023747835
-0.22328569 -0.115719 0.023029268
-0.21429032 -0.11358881 0.027000001
-0.20910899 -0.11365677 0.023612043
-0.18340595 -0.11256772 0.024581999
-0.01103612 -0.11515527 0.022667596
-0.0095611596 -0.11461191 0.028171882
0.0091377627 -0.11188208 0.029422892
0.010912997 -0.11469071 0.02386643
0.18358968 -0.1159941 0.025471054
0.20909102 -0.11557049 0.024357256
0.21495685 -0.11472942 0.027000004
0.22386986 -0.11615073 0.024218636
-0.22366665 -0.10730191 0.02456736
-0.21571232 -0.10523661 0.027000004
-0.20899999 -0.10136583 0.023353638
-0.18339075 -0.10507812 0.024540687
-0.01113827 -0.10624223 0.023064971
-0.0094693387 -0.10822713 0.028443187
0.011049558 -0.10629559 0.023295553
0.18398055 -0.10439918 0.026817758
0.20899999 -0.10322442 0.024268903
0.2139959 -0.10638724 0.027000003
0.22318178 -0.10330693 0.024396328
-0.22399172 -0.095395878 0.025239259
-0.21538995 -0.094659358 0.027000001
-0.20902519 -0.095177591 0.023889666
-0.18365945 -0.094858602 0.025520671
-0.011053827 -0.096665174 0.022762571
-0.0093580233 -0.090502098 0.028772091
0.0094583267 -0.093706906 0.028475726
0.010996498 -0.09432935 0.023669885
0.18339428 -0.09311007 0.024855403
0.20917578 -0.093837149 0.025385216
0.21501839 -0.093968868 0.026999997
0.22324997 -0.095340043 0.023524581
-0.22277124 -0.084694117 0.024410756
-0.2145279 -0.084658749 0.026999999
-0.20900676 -0.08522252 0.024619015
-0.18392809 -0.085138202 0.026426181
-0.011450152 -0.085371755 0.021284798
-0.0094401129 -0.08713194 0.028529536
0.0094542578 -0.080634311 0.02848774
0.011071349 -0.085831366 0.023239868
0.18328321 -0.085902318 0.024269903
0.20911738 -0.086719424 0.023741957
0.21595664 -0.084650092 0.027000003
0.222938 -0.085121401 0.023837842
-0.22277467 -0.075631671 0.023961207
-0.21355042 -0.075785078 0.026999999
-0.20914954 -0.07351812 0.024357587
-0.18368816 -0.075544991 0.025458224
-0.010895968 -0.074040517 0.0242055
-0.0096378401 -0.077867314 0.027945315
0.0099362414 -0.074372292 0.027063629
0.010603905 -0.073963329 0.025090883
0.18358864 -0.075800546 0.025354264
0.20907497 -0.075041428 0.02397012
0.21716362 -0.075229041 0.027000001
0.22214285 -0.075761013 0.024317695
-0.2235714 -0.064890943 0.024570296
-0.2159953 -0.06456928 0.027000001
-0.20900001 -0.062392667 0.026585557
-0.18375885 -0.064181827 0.025883786
-0.01104675 -0.06504295 0.02300817
-0.0090757217 -0.066370055 0.029606206
0.0094637601 -0.067922682 0.028459668
0.010917999 -0.064279534 0.023621418
0.18348913 -0.068158694 0.025094757
0.20900001 -0.062862389 0.026459526
0.21461405 -0.065699235 0.026999999
0.22338159 -0.064641029 0.02470981
-0.22299628 -0.054920025 0.025220903
-0.21555512 -0.056509376 0.026999999
-0.20900002 -0.05601117 0.024722923
-0.18311828 -0.056398265 0.023533046
-0.011062352 -0.057004951 0.023106556
-0.0092149489 -0.054439615 0.029194832
0.0090430453 -0.054002974 0.029702757
0.010752792 -0.056884669 0.024291381
0.18272609 -0.052389864 0.022150815
0.20904908 -0.054406844 0.025547909
0.21532094 -0.057695437 0.027000003
0.22326757 -0.055723552 0.024885682
-0.22271426 -0.046106141 0.023582676
-0.21400186 -0.045597475 0.026999997
-0.20932488 -0.043483876 0.023951631
-0.18285047 -0.046686769 0.022094902
-0.01082181 -0.047161225 0.024447035
-0.0093881423 -0.045172136 0.028683096
0.0094179008 -0.045988865 0.028595168
0.01068183 -0.046512611 0.024860635
0.18351005 -0.046806287 0.025346333
0.209047 -0.045888446 0.023040663
0.2118222 -0.046048738 0.027000001
0.22335289 -0.045949943 0.024549125
-0.22351916 -0.035601132 0.023909258
-0.21398534 -0.035116661 0.027000004
-0.20900001 -0.034638096 0.021258555
-0.18423389 -0.03651721 0.027566295
-0.010975993 -0.034093358 0.023795079
-0.0097594857 -0.034984298 0.027585886
0.009830907 -0.03689874 0.027374856
0.011050576 -0.032431033 0.023618311
0.1833543 -0.034333389 0.024619168
0.20922992 -0.033496391 0.025278892
0.21480836 -0.035878066 0.027000001
0.22244599 -0.034151584 0.024836779
-0.22399998 -0.0244432 0.025258662
-0.21597196 -0.026246438 0.027000001
-0.20900486 -0.026870262 0.025341041
-0.18311068 -0.024722394 0.024064597
-0.010879869 -0.023586009 0.023946892
-0.009227708 -0.025213301 0.029157132
0.0095499363 -0.026898839 0.028205046
0.011089742 -0.026639907 0.023431282
0.18351577 -0.024098316 0.025203904
0.20900001 -0.026735589 0.022149488
0.21320952 -0.026635475 0.027000001
0.222 -0.023675688 0.024061644
-0.22346149 -0.015812319 0.02415107
-0.21402641 -0.016243385 0.026999997
-0.20899999 -0.011794634 0.024386218
-0.18472409 -0.019700088 0.029447082
-0.17346661 -0.017427774 0.024967713
-0.16374674 -0.017891048 0.023649585
-0.15383734 -0.017257595 0.025776075
-0.1436518 -0.015144243 0.024922337
-0.063224114 -0.013983184 0.025045523
-0.053395286 -0.017525306 0.02512146
-0.045932148 -0.017261408 0.025899151
-0.036309898 -0.016889147 0.027202781
-0.025038419 -0.017551804 0.024972843
-0.014740149 -0.018018086 0.025734415
-0.0098981652 -0.018250594 0.029436979
0.014834465 -0.017580966 0.026375448
0.024322271 -0.01733939 0.02552099
0.033707079 -0.017718436 0.02428725
0.045007233 -0.017640984 0.024342924
0.055816244 -0.017218983 0.026014019
0.06246525 -0.01511959 0.024946406
0.14472544 -0.01697401 0.024534583
0.15429744 -0.01749292 0.025077542
0.16503437 -0.017194189 0.026157683
0.17331031 -0.017708002 0.024194378
0.18119282 -0.018563166 0.024382561
0.20900001 -0.014100915 0.023743246
0.21610713 -0.014557469 0.027000001
0.22299996 -0.015382565 0.022658633
-0.22390908 -0.0033303595 0.023473384
-0.21376914 -0.0067983018 0.026999999
-0.20868084 -0.0038855246 0.024364796
-0.19331886 -8.9520356e-05 0.027453275
-0.18715072 -0.00014848082 0.028127199
-0.17275043 -0.00024570824 0.029238513
-0.16157886 -0.00015813462 0.02823754
-0.14219198 -0.0051779854 0.024943337
-0.063080959 -0.0032580474 0.02469481
-0.054804906 -0.00011750295 0.02777312
-0.044120569 -0.00012129414 0.027816452
-0.03417122 -0.00015878386 0.028244961
-0.022364385 -0.00015330578 0.028182346
-0.0061463341 -0.00016864666 0.028357694
0.0036700098 -0.00020028834 0.028719358
0.015165836 -0.0002330053 0.029093316
0.023520486 -0.00013153585 0.027933516
0.036278371 -0.00015853344 0.028242098
0.04255956 -0.00011744737 0.027772481
0.051224194 -0.00020888427 0.028817613
0.06379623 -0.0042371075 0.023558598
0.14257938 -0.0032694091 0.025730802
0.15371911 -9.1954571e-05 0.0274811
0.16428742 -0.00017941979 0.028480832
0.17385124 -9.9566663e-05 0.027568104
0.18486603 -0.00016735819 0.028342966
0.19574718 -4.5828845e-05 0.026953878
0.2061642 -0.0017314607 0.025345856
0.21658422 -0.0049690506 0.026999997
0.22299999 -0.0042928644 0.023189336
-0.22299998 0.0053934134 0.024895912
-0.21653402 0.0045159804 0.026999999
-0.20636594 0.0039816913 0.025589772
-0.19207802 0.0004476186 0.021313749
-0.18133783 0.00025295751 0.023538735
-0.1742813 0.0004433603 0.021362422
-0.16577259 0.00027009335 0.023342872
-0.15476896 0.00020891831 0.024042105
-0.14805044 0.00027039199 0.023339458
-0.059538737 0.000513012 0.020563893
-0.045555573 0.00049644237 0.020755691
-0.035696905 0.00037455247 0.0221489
-0.023209527 0.00022059648 0.023908623
-0.016198236 0.00022204798 0.023892034
-0.0054238099 0.00034277592 0.022512106
0.004461043 0.00043143463 0.021498734
0.014393065 0.00043082319 0.021505721
0.027546547 3.00057e-05 0.026087089
0.036437873 0.00025173649 0.023552692
0.044415571 0.00033895049 0.022555832
0.056053016 0.00028846035 0.023121737
0.061121713 6.6555265e-05 0.021985024
0.1478925 0.00024369425 0.02362339
0.15476267 0.00014835323 0.024734367
0.16786876 6.1646446e-05 0.025725432
0.1749209 0.00022618697 0.023844723
0.18583456 0.00032062415 0.022765303
0.19748145 0.00026031196 0.023454672
0.20488581 0.0029283448 0.024079939
0.21547361 0.0049884282 0.027000004
0.22442858 0.0046434412 0.025013704
-0.22333331 0.015672144 0.024841202
-0.21462555 0.015755871 0.027000001
-0.20681819 0.015914578 0.02465599
0.20650001 0.014904771 0.025411155
0.21648355 0.014397136 0.026999997
0.22298031 0.015963646 0.024237514
-0.22264704 0.024084011 0.024390372
-0.21589471 0.021820443 0.027000001
-0.20688234 0.024064437 0.023890616
0.20609093 0.024120247 0.025620926
