ply
format ascii 1.0
comment VCGLIB generated
element vertex 1460
property float x
property float y
property float z
element face 0
property list uchar int vertex_indices
end_header
-0.0493651 0.0363293 0.0249754 
0.0379991 0.0245754 -0.00208495 
0.0339251 0.0271383 0.00215356 
0.0298966 0.0285943 0.00456172 
0.0258977 0.0291584 0.00549526 
0.0219149 0.0290637 0.00533951 
0.0179361 0.0286748 0.00469726 
0.0139581 0.0280026 0.00358632 
0.00997824 0.0270261 0.00197234 
0.00599287 0.0258497 2.76781e-05 
0.00199994 0.0244733 -0.00224788 
-0.00200101 0.023839 -0.0032966 
-0.00599462 0.0255044 -0.000543268 
-0.00998143 0.0266476 0.00134656 
-0.013958 0.0280093 0.00359745 
-0.0178769 0.0325746 0.0111448 
-0.0217824 0.0362054 0.0171469 
-0.0256858 0.0388212 0.0214709 
-0.0295794 0.041137 0.0252988 
-0.0334925 0.0422307 0.0271061 
-0.0374267 0.0424441 0.0274577 
-0.0413799 0.0420839 0.0268609 
-0.0453641 0.0409957 0.0250604 
-0.0494025 0.0388032 0.021434 
0.0300375 0.0264313 -0.00675363 
0.0259928 0.0282193 -0.00378462 
0.0219925 0.0282788 -0.00368504 
0.0180052 0.0275228 -0.00493907 
0.0140212 0.0260682 -0.00735282 
-0.0100281 0.0245192 -0.0099236 
-0.0140217 0.0260216 -0.00743022 
-0.0178971 0.0346294 0.00685682 
-0.0217784 0.0397916 0.0154245 
-0.0256484 0.0438854 0.0222187 
-0.0295731 0.0447411 0.023638 
-0.0335084 0.0450288 0.0241144 
-0.0374558 0.0448892 0.0238812 
-0.0414138 0.0444822 0.0232042 
-0.0453969 0.0435086 0.0215865 
-0.0494299 0.0415171 0.0182791 
-0.0217581 0.0442506 0.0151591 
-0.0256616 0.046645 0.019148 
-0.0295993 0.0470635 0.0198442 
-0.033545 0.0471162 0.0199306 
-0.037496 0.0469955 0.019728 
-0.0414608 0.0465184 0.0189312 
-0.0454462 0.0456025 0.0174029 
-0.0494667 0.0440139 0.0147535 
-0.0178939 0.0416043 0.00302129 
-0.021786 0.0461235 0.0105809 
-0.0257077 0.0479197 0.013585 
-0.0296498 0.0484437 0.0144602 
-0.0335985 0.0486221 0.014757 
-0.0375578 0.048441 0.0144522 
-0.0415302 0.0479354 0.0136043 
-0.0455237 0.0469856 0.0120132 
-0.0495495 0.0454338 0.00941445 
-0.0139205 0.0447268 0.000492863 
-0.0178729 0.0463531 0.00322362 
-0.0218238 0.047479 0.00511351 
-0.0257718 0.0483917 0.00664534 
-0.0297282 0.0487443 0.0072359 
-0.0336892 0.0488586 0.00742618 
-0.0376551 0.0488046 0.00733353 
-0.041642 0.0481804 0.00628273 
-0.0456697 0.046633 0.00368118 
-0.00994098 0.0483622 -0.00117473 
-0.013911 0.0489045 -0.000260905 
-0.0178658 0.0501986 0.00192043 
-0.0218357 0.0502202 0.00195565 
-0.0258286 0.0492113 0.000252684 
-0.0298455 0.0475437 -0.00256116 
-0.0338083 0.0481346 -0.0015667 
-0.0377893 0.0480478 -0.00171537 
-0.00198958 0.0509295 -0.00464749 
-0.00596555 0.0515534 -0.00359142 
-0.00994289 0.0515226 -0.00364415 
-0.0138989 0.0532922 -0.000648905 
-0.0178662 0.0535458 -0.000220663 
-0.0218502 0.0528348 -0.00142573 
-0.0299473 0.0469762 -0.0113486 
-0.0338738 0.0492727 -0.00746256 
-0.0378595 0.0492797 -0.00745316 
0.00597786 0.0525541 -0.00973543 
0.00199147 0.0532168 -0.00860876 
-0.00199088 0.0535652 -0.00801654 
-0.00597009 0.0540599 -0.00717578 
-0.00992962 0.05645 -0.00311354 
-0.0138948 0.0570133 -0.00215687 
-0.017876 0.0562971 -0.00337559 
-0.0299691 0.0495295 -0.014885 
-0.0339069 0.051534 -0.0114799 
-0.0379023 0.0513629 -0.0117736 
0.00997635 0.0544152 -0.0144447 
0.00598144 0.0552537 -0.0130131 
0.00199285 0.0558104 -0.0120626 
-0.00199158 0.0565428 -0.0108127 
-0.00596539 0.058354 -0.00772183 
-0.00992568 0.0602871 -0.00442339 
-0.0139035 0.0596702 -0.00547718 
-0.0299961 0.0518864 -0.0187688 
-0.0339396 0.053814 -0.0154816 
-0.0379385 0.0536529 -0.0157594 
0.00997816 0.0576022 -0.0169031 
0.00598358 0.0582364 -0.0158157 
0.00199308 0.0590701 -0.0143868 
-0.00199058 0.0605164 -0.0119086 
-0.00595685 0.0633844 -0.00699457 
-0.00993339 0.0627759 -0.00803786 
-0.0300251 0.0541749 -0.0227847 
-0.0339773 0.055932 -0.0197767 
-0.0379783 0.0558435 -0.0199315 
0.0139918 0.059165 -0.0221605 
0.0099806 0.0607188 -0.0194863 
0.00598297 0.0617493 -0.0177125 
0.00199188 0.0631511 -0.0153005 
-0.00198633 0.0663515 -0.00979449 
-0.0059625 0.0656785 -0.0109527 
-0.0300663 0.0560001 -0.0276138 
-0.0340187 0.0579322 -0.0242927 
-0.0380206 0.0579656 -0.0242386 
0.0139941 0.0623842 -0.024582 
0.00997909 0.0642907 -0.0212874 
0.00597925 0.0658574 -0.0185804 
0.00198775 0.0689158 -0.0132971 
-0.00198906 0.0681635 -0.0145966 
-0.0301143 0.0575756 -0.0328969 
-0.0340637 0.0598206 -0.0290223 
-0.0380682 0.0599319 -0.0288335 
0.0139987 0.0654121 -0.0273383 
0.00997606 0.0680369 -0.0227849 
0.00597098 0.0708284 -0.0179426 
-0.0301664 0.0590059 -0.0384583 
-0.0341219 0.0612728 -0.0345302 
-0.038122 0.0617219 -0.0337551 
0.00997527 0.0715242 -0.0247289 
-0.0302013 0.0611004 -0.0428918 
-0.0341715 0.063023 -0.0395474 
-0.0381671 0.0637846 -0.0382253 
-0.0302241 0.0636671 -0.0465194 
-0.034206 0.0652926 -0.0436811 
-0.038207 0.0660122 -0.0424274 
-0.0302404 0.0664813 -0.0497257 
-0.0342315 0.0678687 -0.0472941 
-0.0382664 0.0676617 -0.0476622 
-0.0381382 0.041244 0.0287368 
-0.0341468 0.0421163 0.0273894 
-0.0301771 0.0441115 0.0243109 
-0.00204704 0.0661581 -0.00968796 
0.00205096 0.0686015 -0.0134551 
0.00616737 0.0716113 -0.0180952 
-0.0460918 0.0357356 0.029868 
-0.0419684 0.032344 0.0351143 
-0.0379751 0.0324887 0.0348878 
-0.0340289 0.0343814 0.0319562 
-0.0301148 0.0381035 0.0261935 
-0.0261425 0.0401784 0.0229804 
-0.0221974 0.0445399 0.0162285 
-0.0142542 0.0559853 -0.00148774 
-0.0101888 0.0568906 -0.00288959 
-0.00612534 0.0593974 -0.00676997 
-0.00204631 0.0622192 -0.0111375 
0.00205044 0.0647856 -0.0151094 
0.00616305 0.0672158 -0.0188703 
0.0103042 0.0712521 -0.0251167 
-0.0503381 0.0382092 0.0186207 
-0.0459189 0.0276634 0.0350019 
-0.0418771 0.0262466 0.0372006 
-0.037897 0.0265383 0.0367449 
-0.0339554 0.0282949 0.0340138 
-0.0300796 0.033232 0.0263414 
-0.0261343 0.0363635 0.0214746 
-0.0221584 0.0389052 0.0175242 
-0.0182675 0.0484235 0.00273526 
-0.0142293 0.0503154 -0.000205039 
-0.0101841 0.052846 -0.00413742 
-0.00612171 0.0551709 -0.00774999 
-0.00204423 0.0574431 -0.0112803 
0.00204776 0.0596359 -0.0146871 
0.00615284 0.061608 -0.0177509 
0.0102733 0.0639032 -0.0213163 
-0.0499797 0.025914 0.0303336 
-0.0458825 0.0232848 0.0344315 
-0.0418614 0.0223904 0.035824 
-0.037843 0.0213855 0.0373891 
-0.0338651 0.0216077 0.0370407 
-0.0299631 0.0250167 0.0317223 
-0.0260567 0.0292544 0.0251116 
-0.0221115 0.0328376 0.019522 
-0.018237 0.0428726 0.00387019 
-0.014207 0.0448842 0.000732158 
-0.0101608 0.0464905 -0.00177373 
-0.00610316 0.0478735 -0.00393106 
-0.00203619 0.0489941 -0.00567899 
0.00203811 0.0501782 -0.0075258 
0.00612219 0.0517972 -0.0100506 
0.0102271 0.0546988 -0.0145755 
0.0143959 0.0615742 -0.0252977 
-0.0498847 0.0201683 0.0318995 
-0.0458449 0.0188824 0.0339105 
-0.041835 0.0182205 0.0349447 
-0.0378197 0.0172374 0.0364819 
-0.0338418 0.0173753 0.0362642 
-0.0299108 0.0194672 0.0329877 
-0.0259941 0.0228714 0.0276567 
-0.022037 0.0252373 0.0239514 
-0.0181003 0.0300506 0.0164147 
-0.0142074 0.041463 -0.00145348 
-0.0101636 0.0433772 -0.00445094 
-0.00610845 0.0455011 -0.00777654 
-0.0498707 0.0164281 0.0303423 
-0.0458339 0.0151967 0.0322757 
-0.0418415 0.0150219 0.0325486 
-0.0378275 0.0141055 0.033987 
-0.0338558 0.0144934 0.033376 
-0.0299227 0.0165591 0.0301279 
-0.0259806 0.0188293 0.0265589 
-0.0220099 0.0203147 0.0242233 
-0.0180495 0.0231553 0.0197579 
0.0140119 0.0208306 0.023411 
0.0180051 0.0201217 0.0245257 
0.0220064 0.0201223 0.0245257 
0.0260281 0.0210771 0.0230261 
0.0300435 0.021516 0.0223375 
-0.0499145 0.0141087 0.026548 
-0.0458712 0.0128003 0.0286107 
-0.041858 0.012115 0.0296902 
-0.0378691 0.0120584 0.029778 
-0.0339011 0.0127381 0.0287042 
-0.0299539 0.0144434 0.0260126 
-0.0259854 0.0156557 0.0240989 
-0.0220056 0.0166685 0.0225001 
-0.0180278 0.0182665 0.0199782 
-0.0140407 0.019948 0.0173247 
-0.0100176 0.018549 0.0195314 
-0.00601156 0.0187567 0.0192034 
0.00200122 0.0171445 0.0217469 
0.00599155 0.0146652 0.0256587 
0.00997782 0.0136668 0.0272342 
0.01396 0.0128782 0.0284788 
0.0179474 0.0127863 0.0286244 
0.0219357 0.0127703 0.0286503 
0.0259387 0.0134531 0.0275739 
0.0299578 0.014603 0.0257608 
0.0339709 0.0152566 0.0247308 
0.0380002 0.016291 0.0231001 
-0.0501218 0.0157819 0.0164173 
-0.0459886 0.0125276 0.0215701 
-0.0419339 0.0109327 0.0240947 
-0.0379229 0.0104 0.0249372 
-0.0339358 0.0105932 0.0246302 
-0.0299271 0.00995257 0.0256437 
-0.0259272 0.00951292 0.0263392 
-0.0219354 0.00936115 0.0265788 
-0.0179517 0.00968477 0.0260656 
-0.013956 0.00913372 0.0269379 
-0.00997954 0.0104807 0.0248041 
-0.00598614 0.0101639 0.0253057 
-0.00199409 0.00937733 0.0265513 
0.00199223 0.00824015 0.0283524 
0.00597509 0.00790994 0.0288755 
0.00995667 0.00768273 0.0292356 
0.0139369 0.00746371 0.0295829 
0.0179164 0.00728161 0.0298718 
0.0219024 0.00753015 0.0294788 
0.025901 0.00828165 0.0282893 
0.0298306 0.00601563 0.0318792 
0.0338183 0.00636765 0.0313226 
0.037863 0.00847339 0.0279886 
0.0419095 0.0102227 0.0252194 
0.0460262 0.0135282 0.0199853 
-0.0501976 0.014222 0.0113651 
-0.0460928 0.0118911 0.01507 
-0.0419702 0.00859082 0.0203162 
-0.0378919 0.00600845 0.024421 
-0.0338556 0.00432047 0.0271039 
-0.0298511 0.00346653 0.0284608 
-0.0258648 0.00319386 0.0288937 
-0.0218853 0.00319164 0.0288966 
-0.0179005 0.00282058 0.029486 
-0.013929 0.00338426 0.0285894 
-0.00995337 0.00389168 0.0277823 
-0.00596789 0.00305614 0.0291106 
-0.00198879 0.00274984 0.0295975 
0.00198799 0.00226403 0.0303699 
0.00594168 -0.00227302 0.0375838 
0.00989131 -0.00368043 0.0398218 
0.0138459 -0.00385506 0.0400997 
0.0178036 -0.00374865 0.0399309 
0.0217665 -0.00339847 0.0393747 
0.0257388 -0.00271802 0.0382934 
0.0297255 -0.00164505 0.0365881 
0.0337444 0.000328681 0.0334508 
0.0377382 0.00107337 0.0322676 
0.0417754 0.00293019 0.0293164 
0.0458738 0.00608192 0.0243064 
0.0500596 0.0108532 0.0167214 
-0.0503066 0.0134578 0.00502018 
-0.0460055 0.00617191 0.0166485 
-0.0418789 0.00254516 0.0224365 
-0.0378077 -7.966e-05 0.0266253 
-0.033795 -0.00123572 0.0284698 
-0.0297924 -0.00230305 0.0301728 
-0.0258094 -0.00278673 0.0309442 
-0.0218454 -0.00239935 0.0303254 
-0.0178761 -0.0022167 0.0300335 
-0.0139108 -0.00157832 0.0290142 
-0.00993594 -0.00161557 0.0290735 
-0.00595785 -0.00236456 0.0302688 
-0.00198615 -0.00223728 0.0300656 
0.00197886 -0.00667429 0.0371477 
0.00592657 -0.00870788 0.0403937 
0.00987837 -0.00862131 0.0402557 
0.0138261 -0.00893874 0.0407626 
0.0177794 -0.00875188 0.0404646 
0.0217285 -0.00886813 0.0406506 
0.0256857 -0.0085742 0.0401819 
0.0296605 -0.00765056 0.0387082 
0.0336635 -0.00594459 0.0359858 
0.0376747 -0.00433974 0.033425 
0.041673 -0.00341902 0.0319562 
0.0457222 -0.0013209 0.0286082 
0.0498437 0.00219364 0.0229994 
-0.0459068 0.000165571 0.0187161 
-0.0418192 -0.00257458 0.0231062 
-0.0377601 -0.00498549 0.0269687 
-0.0337487 -0.00627333 0.0290318 
-0.0297567 -0.00712378 0.0303941 
-0.025791 -0.00702063 0.0302284 
-0.0218154 -0.00743329 0.0308893 
-0.0178478 -0.0074997 0.0309954 
-0.0138928 -0.00652379 0.0294314 
-0.00992323 -0.00653853 0.0294549 
-0.00595541 -0.00623663 0.028971 
-0.0019836 -0.00716708 0.0304618 
0.00197598 -0.0117901 0.0378696 
0.00592234 -0.0129232 0.0396852 
0.00986888 -0.013133 0.0400216 
0.01381 -0.013696 0.0409238 
0.0177518 -0.0139703 0.0413636 
0.0217016 -0.0137094 0.0409458 
0.0256693 -0.0126984 0.0393262 
0.0296318 -0.0121745 0.038487 
0.0336041 -0.0114336 0.0373004 
0.037597 -0.0101945 0.0353154 
0.0416123 -0.00854863 0.0326787 
0.04566 -0.00634377 0.0291464 
0.049709 -0.00446622 0.0261386 
0.0539377 0.00116192 0.017121 
-0.0501001 0.00161262 0.00882719 
-0.0458679 -0.00425354 0.0182631 
-0.0417659 -0.00749603 0.0234786 
-0.0377381 -0.00906858 0.0260078 
-0.0337296 -0.0103282 0.0280337 
-0.0297396 -0.0111884 0.0294172 
-0.0257729 -0.0112387 0.0294979 
-0.0217975 -0.0117901 0.0303847 
-0.0178388 -0.0114774 0.0298814 
-0.0138839 -0.0106687 0.0285805 
-0.00991344 -0.0111005 0.0292749 
-0.00595036 -0.0106312 0.0285199 
-0.00198176 -0.011653 0.0301636 
0.00197609 -0.0150855 0.0356851 
0.0059207 -0.0166124 0.0381413 
0.00986231 -0.0172869 0.0392263 
0.0138001 -0.0179082 0.0402259 
0.0177339 -0.0185287 0.0412242 
0.0216827 -0.018106 0.0405444 
0.025635 -0.0176539 0.0398173 
0.0295937 -0.017072 0.0388815 
0.0335661 -0.0161487 0.0373966 
0.0375501 -0.0150521 0.0356329 
0.0415568 -0.0135189 0.033167 
0.0456004 -0.0112895 0.029581 
0.0496636 -0.00894834 0.0258155 
0.0538032 -0.00525093 0.0198683 
-0.050006 -0.00406751 0.0103864 
-0.0458417 -0.00833592 0.0172792 
-0.0417543 -0.0112133 0.0219256 
-0.0377279 -0.0127712 0.0244414 
-0.0337228 -0.0139475 0.0263409 
-0.029735 -0.0147476 0.0276329 
-0.0257565 -0.0153721 0.0286413 
-0.0217934 -0.0153892 0.0286688 
-0.0178272 -0.0156308 0.0290589 
-0.0138682 -0.0153949 0.028678 
-0.00990591 -0.0153819 0.0286568 
-0.00594562 -0.0149587 0.0279735 
-0.0019817 -0.0150614 0.0281393 
0.00197687 -0.0179781 0.0328494 
0.00591765 -0.0205839 0.0370574 
0.00985654 -0.0213385 0.0382761 
0.0137945 -0.0217492 0.0389394 
0.0177288 -0.0222217 0.0397024 
0.0216682 -0.022254 0.0397547 
0.0256163 -0.0218806 0.0391517 
0.0295696 -0.0213977 0.038372 
0.0335422 -0.0203535 0.0366858 
0.0375276 -0.0191313 0.0347122 
0.0415417 -0.0173213 0.0317893 
0.0455559 -0.01583 0.0293812 
0.0496027 -0.0137991 0.0261017 
0.0537148 -0.0106162 0.0209618 
-0.0458637 -0.0111498 0.0142475 
-0.0417686 -0.0141873 0.019172 
-0.0377286 -0.0161271 0.022317 
-0.0337218 -0.0173556 0.0243087 
-0.0297351 -0.0181182 0.0255452 
-0.0257577 -0.0186867 0.0264669 
-0.0217935 -0.0187542 0.0265764 
-0.0178288 -0.018893 0.0268015 
-0.0138566 -0.0197598 0.0282068 
-0.00989795 -0.0197099 0.0281258 
-0.00593982 -0.0194945 0.0277767 
-0.00198112 -0.0187842 0.0266251 
0.00197681 -0.0213734 0.0308227 
0.0059166 -0.0241499 0.035324 
0.00984936 -0.0255556 0.0376029 
0.0137772 -0.0265903 0.0392804 
0.0177136 -0.0265931 0.0392847 
0.0216447 -0.0268907 0.0397673 
0.0255848 -0.0266889 0.0394401 
0.0295441 -0.0257775 0.0379623 
0.0335188 -0.0245409 0.0359575 
0.0375101 -0.0230445 0.0335314 
0.0415303 -0.0210139 0.0302393 
0.0455443 -0.0195039 0.0277912 
0.0495607 -0.0181856 0.0256538 
0.0536679 -0.0150451 0.0205622 
-0.0459023 -0.0135357 0.010512 
-0.0418019 -0.0166206 0.0155332 
-0.0377461 -0.0189533 0.0193301 
-0.0337352 -0.0202591 0.0214557 
-0.0297438 -0.0211409 0.0228911 
-0.0257655 -0.0217006 0.0238024 
-0.0217936 -0.0221199 0.0244849 
-0.0178257 -0.0224717 0.0250577 
-0.0138512 -0.0235975 0.0268901 
-0.00988813 -0.024256 0.027962 
-0.0059357 -0.0236878 0.0270373 
-0.00198005 -0.0227932 0.0255814 
0.00197683 -0.0247291 0.028732 
0.00591437 -0.0279522 0.0339777 
0.00984631 -0.0292737 0.0361286 
0.0137745 -0.030166 0.0375806 
0.0177086 -0.0302765 0.0377605 
0.0216374 -0.03064 0.0383518 
0.0255835 -0.030095 0.0374645 
0.0295313 -0.0296388 0.0367219 
0.0335078 -0.0282834 0.0345155 
0.0374734 -0.027563 0.0333429 
0.0414795 -0.0258292 0.0305206 
0.045489 -0.0243148 0.0280555 
0.0495097 -0.0227815 0.0255596 
0.053618 -0.0195361 0.0202771 
0.0578381 -0.0144321 0.0119696 
-0.0460124 -0.0140695 0.00373723 
-0.0418511 -0.0186069 0.0111517 
-0.0377846 -0.0211208 0.0152599 
-0.0337644 -0.022606 0.0176871 
-0.0297645 -0.0236906 0.0194598 
-0.0257808 -0.0243669 0.0205652 
-0.0218071 -0.0247576 0.0212039 
-0.0178257 -0.0258365 0.022967 
-0.01384 -0.0279196 0.0263709 
-0.00988143 -0.0284223 0.0271924 
-0.00593209 -0.0277735 0.0261326 
-0.00197884 -0.0268896 0.0246883 
0.00197552 -0.0288731 0.0279292 
0.00591079 -0.0320195 0.0330701 
0.00984165 -0.0331808 0.0349676 
0.0137698 -0.0339129 0.0361635 
0.0176947 -0.0345485 0.0372019 
0.0216245 -0.0346853 0.0374251 
0.02556 -0.0345259 0.0371644 
0.0295097 -0.0338517 0.0360623 
0.0334863 -0.0323919 0.0336767 
0.0374446 -0.0318244 0.0327488 
0.0414507 -0.0300108 0.0297849 
0.0454568 -0.0285167 0.027343 
0.0494714 -0.0270679 0.0249751 
0.0535784 -0.0237913 0.0196207 
0.0577477 -0.0196915 0.0129209 
0.0616647 -0.0209928 0.0150464 
-0.0419138 -0.0202142 0.00613044 
-0.0378418 -0.0227103 0.0102258 
-0.0338011 -0.0246997 0.0134898 
-0.0297967 -0.025784 0.0152692 
-0.0258098 -0.0264086 0.0162944 
-0.021828 -0.0269983 0.0172622 
-0.0178109 -0.0301887 0.0224959 
-0.0138286 -0.0322518 0.0258805 
-0.00987561 -0.0324785 0.0262526 
-0.0059288 -0.0317904 0.025124 
-0.00197758 -0.0310069 0.0238388 
0.00196701 -0.0373128 0.0341828 
0.00590806 -0.0359153 0.0318903 
0.00983978 -0.0367528 0.033264 
0.0137695 -0.0372858 0.0341381 
0.0177002 -0.0375239 0.0345282 
0.0216302 -0.0377201 0.0348496 
0.0255617 -0.0377946 0.0349714 
0.0295122 -0.0370984 0.0338288 
0.0334845 -0.0358062 0.0317085 
0.0374505 -0.0349919 0.0303721 
0.041451 -0.0333593 0.0276933 
0.0454411 -0.0322866 0.0259327 
0.0494651 -0.0305841 0.0231389 
0.0535427 -0.027956 0.0188269 
0.0574819 -0.0285456 0.0197929 
0.0614744 -0.028038 0.018959 
0.065525 -0.0265509 0.0165183 
-0.0421531 -0.0168347 -0.00712628 
-0.0379183 -0.023703 0.00418553 
-0.0338433 -0.0266047 0.00896517 
-0.0298343 -0.0276756 0.0107296 
-0.0258417 -0.0283288 0.011806 
-0.0218516 -0.0290936 0.0130661 
-0.0177761 -0.0358592 0.0242082 
-0.0138105 -0.0371522 0.026338 
-0.0098645 -0.0371605 0.0263521 
-0.00590651 -0.039573 0.0303253 
-0.00196221 -0.0435126 0.0368131 
0.001961 -0.0442316 0.0379971 
0.00588584 -0.0436707 0.0370733 
0.00981697 -0.0428155 0.0356648 
0.0137541 -0.0419439 0.0342291 
0.0176991 -0.0409462 0.0325857 
0.0216418 -0.0404382 0.0317486 
0.0255757 -0.0404999 0.0318496 
0.0295233 -0.0400049 0.0310336 
0.0334846 -0.0391545 0.0296323 
0.0374594 -0.038068 0.0278421 
0.0414472 -0.036826 0.0257958 
0.0454384 -0.0357193 0.0239721 
0.0494738 -0.0337445 0.0207186 
0.0534436 -0.033513 0.020336 
0.0573976 -0.0336468 0.0205549 
0.0614218 -0.0324219 0.0185362 
0.0654776 -0.0307831 0.0158357 
0.0697054 -0.0264166 0.00864302 
-0.0339299 -0.0269726 0.00187954 
-0.0298925 -0.0287582 0.00483271 
-0.0255507 -0.0449867 0.0316645 
-0.0216122 -0.0453852 0.0323242 
-0.017696 -0.0444983 0.0308584 
-0.0137728 -0.0437015 0.0295415 
-0.00984483 -0.0428511 0.028136 
-0.00588968 -0.0462499 0.0337555 
-0.00196077 -0.0477049 0.0361613 
0.00196039 -0.047932 0.0365368 
0.0058821 -0.0477482 0.0362327 
0.00980766 -0.0472604 0.0354259 
0.0137381 -0.0466452 0.0344085 
0.0176745 -0.0459121 0.033196 
0.0216159 -0.0451821 0.0319884 
0.0255563 -0.0447303 0.0312406 
0.0294969 -0.0443977 0.0306899 
0.0334403 -0.04405 0.030114 
0.0374045 -0.0431363 0.0286022 
0.0414078 -0.041297 0.02556 
0.0454439 -0.0389391 0.0216601 
0.049451 -0.037653 0.0195322 
0.0533923 -0.0380077 0.0201171 
0.0573818 -0.037337 0.0190063 
0.0614167 -0.0358905 0.0166129 
0.0654759 -0.0341893 0.0137982 
0.0697451 -0.0291327 0.00543583 
-0.0295007 -0.047594 0.0283735 
-0.0255491 -0.0484018 0.0297153 
-0.0216179 -0.048418 0.029743 
-0.0176887 -0.0483182 0.0295782 
-0.0137616 -0.0479931 0.0290392 
-0.00983184 -0.0477374 0.0286152 
-0.00589608 -0.0483284 0.0295965 
-0.00196532 -0.0483526 0.0296367 
0.00197101 -0.0449833 0.0240443 
0.00591322 -0.0449491 0.0239873 
0.00982718 -0.0482884 0.0295297 
0.0137577 -0.0483236 0.0295878 
0.0176863 -0.0484783 0.029844 
0.0216176 -0.0484364 0.0297736 
0.0255515 -0.0482941 0.0295365 
0.0294871 -0.0481302 0.0292634 
0.0334315 -0.0477048 0.028556 
0.0374038 -0.0465075 0.0265673 
0.041432 -0.0439715 0.0223565 
0.0454607 -0.0418692 0.0188653 
0.0494371 -0.0413463 0.0179955 
0.0534041 -0.0411153 0.0176101 
0.0574137 -0.0400543 0.015847 
0.0614441 -0.0387385 0.0136606 
0.0655208 -0.0367626 0.0103784 
-0.0295596 -0.0486254 0.022447 
-0.0256171 -0.048662 0.0225092 
-0.021677 -0.0485967 0.0224015 
-0.0177366 -0.0485268 0.0222858 
-0.0137956 -0.0484742 0.022199 
-0.00985272 -0.0486212 0.0224445 
-0.00591504 -0.0479456 0.0213189 
-0.0019753 -0.0458077 0.0177564 
0.00197573 -0.0455583 0.0173408 
0.005928 -0.0453979 0.0170734 
0.00988056 -0.0453377 0.0169727 
0.0138335 -0.0452865 0.0168868 
0.0177876 -0.0451867 0.0167199 
0.021744 -0.0450016 0.0164106 
0.0256945 -0.0451547 0.0166646 
0.0296095 -0.0466635 0.0191777 
0.0335098 -0.0483364 0.0219641 
0.037474 -0.0476781 0.0208654 
0.0414868 -0.045788 0.017714 
0.0454795 -0.0447508 0.0159837 
0.0494586 -0.0442057 0.0150731 
0.0534532 -0.0434093 0.0137437 
0.0574776 -0.0421233 0.0115983 
0.0615267 -0.040542 0.00896046 
0.0656835 -0.0372347 0.00344614 
-0.0296504 -0.048421 0.0144222 
-0.0256867 -0.0488707 0.0151759 
-0.0217342 -0.0488926 0.0152137 
-0.0177781 -0.0491658 0.0156718 
-0.013828 -0.0491102 0.0155797 
-0.00988539 -0.0481317 0.0139431 
-0.00592758 -0.0488426 0.015133 
-0.00197949 -0.0467039 0.0115549 
0.00198106 -0.0457827 0.0100138 
0.00594397 -0.0456317 0.00976102 
0.00990719 -0.0455683 0.00965446 
0.013871 -0.0454964 0.00953355 
0.0178352 -0.0454359 0.00943159 
0.0217789 -0.0465021 0.0112144 
0.0257095 -0.0478387 0.0134494 
0.0296497 -0.0484461 0.0144642 
0.033604 -0.048432 0.014439 
0.0375641 -0.0482474 0.0141284 
0.0415444 -0.0475395 0.012942 
0.0455303 -0.046816 0.0117293 
0.0495237 -0.0460402 0.010429 
0.053542 -0.0448451 0.00842704 
0.0575881 -0.0432567 0.00576674 
0.0617129 -0.0403884 0.000964891 
-0.0337426 -0.0470148 0.00432911 
-0.0297282 -0.0487439 0.00723528 
-0.0257549 -0.049157 0.0079308 
-0.0217826 -0.0496719 0.00879703 
-0.0178366 -0.0487193 0.0071981 
-0.0138807 -0.0480557 0.00608428 
-0.00992101 -0.0473203 0.00484971 
-0.00594347 -0.0491001 0.00783962 
-0.00198308 -0.0479687 0.00593955 
0.00198694 -0.045705 0.00213716 
0.00596159 -0.0455602 0.00189382 
0.00993662 -0.0454901 0.00177554 
0.0139122 -0.045422 0.00166052 
0.0178878 -0.0453823 0.00159292 
0.0218074 -0.0483534 0.00658229 
0.0257607 -0.048893 0.00748726 
0.0297519 -0.0478183 0.00568061 
0.033713 -0.0480355 0.00604354 
0.0377103 -0.0471017 0.00447313 
0.0416339 -0.0484061 0.00666185 
0.045614 -0.0480529 0.00606604 
0.0496204 -0.0471456 0.00453941 
0.0536811 -0.0451986 0.00126609 
-0.0337793 -0.0491329 0.000116694 
-0.0298012 -0.0492707 0.000351102 
-0.0258256 -0.049348 0.000483328 
-0.0218511 -0.0494045 0.00057998 
-0.0178817 -0.0491655 0.000178202 
-0.0139091 -0.0490575 -2.82747e-06 
-0.00993341 -0.0492473 0.000317977 
-0.00596048 -0.0491579 0.000167728 
-0.00199305 -0.0455184 -0.00596957 
0.00199304 -0.0455201 -0.00596679 
0.00597951 -0.0454497 -0.00608578 
0.00996612 -0.0454232 -0.00613099 
0.0139554 -0.0451913 -0.00652277 
0.0179444 -0.0450914 -0.00669215 
0.0219315 -0.0451294 -0.00662938 
0.0258438 -0.048532 -0.000892826 
0.0298393 -0.0477873 -0.00215037 
0.0338268 -0.0474982 -0.00263995 
0.0377788 -0.0483713 -0.00116983 
0.0417552 -0.0484038 -0.00111745 
0.045802 -0.0466505 -0.00407704 
-0.0338796 -0.0490753 -0.00779672 
-0.0298832 -0.0494673 -0.00713083 
-0.0258995 -0.0494155 -0.00721662 
-0.0219149 -0.0494039 -0.00723468 
-0.0179316 -0.0493102 -0.00739195 
-0.013948 -0.0492008 -0.00757597 
-0.0099826 -0.0468945 -0.01148 
-0.00599725 -0.0453949 -0.0140185 
-0.00199915 -0.0453523 -0.0140904 
0.00199922 -0.0453107 -0.0141608 
0.00599841 -0.0451689 -0.0144011 
0.00999848 -0.045043 -0.0146148 
0.0139986 -0.0449876 -0.0147095 
0.0180002 -0.0448696 -0.0149104 
0.0219998 -0.044907 -0.0148484 
0.0259884 -0.0454315 -0.0139619 
0.0299022 -0.0487277 -0.00838317 
0.0338936 -0.0485965 -0.0086075 
0.0380465 -0.0435448 -0.0171629 
-0.0179864 -0.0491666 -0.0154965 
-0.0139879 -0.0492831 -0.0152972 
-0.00999759 -0.0485498 -0.0165429 
-0.00600593 -0.0471158 -0.0189798 
-0.0020031 -0.0464607 -0.0200932 
0.00200321 -0.0463958 -0.0202035 
0.00600848 -0.0466212 -0.0198207 
0.0100118 -0.0469011 -0.0193454 
0.0140129 -0.0472078 -0.018825 
0.0180126 -0.0474714 -0.0183781 
0.0220107 -0.0477366 -0.0179289 
0.0260029 -0.0481828 -0.0171722 
0.0299889 -0.0487614 -0.0161908 
0.0339996 -0.0483661 -0.016865 
-0.0140303 -0.049173 -0.0233925 
-0.0100206 -0.049281 -0.0232073 
-0.00601232 -0.0492886 -0.0231937 
-0.00200426 -0.0491976 -0.0233485 
0.00200424 -0.0492095 -0.0233283 
0.00601248 -0.0492583 -0.0232453 
0.0100219 -0.0491305 -0.023464 
0.0140306 -0.0491504 -0.0234312 
0.0215539 -0.000300521 0.0383773 
0.0164665 0.000211597 0.0383253 
0.0120497 -0.000330352 0.0382941 
0.00807032 -0.00156339 0.0382765 
0.00504561 -0.00433116 0.0382891 
0.00257888 -0.00800857 0.0383194 
0.0303854 0.000856388 0.0343924 
0.0243525 0.00283307 0.0343198 
0.0191417 0.00353484 0.0342697 
0.0144897 0.00336679 0.0342352 
0.0104234 0.00227563 0.0342169 
0.00653063 0.000913352 0.0342035 
0.0032005 -0.00135152 0.034206 
0.000649278 -0.00488031 0.0342307 
-0.000178208 -0.0112256 0.0343044 
0.00714542 -0.0309226 0.0346103 
-0.0378496 0.0350634 0.0334269 
-0.0422875 0.0347955 0.033396 
-0.0452324 0.0320735 0.0334079 
-0.0474284 0.0281027 0.0334415 
-0.0475705 0.020694 0.0335346 
0.0363088 0.00661474 0.0303238 
0.0308035 0.00773595 0.0302727 
0.0267937 0.00652313 0.0302579 
0.0229564 0.00504426 0.0302474 
0.0184063 0.00470408 0.0302194 
0.0135624 0.00484686 0.0301841 
0.00942938 0.00386836 0.0301663 
0.00437867 0.004375 0.0301257 
0.00185994 0.000813328 0.030148 
-0.00374317 0.00224072 0.0300935 
-0.00661919 -0.000742647 0.030107 
-0.0365111 0.0404092 0.0294432 
-0.0408745 0.0400252 0.0294177 
-0.0441843 0.0379192 0.0294188 
-0.0470544 0.0350858 0.029431 
-0.0490085 0.0307255 0.0294667 
-0.0506057 0.025752 0.0295117 
-0.0519215 0.0202842 0.0295642 
-0.0198061 -0.0413647 0.0304727 
-0.024584 -0.0412727 0.0304397 
-0.0271165 -0.0449653 0.0304644 
0.0391824 0.00962326 0.0262691 
0.0323792 0.012767 0.0261974 
0.0247077 0.0173165 0.0261071 
0.0194199 0.0181569 0.0260669 
0.0151368 0.0174293 0.0260479 
0.0112304 0.0161136 0.0260369 
0.00753459 0.0144682 0.0260304 
0.00363971 0.0131455 0.0260197 
0.00019993 0.0110969 0.0260188 
-0.00376255 0.00989297 0.0260067 
-0.00734803 0.0080849 0.0260028 
-0.034094 0.0439738 0.025497 
-0.0385487 0.0437385 0.0254728 
-0.0424701 0.0426426 0.0254602 
-0.0457057 0.0404247 0.0254627 
-0.0484932 0.0374645 0.025475 
-0.0501633 0.0326423 0.025512 
-0.051476 0.0272022 0.0255572 
-0.0530382 0.0221525 0.0255973 
-0.02199 -0.0376965 0.0263609 
-0.0260952 -0.0387244 0.0263471 
-0.0290025 -0.0417721 0.0263601 
-0.0308212 -0.0466782 0.0263975 
0.0395002 0.0165963 0.0221727 
0.0318551 0.021051 0.0220971 
0.0261484 0.0225221 0.0220556 
0.0213059 0.0226628 0.0220295 
0.0164775 0.0227992 0.0220036 
0.0123611 0.0218256 0.0219903 
0.00854762 0.0203792 0.0219826 
0.00483156 0.0187826 0.0219766 
0.00158984 0.0164301 0.0219792 
-0.00255612 0.0155303 0.0219655 
-0.00672482 0.0146767 0.0219514 
-0.0309797 0.0463964 0.02157 
-0.0355433 0.0463326 0.0215475 
-0.0398581 0.0458779 0.0215296 
-0.0436184 0.0445263 0.0215218 
-0.0469445 0.0424647 0.0215221 
-0.049346 0.0388744 0.0215397 
-0.0504123 0.0330556 0.0215822 
-0.0516167 0.0274368 0.0216225 
-0.0528341 0.021811 0.0216628 
-0.0429207 -0.00253952 0.0219123 
-0.0262658 -0.0384366 0.0222902 
-0.0296282 -0.0407127 0.0222926 
-0.0317109 -0.0451659 0.0223193 
0.0435306 0.0177867 0.0181504 
0.0355581 0.0227208 0.0180839 
0.0289761 0.0255411 0.0180373 
0.0241031 0.0257242 0.0180155 
0.0192004 0.0259721 0.0179932 
0.0149164 0.0252622 0.0179798 
0.0108674 0.0241912 0.0179699 
0.00718014 0.0225534 0.0179654 
0.00336474 0.0211239 0.017959 
-0.000463248 0.0197199 0.0179524 
-0.00517558 0.019744 0.0179326 
-0.0269666 0.0473647 0.0176581 
-0.0318767 0.0478507 0.0176345 
-0.0364361 0.0477857 0.0176162 
-0.0406178 0.0471193 0.0176035 
-0.04449 0.045956 0.0175954 
-0.0478719 0.0439921 0.0175948 
-0.050287 0.0404302 0.0176089 
-0.0500093 0.0323867 0.0176641 
-0.0520029 0.0280804 0.017685 
-0.0527114 0.0216058 0.0177258 
-0.0461153 0.00282636 0.017879 
-0.0459062 -0.0053156 0.0179348 
-0.0292403 -0.0413695 0.0182452 
-0.0315614 -0.04542 0.0182633 
0.0403374 0.0227288 0.0140809 
0.0333534 0.0261462 0.0140403 
0.0275924 0.0276992 0.0140133 
0.0227078 0.0279087 0.0139961 
0.0181601 0.0276071 0.0139827 
0.0138356 0.0269674 0.0139719 
0.00988455 0.0257479 0.0139653 
0.00620695 0.0241008 0.0139618 
0.00247726 0.0225404 0.0139578 
-0.00143197 0.0212721 0.0139517 
-0.00725992 0.0230969 0.0139234 
-0.0275402 0.0482911 0.0137273 
-0.0324309 0.0487492 0.0137092 
-0.0369394 0.0486048 0.0136955 
-0.0411548 0.0479967 0.0136852 
-0.0450265 0.0468359 0.0136789 
-0.0485948 0.0451826 0.0136762 
-0.0513857 0.0422468 0.0136827 
-0.0503656 0.0329781 0.0137344 
-0.0525203 0.0289425 0.0137488 
-0.0539453 0.0236702 0.0137719 
-0.0478373 0.00571875 0.0138852 
-0.0490443 -2.36974e-05 0.0139116 
-0.0280985 -0.0433027 0.0142043 
-0.0303642 -0.0474552 0.0142191 
0.0393807 0.0242094 0.0100501 
0.0325347 0.0274181 0.0100221 
0.0269409 0.0287153 0.0100042 
0.0222035 0.0286983 0.00999307 
0.0177038 0.0283241 0.0099839 
0.0133931 0.0276655 0.00997624 
0.009343 0.0266057 0.0099707 
0.00547358 0.0252668 0.00996664 
0.00167382 0.0238229 0.00996316 
-0.0029677 0.0237329 0.00995276 
-0.00848258 0.0250636 0.00993511 
-0.0277404 0.0486143 0.00980349 
-0.0325084 0.0488748 0.00979158 
-0.0370739 0.0488238 0.00978133 
-0.0413709 0.0483499 0.00977329 
-0.0452785 0.0472493 0.0097685 
-0.0489476 0.0457636 0.00976572 
-0.051768 0.0428789 0.0097701 
-0.0512977 0.0345253 0.00980237 
-0.0527184 0.0292726 0.00981882 
-0.0541699 0.0240459 0.00983513 
-0.048608 0.0070134 0.00991139 
-0.0498954 0.00141167 0.00992953 
-0.0473943 -0.0106329 0.00998031 
0.0391413 0.0245799 0.00602886 
0.0323645 0.0276825 0.00601242 
0.0266791 0.0291236 0.0060012 
0.0219703 0.0290634 0.00599468 
0.017525 0.0286051 0.00598944 
0.0132228 0.0279343 0.00598489 
0.00912431 0.026952 0.00598132 
0.00511248 0.025841 0.00597818 
0.00115271 0.0246546 0.0059753 
-0.00358631 0.0247242 0.00596857 
-0.0225212 0.0476461 0.00589143 
-0.0277305 0.0485984 0.00588212 
-0.0324208 0.0487327 0.00587536 
-0.0370803 0.0488342 0.00586874 
-0.04129 0.0482176 0.00586436 
-0.045232 0.0471731 0.00586131 
-0.0488302 0.0455702 0.00586 
-0.0512869 0.0420835 0.00586447 
-0.0506157 0.0333933 0.00588486 
-0.0525469 0.0289869 0.00589214 
-0.0535947 0.0230836 0.00590399 
-0.0489636 0.00761062 0.00594499 
-0.0502973 0.00208944 0.00595563 
-0.0480003 -0.00960702 0.00598505 
-0.0316657 -0.0452426 0.00608713 
0.0392364 0.0244328 0.00200977 
0.0323075 0.0277711 0.00200404 
0.0267369 0.0290334 0.00200049 
0.0220012 0.029015 0.00199827 
0.0175833 0.0285135 0.00199657 
0.0133128 0.0277923 0.0019951 
0.00920191 0.0268291 0.0019939 
0.00514824 0.0257841 0.00199278 
0.00111078 0.0247215 0.00199169 
-0.0196888 0.050526 0.00196298 
-0.0237043 0.0495493 0.00196185 
-0.0276377 0.0484486 0.00196086 
-0.0321822 0.0483459 0.00195885 
-0.0368452 0.0484517 0.00195663 
-0.0410318 0.0477957 0.00195521 
-0.0448497 0.046546 0.00195441 
-0.0480536 0.0442913 0.00195463 
-0.0482686 0.0370933 0.00195991 
-0.0500951 0.0325291 0.0019625 
-0.051941 0.0279772 0.00196507 
-0.0526999 0.0215865 0.00196951 
-0.0486481 0.00708067 0.0019822 
-0.0499064 0.00143025 0.00198587 
-0.0476888 -0.0101343 0.00199555 
-0.0332215 -0.042598 0.00202636 
-0.0356469 -0.0464753 0.00202821 
0.0398543 0.0234765 -0.00201076 
0.0326866 0.0271822 -0.00200465 
0.02707 0.0285139 -0.00200103 
0.0222452 0.028633 -0.00199867 
0.0178147 0.0281498 -0.00199695 
0.0135483 0.0274207 -0.00199549 
0.00944653 0.0264417 -0.0019943 
-0.014271 0.0566602 -0.00196095 
-0.0180259 0.0552666 -0.00196024 
-0.0214496 0.0533476 -0.00196008 
-0.0245571 0.0509211 -0.00196044 
-0.027423 0.0481019 -0.00196121 
-0.0318327 0.0477794 -0.00195943 
-0.036743 0.0482853 -0.00195681 
-0.0406459 0.0471653 -0.00195586 
-0.0441543 0.0454053 -0.00195557 
-0.0457588 0.0405122 -0.00195849 
-0.0475287 0.03587 -0.00196116 
-0.0494826 0.0315125 -0.00196353 
-0.0502502 0.0251596 -0.00196794 
-0.0500042 0.0170766 -0.0019741 
-0.0476533 0.00540983 -0.00198389 
-0.0483895 -0.0011279 -0.00198847 
-0.0461846 -0.0126811 -0.00199813 
-0.0336794 -0.0418197 -0.00202557 
-0.0360818 -0.045733 -0.00202746 
0.0414844 0.0209535 -0.00604016 
0.0338089 0.0254384 -0.0060194 
0.0278889 0.0272368 -0.00600707 
0.022961 0.0275123 -0.0059995 
0.0184188 0.0272005 -0.0059938 
-0.00840073 0.0620503 -0.00587914 
-0.0121596 0.0606622 -0.00587695 
-0.0156459 0.0588462 -0.00587611 
-0.0186701 0.0562948 -0.00587755 
-0.021442 0.0533354 -0.00588028 
-0.0234684 0.0491698 -0.00588673 
-0.0255038 0.0450024 -0.00589319 
-0.0314998 0.0472397 -0.00587995 
-0.0372214 0.0490638 -0.00586804 
-0.040307 0.0466114 -0.00586929 
-0.042485 0.0426671 -0.00587513 
-0.0437772 0.0372489 -0.00588549 
-0.0454932 0.0325046 -0.00589378 
-0.0473868 0.0280337 -0.00590124 
-0.0486173 0.0224384 -0.00591213 
-0.0451006 0.00887259 -0.00594733 
-0.0465357 0.00353257 -0.00595741 
-0.0471032 -0.00329707 -0.00597202 
-0.0297881 -0.0404421 -0.0060788 
-0.0330756 -0.0428461 -0.00607985 
-0.0352932 -0.0470788 -0.00608647 
0.0446394 0.0160707 -0.0100923 
0.0358105 0.0223287 -0.0100485 
0.0294816 0.0247528 -0.0100247 
-0.00182929 0.0663243 -0.00979827 
-0.00587273 0.0653783 -0.00979226 
-0.00937249 0.0635834 -0.00979069 
-0.0126078 0.0613721 -0.00979129 
-0.0154824 0.0585862 -0.00979489 
-0.0176162 0.0546126 -0.00980463 
-0.0186268 0.0488245 -0.0098237 
-0.00770334 0.0238101 -0.00994155 
-0.0131964 0.0251275 -0.00992403 
-0.0332636 0.0500991 -0.0097853 
-0.0379345 0.0502244 -0.00977415 
-0.0402236 0.0464752 -0.00978288 
-0.0396157 0.0379604 -0.00981597 
-0.0405205 0.0318857 -0.00983656 
-0.0421996 0.0270593 -0.00985077 
-0.039252 0.0145312 -0.00990422 
-0.0413691 0.01036 -0.00991506 
-0.0434102 0.00604462 -0.00992663 
-0.0447056 0.000458543 -0.00994467 
-0.0443158 -0.00799771 -0.00997726 
-0.0286274 -0.0424072 -0.0101413 
-0.0319197 -0.0448109 -0.0101431 
0.0391494 0.0171414 -0.0141057 
0.00051717 0.0699259 -0.0137068 
-0.00274984 0.0677655 -0.0137072 
-0.00595018 0.0655 -0.0137084 
-0.00888869 0.0628201 -0.0137126 
-0.0112594 0.0592365 -0.0137233 
-0.0126485 0.0540804 -0.0137454 
0.00407767 0.019986 -0.0139762 
-0.000251741 0.019381 -0.0139653 
-0.00494568 0.0193742 -0.0139502 
-0.0113649 0.0221698 -0.013915 
-0.0352212 0.0532728 -0.0136767 
-0.0388757 0.0517563 -0.0136729 
-0.0391118 0.0446587 -0.0137091 
-0.02757 0.0182011 -0.0138838 
-0.0308929 0.0160308 -0.0138846 
-0.0338369 0.0132331 -0.0138899 
-0.0364639 0.0099034 -0.013899 
-0.0388996 0.00624474 -0.0139105 
-0.0407937 0.00166713 -0.0139285 
-0.0413625 -0.00515683 -0.0139625 
-0.0220135 -0.0456077 -0.0142354 
0.00372166 0.072183 -0.0176219 
0.00083275 0.0694337 -0.0176278 
-0.00187682 0.0663987 -0.0176364 
-0.00421953 0.06278 -0.0176505 
-0.00566964 0.0577414 -0.0176778 
0.015334 0.017117 -0.0180356 
0.0105144 0.017252 -0.0180146 
0.00614772 0.0166818 -0.0180001 
0.00210557 0.0156037 -0.0179905 
-0.00274301 0.0158309 -0.0179688 
-0.00757571 0.0160508 -0.0179473 
-0.0364465 0.0552592 -0.0175662 
-0.0397235 0.0531361 -0.0175669 
-0.0392181 0.0448323 -0.0176246 
-0.0251145 0.0141732 -0.0178878 
-0.0281355 0.0114898 -0.0178935 
-0.0306233 0.00792002 -0.0179073 
-0.0326825 0.00362688 -0.0179278 
-0.0353609 0.000347719 -0.0179391 
-0.0366765 -0.00522119 -0.0179713 
-0.0162759 -0.0472943 -0.0183372 
0.00743281 0.0736549 -0.0215456 
0.00449959 0.0709744 -0.0215519 
0.0026159 0.0666527 -0.0215771 
0.0370496 0.00545491 -0.0222501 
0.0317062 0.00631729 -0.0222155 
0.0257958 0.00809742 -0.0221707 
0.018012 0.0128754 -0.0220919 
0.0136169 0.0123192 -0.022074 
0.0100351 0.010477 -0.0220707 
0.00468638 0.0114683 -0.0220354 
0.000484605 0.010639 -0.0220208 
-0.0321239 0.0556932 -0.0214883 
-0.037439 0.0568683 -0.0214518 
-0.0403375 0.0541355 -0.0214596 
-0.0392394 0.0448671 -0.021541 
-0.0201729 0.00606733 -0.0219542 
-0.0230892 0.00317954 -0.0219634 
-0.0252097 -0.00103032 -0.0219874 
-0.0255219 -0.00825868 -0.0220452 
-0.0111597 -0.0399817 -0.0223773 
-0.0138611 -0.0433921 -0.022392 
0.00854321 0.0719364 -0.0254865 
0.00786451 0.0657465 -0.0255413 
0.0307525 0.000277246 -0.026307 
0.024886 0.00198813 -0.0262551 
0.0194314 0.0030742 -0.0262116 
0.0146719 0.00307605 -0.0261829 
0.0102932 0.00248416 -0.0261623 
0.00614815 0.00152862 -0.0261466 
-0.0337392 0.0583016 -0.0253607 
-0.0383129 0.0582851 -0.0253336 
-0.0409131 0.0550723 -0.0253492 
-0.0386628 0.043925 -0.0254703 
-0.00327983 -0.0216434 -0.0263144 
0.000851679 -0.0362467 -0.0264803 
-0.00235987 -0.0388083 -0.0264863 
-0.00648131 -0.0398632 -0.0264724 
-0.00972124 -0.0423788 -0.0264779 
-0.0124877 -0.0456897 -0.026494 
0.0277788 -0.00259355 -0.0303657 
0.0210053 0.000571787 -0.0302833 
0.0159097 0.00110021 -0.030242 
0.0111576 0.00109916 -0.030209 
0.00691652 0.00029262 -0.0301887 
-0.0349047 0.0601839 -0.0292338 
-0.0390825 0.0595326 -0.0292123 
-0.0415534 0.0561145 -0.0292335 
-0.0041993 -0.0123861 -0.0302535 
0.0139159 -0.00332067 -0.0343148 
0.0088387 -0.00279941 -0.0342684 
-0.035676 0.0614294 -0.0331105 
-0.0397742 0.060654 -0.0330883 
-0.0366278 0.0480977 -0.0332714 
-0.0367118 0.0631021 -0.0369739 
-0.0406108 0.0620104 -0.0369553 
-0.0362444 0.0474737 -0.0371985 
-0.030499 0.0604793 -0.0409676 
-0.037995 0.0651743 -0.040822 
-0.0414127 0.0633105 -0.0408181 
-0.0357632 0.0466906 -0.0411318 
-0.033819 0.0658199 -0.044744 
-0.0390958 0.066952 -0.0446688 
-0.0343423 0.0518479 -0.0449769 
-0.0356127 0.0687053 -0.0485618 
-0.0331534 0.0573557 -0.0488006 
-0.0305975 0.0680058 -0.0525246 
-0.0317742 0.0625306 -0.0526195 
0.00327737 -0.0137261 0.0380193 
0.00590274 -0.0170729 0.0379953 
0.00791879 -0.021379 0.0379526 
0.0110774 -0.0238586 0.0379458 
0.000996275 -0.0472244 0.037529 
0.0162488 -0.030611 0.0378971 
0.0189179 -0.0338422 0.0378757 
0.0274032 -0.0279942 0.0380332 
-0.0469994 0.0271001 0.0341489 
-0.0453554 0.021972 0.0340956 
-0.0427349 0.0185218 0.0340713 
-0.0401982 0.0149414 0.0340447 
-0.0360207 0.0141293 0.034066 
-0.000203861 -0.0117465 0.0340143 
0.00172951 -0.0162063 0.0339733 
0.00354023 -0.0208438 0.0339292 
-0.00608771 -0.043649 0.0335667 
-0.00423224 -0.0481066 0.0335254 
0.000360357 -0.0482277 0.0335603 
0.00498196 -0.0483185 0.0335959 
0.00973566 -0.0482181 0.0336351 
0.0148036 -0.0476447 0.0336828 
0.0250922 -0.038981 0.0338734 
-0.0514627 0.0194828 0.0300153 
-0.049276 0.0153075 0.0299827 
-0.045811 0.0133136 0.0299832 
-0.041811 0.0122216 0.0299976 
-0.037153 0.0122274 0.0300288 
-0.031172 -0.00882725 0.0298328 
-0.026134 -0.00819373 0.029874 
-0.0243121 -0.0128569 0.0298343 
-0.0191601 -0.0120588 0.0298783 
-0.00478292 -0.00392634 0.0300676 
-0.027439 -0.0481277 0.0294194 
-0.0230553 -0.0485054 0.0294455 
-0.0183568 -0.0483918 0.0294793 
-0.0131529 -0.0474885 0.0295254 
-0.00867098 -0.0477563 0.0295536 
-0.00438415 -0.0483472 0.029577 
0.000230846 -0.048432 0.0296084 
0.0053467 -0.0477452 0.0296519 
0.0096767 -0.0483104 0.0296761 
0.0143261 -0.0483894 0.029708 
0.0189879 -0.0484649 0.0297402 
0.0237913 -0.048337 0.0297757 
0.0287339 -0.048012 0.0298144 
-0.0510632 0.0281068 0.0260997 
-0.0526014 0.0175394 0.0259873 
-0.0499867 0.0140995 0.0259687 
-0.0463649 0.0123758 0.0259727 
-0.0423306 0.0113455 0.025986 
-0.0378784 0.0110089 0.0260085 
-0.0321357 0.0128181 0.0260595 
-0.0391489 -0.00666013 0.025829 
-0.0371065 -0.0109699 0.0257991 
-0.034461 -0.014265 0.0257826 
-0.0313223 -0.0167379 0.025777 
-0.0278281 -0.0186246 0.0257794 
-0.0238761 -0.0197645 0.0257917 
-0.019122 -0.0196063 0.0258214 
-0.0313353 -0.046973 0.0254844 
-0.0277404 -0.0486144 0.02549 
-0.0231256 -0.0486185 0.0255176 
-0.0184277 -0.0485054 0.0255468 
-0.0138133 -0.0485426 0.0255742 
-0.0091708 -0.048551 0.0256021 
-0.00459166 -0.0486759 0.0256286 
0.00231567 -0.0451427 0.0257044 
0.00726701 -0.0447272 0.0257385 
0.0112838 -0.0457942 0.0257528 
0.0153788 -0.0467476 0.0257687 
0.0194788 -0.0477021 0.0257848 
0.0238097 -0.0483085 0.0258056 
0.0284139 -0.0485053 0.0258321 
0.0333334 -0.0482328 0.0258651 
-0.0517985 0.0268469 0.02207 
-0.0525622 0.0176062 0.0219898 
-0.0499429 0.0141739 0.0219741 
-0.0462615 0.0125509 0.0219786 
-0.0424635 0.0111213 0.0219854 
-0.0413674 0.00514858 0.0219415 
-0.0431755 -0.00565191 0.0218435 
-0.041878 -0.0112079 0.0218042 
-0.0392375 -0.0145071 0.0217901 
-0.0366685 -0.0179147 0.0217748 
-0.0334256 -0.0202016 0.0217722 
-0.0299281 -0.0220693 0.0217743 
-0.0261273 -0.0234428 0.0217821 
-0.0220276 -0.0243353 0.0217954 
-0.0317898 -0.0477098 0.0215551 
-0.0277894 -0.0486935 0.0215673 
-0.0231251 -0.0486176 0.0215915 
-0.0184444 -0.0485322 0.021616 
-0.0138034 -0.0485267 0.0216396 
-0.00921576 -0.0486225 0.0216623 
-0.00260777 -0.0455337 0.0217212 
0.00228358 -0.0451933 0.021749 
0.00703294 -0.0450951 0.0217743 
0.0118013 -0.0449841 0.0217998 
0.0165728 -0.0448854 0.0218253 
0.0213871 -0.0447374 0.0218515 
0.0260381 -0.0448597 0.0218747 
0.0291551 -0.0473626 0.0218708 
0.0332642 -0.0483391 0.0218844 
0.0394113 -0.0462065 0.0219338 
-0.0504816 0.0370972 0.0181319 
-0.0526005 0.0254727 0.0180446 
-0.0519878 0.0185865 0.0180004 
-0.0493925 0.0151094 0.0179871 
-0.0460167 0.0129654 0.0179861 
-0.0440208 0.0084951 0.0179639 
-0.0463539 -0.00322725 0.0178754 
-0.0454243 -0.00941425 0.0178374 
-0.0432986 -0.0135752 0.0178179 
-0.0406125 -0.0167893 0.0178071 
-0.0378361 -0.019845 0.0177979 
-0.0345659 -0.0220795 0.0177962 
-0.0310955 -0.0239842 0.0177976 
-0.0273 -0.0253588 0.0178039 
-0.0232783 -0.0263709 0.0178136 
-0.0315529 -0.0473258 0.0176394 
-0.0278445 -0.0487825 0.017645 
-0.0232186 -0.048768 0.0176642 
-0.0185613 -0.0487194 0.0176839 
-0.0140257 -0.0488816 0.0177017 
-0.00931868 -0.0487861 0.017722 
-0.0028972 -0.0459921 0.0177674 
0.00208643 -0.0455044 0.0177916 
0.00688352 -0.0453299 0.017813 
0.011623 -0.0452632 0.0178334 
0.016414 -0.0451331 0.0178546 
0.0212211 -0.0449954 0.0178759 
0.0260326 -0.0448681 0.0178972 
0.0294148 -0.0469621 0.0178978 
0.0332715 -0.0483279 0.0179053 
0.0385697 -0.0474942 0.0179336 
0.047333 -0.0414018 0.0180113 
0.0522613 -0.0411953 0.0180339 
-0.0507975 0.0365538 0.0140986 
-0.0539368 0.0231828 0.0140184 
-0.0525817 0.017573 0.013993 
-0.0496009 0.0147552 0.0139874 
-0.0465686 0.012031 0.0139824 
-0.049041 2.92714e-05 0.0139117 
-0.0481086 -0.00617452 0.013882 
-0.0460883 -0.0105251 0.0138655 
-0.0438823 -0.014548 0.0138513 
-0.0414087 -0.0181109 0.0138405 
-0.0385455 -0.0210179 0.0138343 
-0.0353327 -0.0233424 0.0138323 
-0.0320312 -0.0255191 0.0138314 
-0.0282094 -0.0268448 0.0138367 
-0.0242174 -0.0278992 0.013844 
-0.0207181 -0.0297603 0.0138455 
-0.0278551 -0.0487995 0.0137236 
-0.0234007 -0.049061 0.0137366 
-0.0189015 -0.0492646 0.0137501 
-0.0140562 -0.0489304 0.0137675 
-0.00873938 -0.047865 0.0137903 
-0.0046335 -0.0487421 0.0137991 
0.00197764 -0.045676 0.0138366 
0.00675092 -0.0455383 0.0138529 
0.0115145 -0.0454331 0.0138691 
0.0162881 -0.0453295 0.0138853 
0.0210792 -0.0452158 0.0139017 
0.0247552 -0.0468451 0.0139055 
0.02847 -0.0484188 0.0139098 
0.0331963 -0.0484434 0.0139254 
0.0381083 -0.0482002 0.0139431 
0.0441189 -0.0463008 0.0139729 
0.050022 -0.0445957 0.0140014 
0.0568727 -0.0414867 0.0140403 
-0.051639 0.0431401 0.0100934 
-0.0514403 0.0354479 0.0100648 
-0.0543231 0.0225209 0.0100097 
-0.053039 0.0167925 0.00999099 
-0.0501778 0.0137746 0.00998596 
-0.0474532 0.0105333 0.00997981 
-0.05026 -0.00202651 0.00992641 
-0.0487216 -0.00720414 0.00991042 
-0.0469907 -0.0120348 0.00989618 
-0.0443714 -0.015363 0.0098896 
-0.0420152 -0.0191176 0.00988085 
-0.0389897 -0.0217524 0.00987784 
-0.0362152 -0.0247956 0.00987275 
-0.0328348 -0.0268373 0.00987281 
-0.0290243 -0.0281763 0.00987649 
-0.0250421 -0.0292415 0.00988161 
-0.0212773 -0.030667 0.00988493 
-0.0278527 -0.0487957 0.00980256 
-0.0235183 -0.0492501 0.00981084 
-0.0188489 -0.0491803 0.00982187 
-0.0137638 -0.0484636 0.00983629 
-0.00871424 -0.0478251 0.00985036 
-0.00483467 -0.0490607 0.00985482 
0.00191023 -0.0457824 0.00988265 
0.00669508 -0.045626 0.00989441 
0.011414 -0.0455904 0.00990561 
0.016206 -0.0454574 0.00991737 
0.0205341 -0.0460627 0.00992536 
0.0237017 -0.0484757 0.009924 
0.0284552 -0.0484417 0.0099354 
0.0332101 -0.0484223 0.00994677 
0.0383009 -0.0479055 0.0099608 
0.0430311 -0.0479589 0.00997191 
0.0488462 -0.046381 0.0099916 
0.0554712 -0.0436066 0.0100176 
0.0635222 -0.0387211 0.0100548 
-0.0506813 0.0367537 0.00604282 
-0.0535402 0.0238624 0.00600989 
-0.0529465 0.0169504 0.00599505 
-0.0503924 0.0134098 0.00599044 
-0.0483429 0.00902694 0.00598328 
-0.0503517 -0.00218114 0.00595535 
-0.0487218 -0.00720454 0.00594622 
-0.0472821 -0.0125224 0.0059362 
-0.0445686 -0.0156917 0.00593273 
-0.0424042 -0.0197634 0.00592652 
-0.0392394 -0.0221651 0.00592541 
-0.0363376 -0.0249971 0.00592301 
-0.0332331 -0.0274906 0.00592166 
-0.0294343 -0.0288463 0.00592381 
-0.0254511 -0.0299072 0.0059269 
-0.0320895 -0.0481956 0.00587701 
-0.0280455 -0.049107 0.00588055 
-0.0235627 -0.0493216 0.00588626 
-0.0186203 -0.048814 0.00589423 
-0.0134985 -0.0480401 0.00590306 
-0.00839962 -0.0473248 0.00591174 
-0.00490866 -0.0491779 0.00591251 
0.00190257 -0.0457945 0.00592953 
0.0066845 -0.0456427 0.00593657 
0.0114299 -0.0455655 0.00594342 
0.0162043 -0.0454602 0.00595039 
0.0199981 -0.0468953 0.0059526 
0.0234912 -0.0488015 0.00595336 
0.0287587 -0.0479738 0.00596267 
0.0334502 -0.0480534 0.00596919 
0.0388758 -0.0470258 0.00597921 
0.0427241 -0.0484268 0.00598166 
0.0482079 -0.0473503 0.0059919 
0.054882 -0.044498 0.00600775 
0.0626842 -0.0399839 0.00602889 
-0.0488601 0.039887 0.00201743 
-0.0522335 0.0261014 0.00200555 
-0.0523787 0.0179194 0.00199933 
-0.0500384 0.0140115 0.00199742 
-0.0474387 0.0105578 0.00199597 
-0.0496267 -0.000958579 0.00198635 
-0.0488051 -0.00734444 0.00198193 
-0.047181 -0.0123533 0.0019789 
-0.0446826 -0.0158816 0.00197738 
-0.0422906 -0.0195749 0.00197569 
-0.0392852 -0.0222408 0.00197506 
-0.0364797 -0.0252311 0.00197409 
-0.0331183 -0.0273023 0.00197407 
-0.029275 -0.0285859 0.00197487 
-0.0358682 -0.0468615 0.00195826 
-0.0326452 -0.0490966 0.00195808 
-0.0281257 -0.0492365 0.00196005 
-0.0235934 -0.0493709 0.00196203 
-0.0182892 -0.0482835 0.00196528 
-0.013233 -0.0476163 0.00196812 
-0.00937644 -0.048878 0.00196897 
-0.00490095 -0.0491657 0.00197084 
0.00196556 -0.0456951 0.00197661 
0.00674337 -0.0455502 0.00197895 
0.0114972 -0.0454602 0.00198125 
0.0162621 -0.0453699 0.00198355 
0.0200095 -0.0468776 0.00198421 
0.0234686 -0.0488364 0.00198441 
0.0291087 -0.0474342 0.00198812 
0.03371 -0.0476544 0.00199014 
0.0385031 -0.0475961 0.00199247 
0.0426889 -0.0484804 0.00199383 
0.0480331 -0.0476158 0.00199702 
0.0548251 -0.0445841 0.00200249 
0.0631859 -0.0392279 0.00201042 
-0.050061 0.0298242 -0.00200931 
-0.0503979 0.0213001 -0.00200275 
-0.0490337 0.0157193 -0.00199915 
-0.0464369 0.012254 -0.00199769 
-0.0486762 0.000644341 -0.00198798 
-0.048766 -0.00727869 -0.001982 
-0.0464162 -0.0110737 -0.0019802 
-0.0446877 -0.0158901 -0.00197737 
-0.0418623 -0.0188638 -0.00197642 
-0.0390826 -0.0219059 -0.0019754 
-0.0361097 -0.0246219 -0.00197472 
-0.0327026 -0.0266204 -0.00197477 
-0.0289758 -0.0280971 -0.00197537 
-0.0363995 -0.0477262 -0.00195738 
-0.0327705 -0.0492998 -0.00195787 
-0.0282093 -0.0493716 -0.00195991 
-0.0235889 -0.0493637 -0.00196204 
-0.0189951 -0.0494146 -0.00196412 
-0.0143266 -0.0493619 -0.00196632 
-0.00961309 -0.0492542 -0.00196859 
-0.00270166 -0.0456824 -0.00197444 
0.00205083 -0.0455606 -0.00197675 
0.00676356 -0.0455184 -0.00197898 
0.0115281 -0.0454118 -0.0019813 
0.0163038 -0.0453049 -0.00198362 
0.0206131 -0.04594 -0.00198519 
0.0235643 -0.0486883 -0.00198457 
0.0289804 -0.0476319 -0.00198791 
0.0339583 -0.0472731 -0.00199054 
0.037837 -0.0486153 -0.00199141 
0.0429671 -0.0480565 -0.00199427 
0.048748 -0.0465301 -0.00199815 
0.0553402 -0.0438048 -0.00200331 
0.064774 -0.0368347 -0.00201292 
-0.0420366 0.0435742 -0.00606964 
-0.0484437 0.0246352 -0.00601837 
-0.0473732 0.018542 -0.00600603 
-0.0449305 0.0148045 -0.00600085 
-0.046344 0.00457726 -0.00597592 
-0.0471069 -0.00449194 -0.00595449 
-0.0458129 -0.0100643 -0.0059437 
-0.0438615 -0.0145133 -0.00593633 
-0.0412443 -0.0178382 -0.0059324 
-0.038296 -0.0206054 -0.00593019 
-0.0353436 -0.0233603 -0.00592802 
-0.0322352 -0.0258538 -0.00592668 
-0.0284936 -0.0273091 -0.00592853 
-0.034695 -0.0449521 -0.00588067 
-0.0328071 -0.049359 -0.00587344 
-0.0282519 -0.0494403 -0.00587952 
-0.023601 -0.0493831 -0.00588607 
-0.0189309 -0.0493116 -0.00589269 
-0.0142334 -0.0492131 -0.00589943 
-0.0087048 -0.0478101 -0.00591024 
