ply
format ascii 1.0
comment VCGLIB generated
element vertex 1464
property float x
property float y
property float z
element face 0
property list uchar int vertex_indices
end_header
-0.00928893 0.029918 0.0165575 
-0.0130243 0.0284989 0.0165532 
-0.0165798 0.0266044 0.0168515 
-0.0199431 0.0241933 0.0174778 
-0.0230909 0.0211932 0.0184772 
-0.0259931 0.0175122 0.0199073 
-0.0285455 0.0128554 0.0219542 
-0.030583 0.00675445 0.024913 
0.0254535 0.0182633 0.0257128 
0.0182509 0.0254552 0.0202079 
0.0126489 0.0286963 0.0172287 
0.00768662 0.0303637 0.015256 
0.00314178 0.0309984 0.0139433 
-0.00119874 0.0311313 0.0129516 
-0.00531485 0.0307011 0.0123193 
-0.00923305 0.0297665 0.0120081 
-0.0129663 0.0283523 0.0120015 
-0.0165168 0.0264552 0.0123011 
-0.0198754 0.0240422 0.0129269 
-0.0230192 0.0210419 0.0139233 
-0.0259717 0.0175073 0.015256 
-0.0285255 0.0128661 0.0172857 
-0.0305812 0.00682668 0.0201948 
-0.0311538 -0.00333883 0.0257017 
0.0253509 0.0184373 0.0209044 
0.0182304 0.0254353 0.0155458 
0.0127078 0.0284863 0.0127 
0.0077317 0.0301988 0.0107074 
0.00312613 0.0309995 0.00929566 
-0.00120932 0.0311306 0.00831007 
-0.00532087 0.0306998 0.00768151 
-0.00923496 0.0297658 0.00737211 
-0.0129645 0.0283533 0.00736546 
-0.0165117 0.0264588 0.00766304 
-0.0198674 0.0240496 0.00828481 
-0.0230088 0.0210547 0.00927478 
-0.0258916 0.0173441 0.0107139 
-0.0284338 0.0126821 0.0127493 
-0.0305669 0.00686453 0.0155082 
-0.0311635 -0.0032227 0.0209449 
0.0252957 0.0184929 0.0161816 
0.0182955 0.0251997 0.0110295 
0.0126777 0.0285019 0.00803726 
0.00771039 0.0302033 0.00606065 
0.00311052 0.0310005 0.00465766 
-0.00121987 0.0311299 0.00367808 
-0.00532689 0.0306986 0.0030533 
-0.00923686 0.0297651 0.00274568 
-0.0129627 0.0283542 0.00273896 
-0.0165066 0.0264624 0.00303456 
-0.0198594 0.0240571 0.00365232 
-0.0229984 0.0210674 0.00463591 
-0.0258795 0.0173639 0.00606567 
-0.0284209 0.0127117 0.00808774 
-0.0304635 0.00665947 0.0109834 
-0.0311379 -0.00320324 0.0162587 
0.0254266 0.0180827 0.0117624 
0.018256 0.0252276 0.00635581 
0.0126476 0.0285175 0.0033842 
0.00768913 0.0302077 0.00142351 
0.00309495 0.0310016 2.91966e-05 
-0.0012304 0.0311291 -0.000944401 
-0.00533288 0.0306973 -0.00156543 
-0.00923876 0.0297644 -0.00187125 
-0.0129609 0.0283551 -0.00187806 
-0.0165015 0.026466 -0.00158442 
-0.0198515 0.0240645 -0.000970656 
-0.0229881 0.0210801 6.58019e-06 
-0.0258675 0.0173837 0.00142706 
-0.0284081 0.0127413 0.00343582 
-0.0304513 0.00670288 0.0063121 
-0.0308999 -0.00376672 0.0119454 
0.0253621 0.018162 0.00704333 
0.0182167 0.0252553 0.00169181 
0.0126176 0.0285331 -0.00125923 
0.0076679 0.0302121 -0.00320411 
0.0030794 0.0310027 -0.00458978 
-0.00124092 0.0311284 -0.00555743 
-0.00533887 0.0306961 -0.00617472 
-0.00924065 0.0297638 -0.00647877 
-0.0129591 0.0283561 -0.00648565 
-0.0164964 0.0264696 -0.00619397 
-0.0198435 0.024072 -0.00558418 
-0.0229778 0.0210928 -0.00461326 
-0.0258555 0.0174035 -0.00320202 
-0.0283953 0.0127707 -0.00120648 
-0.0304392 0.00674621 0.00165053 
-0.0309196 -0.00362377 0.00720031 
0.0252977 0.0182412 0.00233433 
0.0181774 0.025283 -0.00296252 
0.0125876 0.0285486 -0.0058931 
0.00764672 0.0302165 -0.00782226 
0.00306389 0.0310037 -0.00919934 
-0.00125141 0.0311277 -0.0101611 
-0.00534484 0.0306948 -0.0107746 
-0.00924254 0.0297631 -0.0110769 
-0.0129573 0.028357 -0.0110839 
-0.0164913 0.0264732 -0.0107941 
-0.0198356 0.0240794 -0.0101883 
-0.0229675 0.0211054 -0.00922366 
-0.0258435 0.0174232 -0.00782162 
-0.0283825 0.0128001 -0.00583924 
-0.0304271 0.00678944 -0.0030014 
-0.0309392 -0.00348112 0.00246553 
0.0252334 0.0183202 -0.00236467 
0.0181382 0.0253107 -0.00760723 
0.0125577 0.0285641 -0.0105175 
0.00762559 0.0302209 -0.012431 
0.00304841 0.0310048 -0.0137995 
-0.00126187 0.031127 -0.0147554 
-0.0053508 0.0306936 -0.0153652 
-0.00924443 0.0297624 -0.0156657 
-0.0129556 0.0283579 -0.0156728 
-0.0164862 0.0264768 -0.015385 
-0.0198276 0.0240868 -0.0147831 
-0.0229572 0.0211181 -0.0138247 
-0.0258315 0.0174429 -0.0124318 
-0.0283698 0.0128295 -0.0104625 
-0.030415 0.00683259 -0.00764374 
-0.0309587 -0.00333879 -0.00225899 
0.0251692 0.0183991 -0.00705373 
0.0180991 0.0253383 -0.0122424 
0.0125279 0.0285795 -0.0151324 
0.00760449 0.0302253 -0.0170304 
0.00303296 0.0310058 -0.0183904 
-0.00127232 0.0311263 -0.0193404 
-0.00535675 0.0306924 -0.0199465 
-0.00924631 0.0297618 -0.0202453 
-0.0129538 0.0283589 -0.0202524 
-0.0164812 0.0264804 -0.0199665 
-0.0198197 0.0240942 -0.0193686 
-0.022947 0.0211306 -0.0184164 
-0.0258196 0.0174625 -0.0170326 
-0.028357 0.0128588 -0.0150763 
-0.0304029 0.00687565 -0.0122765 
-0.0309783 -0.00319676 -0.00697332 
0.0251052 0.0184777 -0.0117329 
0.0180601 0.0253659 -0.016868 
0.0124981 0.028595 -0.0197379 
0.00758344 0.0302296 -0.0216205 
0.00301754 0.0310069 -0.022972 
-0.00128275 0.0311256 -0.0239161 
-0.00536269 0.0306911 -0.0245187 
-0.00924819 0.0297611 -0.0248157 
-0.012952 0.0283598 -0.0248229 
-0.0164761 0.0264839 -0.0245389 
-0.0198119 0.0241015 -0.0239448 
-0.0229368 0.0211432 -0.0229988 
-0.0258076 0.0174821 -0.0216241 
-0.0283443 0.012888 -0.0196808 
-0.0303909 0.00691861 -0.0168999 
-0.0309977 -0.00305504 -0.0116775 
0.0250414 0.0185563 -0.0164023 
0.0180211 0.0253934 -0.0214842 
0.0124684 0.0286104 -0.0243341 
0.00756243 0.030234 -0.0262014 
0.00300215 0.0310079 -0.0275445 
-0.00129315 0.0311248 -0.0284828 
-0.00536862 0.0306899 -0.0290816 
-0.00925007 0.0297604 -0.0293769 
-0.0129502 0.0283607 -0.0293842 
-0.0164711 0.0264875 -0.0291021 
-0.019804 0.0241089 -0.0285119 
-0.0229265 0.0211558 -0.0275721 
-0.0257957 0.0175017 -0.0262063 
-0.0283317 0.0129172 -0.0242759 
-0.0303789 0.0069615 -0.0215138 
-0.0310172 -0.00291363 -0.0163716 
0.0249776 0.0186346 -0.0210619 
0.0179823 0.0254208 -0.0260911 
0.0124387 0.0286257 -0.028921 
0.00754146 0.0302384 -0.030773 
0.00298679 0.031009 -0.0321077 
-0.00130354 0.0311241 -0.0330403 
-0.00537453 0.0306887 -0.0336355 
-0.00925194 0.0297598 -0.033929 
-0.0129484 0.0283616 -0.0339364 
-0.0164661 0.026491 -0.0336562 
-0.0197961 0.0241162 -0.0330698 
-0.0229164 0.0211683 -0.0321361 
-0.0257839 0.0175212 -0.0307794 
-0.028319 0.0129463 -0.0288618 
-0.0303669 0.00700429 -0.0261183 
-0.0310366 -0.00277251 -0.0210558 
0.024914 0.0187128 -0.0257118 
0.0179435 0.0254482 -0.0306886 
0.0124106 0.0286371 -0.0334963 
0.00752054 0.0302427 -0.0353356 
0.00297146 0.03101 -0.0366619 
-0.0013139 0.0311234 -0.0375887 
-0.00538043 0.0306874 -0.0381803 
-0.00925381 0.0297591 -0.0384721 
-0.0129467 0.0283625 -0.0384795 
-0.016461 0.0264946 -0.0382012 
-0.0197883 0.0241235 -0.0376187 
-0.0229062 0.0211808 -0.0366911 
-0.025772 0.0175407 -0.0353433 
-0.0283064 0.0129753 -0.0334385 
-0.0303549 0.007047 -0.0307136 
-0.0310559 -0.00263169 -0.0257299 
0.0248505 0.0187908 -0.0303521 
0.0179048 0.0254755 -0.0352768 
0.0123833 0.0286469 -0.0380615 
0.00749966 0.030247 -0.039889 
0.00295617 0.0310111 -0.0412071 
-0.00132425 0.0311227 -0.0421281 
-0.00538632 0.0306862 -0.0427161 
-0.00925567 0.0297584 -0.0430062 
-0.0129449 0.0283635 -0.0430137 
-0.016456 0.0264981 -0.0427373 
-0.0197804 0.0241308 -0.0421586 
-0.022896 0.0211932 -0.0412371 
-0.0257602 0.0175601 -0.0398981 
-0.0282938 0.0130043 -0.038006 
-0.030343 0.00708962 -0.0352995 
-0.0310753 -0.00249117 -0.0303942 
0.0247872 0.0188687 -0.0349828 
0.0178661 0.0255028 -0.0398558 
0.012356 0.0286566 -0.0426176 
0.00747881 0.0302514 -0.0444335 
0.0029409 0.0310121 -0.0457433 
-0.00139144 0.0312687 -0.0467471 
-0.00544772 0.030829 -0.0473298 
-0.009313 0.0299025 -0.0476186 
-0.0129975 0.0285071 -0.0476249 
-0.0165071 0.0266498 -0.0473535 
-0.0198299 0.0242904 -0.046781 
-0.0228859 0.0212057 -0.045774 
-0.0257484 0.0175795 -0.0444439 
-0.0282812 0.0130333 -0.0425644 
-0.0303311 0.00713216 -0.0398763 
-0.0310945 -0.00235095 -0.0350486 
0.024724 0.0189464 -0.039604 
0.0178276 0.02553 -0.0444257 
0.0122542 0.0288553 -0.0472784 
0.0073914 0.0304255 -0.0490711 
0.00285821 0.0311861 -0.0503745 
-0.00141012 0.0312896 -0.0512813 
-0.00545964 0.0308435 -0.0518569 
-0.00932348 0.0299244 -0.0521481 
-0.0130009 0.0285215 -0.052149 
-0.0165014 0.0266514 -0.0518702 
-0.0198187 0.0242886 -0.0512972 
-0.0229362 0.0213796 -0.0503986 
-0.0258088 0.0177931 -0.0490967 
-0.0283445 0.0132673 -0.0472362 
-0.0303192 0.00717461 -0.044444 
-0.0311138 -0.00221102 -0.0396933 
0.0246609 0.0190239 -0.0442157 
0.0176794 0.0258335 -0.0491522 
0.0122278 0.028863 -0.0518149 
0.00736355 0.0304479 -0.0536081 
0.00283679 0.0312031 -0.054902 
-0.00142876 0.0313105 -0.0558065 
-0.00546718 0.0308467 -0.0563683 
-0.00932315 0.029918 -0.0566517 
-0.0130043 0.028536 -0.0566643 
-0.0164941 0.0266488 -0.0563756 
-0.0198063 0.0242834 -0.0558026 
-0.0229257 0.0213909 -0.0549167 
-0.0257923 0.0177995 -0.0536164 
-0.0283382 0.0133131 -0.0517862 
-0.0304033 0.0074785 -0.0491579 
-0.0311269 -0.00208799 -0.0443184 
0.0244111 0.0195694 -0.049098 
0.0176252 0.0259005 -0.0537271 
0.0122048 0.0288623 -0.0563374 
0.00733388 0.030475 -0.058139 
0.002823 0.0312006 -0.059409 
-0.0014456 0.0313267 -0.0603201 
-0.00545957 0.0308106 -0.0608475 
-0.00929975 0.0298515 -0.0611109 
-0.0129768 0.0284693 -0.0611225 
-0.0164722 0.0266075 -0.0608493 
-0.0197938 0.0242783 -0.0602993 
-0.0229152 0.0214021 -0.0594259 
-0.0257751 0.0178042 -0.0581263 
-0.0283314 0.0133572 -0.0563262 
-0.0304057 0.00755947 -0.0537297 
-0.0312884 -0.0015586 -0.0491744 
0.0243429 0.01966 -0.0536977 
0.0175857 0.0259305 -0.0582707 
0.012201 0.0288129 -0.0608222 
0.00750608 0.0299876 -0.0623552 
0.00320815 0.0301752 -0.0632999 
-0.000866339 0.0298055 -0.0639127 
-0.0047716 0.0290091 -0.0642717 
-0.00854816 0.0278842 -0.0644357 
-0.0122235 0.0264967 -0.0644441 
-0.0157801 0.0247958 -0.0642673 
-0.019223 0.0227892 -0.0639102 
-0.0225111 0.0203607 -0.0633048 
-0.0255748 0.017316 -0.0623367 
-0.0283044 0.0133464 -0.0608249 
-0.0303958 0.0076068 -0.0582726 
-0.031309 -0.00141538 -0.0537916 
0.0242507 0.019811 -0.058324 
0.0178387 0.0252236 -0.0623688 
0.013033 0.0266455 -0.0640442 
0.00874212 0.0267884 -0.0649604 
0.00482529 0.0259907 -0.0653192 
0.00297852 0.0198609 -0.0625272 
-0.000709543 0.0184528 -0.0625272 
-0.00439747 0.0170444 -0.0625272 
-0.00808528 0.0156358 -0.0625272 
-0.011773 0.0142269 -0.0625272 
-0.0154606 0.0128178 -0.0625272 
-0.0209245 0.0161577 -0.0653205 
-0.0243731 0.0141339 -0.0649575 
-0.0274754 0.011165 -0.0640403 
-0.0300997 0.0068749 -0.0623493 
-0.0313017 -0.00134889 -0.0583545 
0.0246433 0.0187478 -0.0622236 
0.0193168 0.0214299 -0.0646397 
0.0151635 0.0211869 -0.0653272 
0.0133366 0.0150273 -0.0625272 
0.00963655 0.0136154 -0.0625272 
0.0059367 0.0122032 -0.0625272 
0.00223703 0.0107907 -0.0625272 
-0.00146249 0.00937796 -0.0625272 
-0.00516189 0.00796491 -0.0625272 
-0.0088612 0.00655157 -0.0625272 
-0.0125604 0.00513792 -0.0625272 
-0.0162596 0.00372396 -0.0625272 
-0.0199587 0.00230967 -0.0625272 
-0.0254268 0.00568274 -0.0653272 
-0.0286772 0.0030753 -0.0646282 
-0.0308384 -0.00253214 -0.0621786 
0.0266249 0.0137036 -0.0637782 
0.0218785 0.0149056 -0.0653157 
0.0193188 0.0105962 -0.0636141 
0.0163371 0.00732951 -0.0625272 
0.0126253 0.00591321 -0.0625272 
0.00891377 0.00449663 -0.0625272 
0.00520241 0.00307974 -0.0625272 
0.00149121 0.00166256 -0.0625272 
-0.00221985 0.000245054 -0.0625272 
-0.00593081 -0.00117277 -0.0625272 
-0.00964168 -0.00259093 -0.0625272 
-0.0133525 -0.00400942 -0.0625272 
-0.0170633 -0.00542827 -0.0625272 
-0.0214875 -0.00491643 -0.0636519 
-0.0262447 -0.00347462 -0.0653163 
-0.0289659 -0.00757638 -0.0637546 
0.0303187 0.00436916 -0.0628356 
0.0249062 0.00720659 -0.0653272 
0.0221761 0.00329498 -0.0638679 
0.0193567 -0.000417662 -0.0625272 
0.0156332 -0.00183835 -0.0625272 
0.0119099 -0.00325934 -0.0625272 
0.0081868 -0.00468066 -0.0625272 
0.00446385 -0.0061023 -0.0625272 
0.000741044 -0.00752429 -0.0625272 
-0.00298164 -0.00894662 -0.0625272 
-0.00670423 -0.0103693 -0.0625272 
-0.0104268 -0.0117924 -0.0625272 
-0.0141492 -0.0132158 -0.0625272 
-0.0187168 -0.0123523 -0.0638539 
-0.0233684 -0.0112326 -0.0653272 
-0.0255058 -0.0169702 -0.0628274 
0.0282395 -0.00126311 -0.0649184 
0.0244084 -0.00242243 -0.065071 
0.0215327 -0.00601399 -0.063808 
0.0184651 -0.00913873 -0.0628186 
0.0149253 -0.0110652 -0.0625272 
0.0111904 -0.012491 -0.0625272 
0.00745562 -0.0139171 -0.0625272 
0.003721 -0.0153436 -0.0625272 
-1.34929e-05 -0.0167705 -0.0625272 
-0.00374788 -0.0181978 -0.0625272 
-0.00766325 -0.0191413 -0.0628072 
-0.0120502 -0.0188107 -0.0638236 
-0.0165899 -0.0180456 -0.0650896 
-0.0202026 -0.0197782 -0.0649124 
0.0235598 -0.0112309 -0.0653272 
0.0201234 -0.0134295 -0.0648797 
0.0167894 -0.0159012 -0.0642751 
0.0133165 -0.0180244 -0.063873 
0.00970825 -0.0198027 -0.0636712 
0.00596765 -0.0212374 -0.0636682 
0.00209662 -0.0223277 -0.0638641 
-0.00190766 -0.0230599 -0.0642664 
-0.0060496 -0.0234159 -0.0648852 
-0.0100731 -0.0240776 -0.0653272 
0.0118284 -0.0253424 -0.0650339 
0.00804598 -0.0266892 -0.0650831 
0.0194267 0.0111038 0.0578855 
0.0165799 0.015048 0.0562527 
0.0133617 0.0179799 0.0552794 
0.00984202 0.0201017 0.0548351 
0.0060691 0.0215541 0.0548286 
0.00202149 0.022294 0.0552894 
-0.00233041 0.0222578 0.0562602 
-0.00707451 0.0212345 0.0578808 
0.0216817 0.00558849 0.0557873 
0.0194156 0.0111154 0.0531338 
0.016576 0.0150671 0.0515015 
0.0133586 0.0179892 0.0505376 
0.00984317 0.0201105 0.0500943 
0.00606575 0.0215396 0.0501021 
0.0020245 0.0222845 0.0505569 
-0.00231737 0.0222628 0.0515135 
-0.00705192 0.0212525 0.0531182 
-0.0124449 0.0185945 0.0558039 
0.0216672 0.00560291 0.0510344 
0.0193987 0.0111116 0.0484021 
0.0165622 0.0150597 0.0467777 
0.0133534 0.0179931 0.0458093 
0.00983932 0.0201062 0.0453722 
0.0060624 0.0215251 0.0453856 
0.00202366 0.0222651 0.0458408 
-0.00231293 0.0222457 0.0467912 
-0.00702938 0.0212705 0.0483658 
-0.0124224 0.0186008 0.0510475 
0.0216527 0.00561729 0.0462916 
0.0204424 0.0139448 0.0418499 
0.0174976 0.0175757 0.0404344 
0.014226 0.0203162 0.0395922 
0.0107036 0.0223817 0.0391855 
0.00693803 0.0238048 0.0391941 
0.00293439 0.0246106 0.0396028 
-0.00134422 0.024715 0.0404669 
-0.00593989 0.0240231 0.0418492 
-0.0124023 0.0186012 0.0463051 
0.022983 0.00925143 0.0392341 
0.0213325 0.0163671 0.0355861 
0.019268 0.0223117 0.0326858 
0.016117 0.0253298 0.031665 
0.0126655 0.0275396 0.0311635 
0.00890454 0.0289318 0.0311884 
0.00488066 0.0296425 0.0316533 
0.000504878 0.0294547 0.0326992 
-0.00507762 0.0261936 0.035733 
-0.0109489 0.0222531 0.0392111 
0.0272815 0.00930229 0.0335778 
0.0258037 0.0168971 0.0296387 
0.0230702 0.0210564 0.0278931 
0.0199352 0.0241144 0.0268504 
0.0165847 0.0265831 0.0261841 
0.0130353 0.0285163 0.0258604 
0.00928584 0.0299213 0.0258757 
0.00536093 0.0308714 0.0261834 
0.00122705 0.0312886 0.0268345 
-0.00316582 0.0310543 0.0279061 
-0.00796255 0.0298112 0.0296295 
-0.0141053 0.0251913 0.0335326 
0.0300798 0.00530588 0.0305169 
0.0285527 0.0128101 0.0266544 
0.0259998 0.0174777 0.0245934 
0.0231038 0.0211871 0.0231404 
0.0199461 0.0241723 0.0221473 
0.0165823 0.0265938 0.0215129 
0.0130322 0.0285138 0.0211981 
0.00929244 0.0299328 0.0212033 
0.00536499 0.030865 0.0215204 
0.00125048 0.0313209 0.0221432 
-0.00310311 0.0311758 0.0231524 
-0.00771402 0.0303941 0.0245717 
-0.0127299 0.0286133 0.0266351 
-0.0189077 0.0239456 0.0305569 
0.030583 0.00675445 0.024913 
0.0285462 0.0128574 0.0219529 
0.0259931 0.0175122 0.0199073 
0.0230927 0.0211982 0.018474 
0.0199431 0.0241932 0.0174778 
0.0165798 0.0266044 0.0168515 
0.0130234 0.0284966 0.0165547 
0.00928893 0.029918 0.0165575 
0.00536694 0.0308531 0.0168705 
0.00125097 0.031294 0.0174994 
-0.0030885 0.0311741 0.0184876 
-0.00770061 0.0303781 0.0199095 
-0.0126834 0.02867 0.0219172 
-0.0182715 0.0254752 0.0248797 
0.0311538 -0.00333883 0.0257017 
0.0305812 0.00682668 0.0201948 
0.0285259 0.0128671 0.0172851 
0.0259717 0.0175073 0.015256 
0.0230192 0.0210419 0.0139233 
0.0198754 0.0240422 0.0129269 
0.0165168 0.0264552 0.0123011 
0.0129663 0.0283523 0.0120015 
0.00923305 0.0297665 0.0120081 
0.00531485 0.0307011 0.0123193 
0.00119874 0.0311313 0.0129516 
-0.00314178 0.0309984 0.0139433 
-0.00768739 0.0303617 0.0152572 
-0.0126489 0.0286963 0.0172287 
-0.0182509 0.0254552 0.0202079 
-0.0254535 0.0182633 0.0257128 
0.0311635 -0.0032227 0.0209449 
0.0305669 0.00686453 0.0155082 
0.0284338 0.0126821 0.0127493 
0.0258916 0.0173441 0.0107139 
0.0230088 0.0210547 0.00927478 
0.0198674 0.0240496 0.00828481 
0.0165117 0.0264588 0.00766304 
0.0129645 0.0283533 0.00736546 
0.00923496 0.0297658 0.00737211 
0.00532087 0.0306998 0.00768151 
0.00120932 0.0311306 0.00831007 
-0.00312613 0.0309995 0.00929566 
-0.0077317 0.0301988 0.0107074 
-0.0127078 0.0284863 0.0127 
-0.0182304 0.0254353 0.0155457 
-0.0253509 0.0184373 0.0209044 
0.0311379 -0.00320324 0.0162587 
0.0304635 0.00665947 0.0109834 
0.0284209 0.0127117 0.00808774 
0.0258795 0.0173639 0.00606567 
0.0229984 0.0210674 0.00463591 
0.0198594 0.0240571 0.00365232 
0.0165066 0.0264624 0.00303456 
0.0129627 0.0283542 0.00273896 
0.00923686 0.0297651 0.00274568 
0.00532688 0.0306986 0.0030533 
0.00121987 0.0311299 0.00367808 
-0.00311052 0.0310005 0.00465766 
-0.00771039 0.0302033 0.00606065 
-0.0126777 0.0285019 0.00803726 
-0.0182955 0.0251997 0.0110295 
-0.0253031 0.0184744 0.0161933 
0.0308999 -0.00376672 0.0119454 
0.0304513 0.00670288 0.0063121 
0.0284081 0.0127413 0.00343582 
0.0258675 0.0173837 0.00142706 
0.0229881 0.0210801 6.58019e-06 
0.0198515 0.0240645 -0.000970656 
0.0165015 0.026466 -0.00158442 
0.0129609 0.0283551 -0.00187806 
0.00923876 0.0297644 -0.00187125 
0.00533288 0.0306973 -0.00156543 
0.0012304 0.0311291 -0.0009444 
-0.00309495 0.0310016 2.91963e-05 
-0.00768913 0.0302077 0.00142351 
-0.0126476 0.0285175 0.0033842 
-0.018256 0.0252276 0.00635581 
-0.0254266 0.0180827 0.0117624 
0.0309196 -0.00362377 0.00720031 
0.0304392 0.00674621 0.00165053 
0.0283953 0.0127707 -0.00120648 
0.0258555 0.0174035 -0.00320202 
0.0229778 0.0210928 -0.00461326 
0.0198435 0.024072 -0.00558418 
0.0164964 0.0264696 -0.00619397 
0.0129591 0.0283561 -0.00648565 
0.00924065 0.0297638 -0.00647877 
0.00533887 0.0306961 -0.00617472 
0.00124092 0.0311284 -0.00555743 
-0.0030794 0.0310027 -0.00458979 
-0.0076679 0.0302121 -0.00320411 
-0.0126176 0.0285331 -0.00125923 
-0.0182167 0.0252553 0.00169181 
-0.0253621 0.018162 0.00704333 
0.0309392 -0.00348112 0.00246553 
0.0304271 0.00678944 -0.0030014 
0.0283825 0.0128001 -0.00583924 
0.0258435 0.0174232 -0.00782162 
0.0229675 0.0211054 -0.00922366 
0.0198356 0.0240794 -0.0101883 
0.0164913 0.0264732 -0.0107941 
0.0129573 0.028357 -0.0110839 
0.00924254 0.0297631 -0.0110769 
0.00534484 0.0306948 -0.0107746 
0.00125141 0.0311277 -0.0101611 
-0.00306389 0.0310037 -0.00919934 
-0.00764672 0.0302165 -0.00782226 
-0.0125876 0.0285486 -0.0058931 
-0.0181774 0.025283 -0.00296252 
-0.0252977 0.0182412 0.00233433 
0.0309587 -0.00333879 -0.00225899 
0.030415 0.00683259 -0.00764374 
0.0283698 0.0128295 -0.0104625 
0.0258315 0.0174429 -0.0124318 
0.0229572 0.0211181 -0.0138247 
0.0198276 0.0240868 -0.0147831 
0.0164862 0.0264768 -0.015385 
0.0129556 0.0283579 -0.0156728 
0.00924443 0.0297624 -0.0156657 
0.0053508 0.0306936 -0.0153652 
0.00126187 0.031127 -0.0147554 
-0.00304841 0.0310048 -0.0137995 
-0.00762558 0.0302209 -0.012431 
-0.0125577 0.0285641 -0.0105175 
-0.0181382 0.0253107 -0.00760723 
-0.0252334 0.0183202 -0.00236467 
0.0309783 -0.00319676 -0.00697332 
0.0304029 0.00687565 -0.0122765 
0.028357 0.0128588 -0.0150763 
0.0258196 0.0174625 -0.0170326 
0.022947 0.0211306 -0.0184164 
0.0198197 0.0240942 -0.0193686 
0.0164812 0.0264804 -0.0199665 
0.0129538 0.0283589 -0.0202524 
0.00924631 0.0297618 -0.0202453 
0.00535675 0.0306924 -0.0199465 
0.00127232 0.0311263 -0.0193404 
-0.00303296 0.0310058 -0.0183904 
-0.00760449 0.0302253 -0.0170304 
-0.0125279 0.0285795 -0.0151324 
-0.0180991 0.0253383 -0.0122424 
-0.0251692 0.0183991 -0.00705373 
0.0309977 -0.00305504 -0.0116775 
0.0303909 0.00691861 -0.0168999 
0.0283443 0.012888 -0.0196808 
0.0258076 0.0174821 -0.0216241 
0.0229368 0.0211432 -0.0229988 
0.0198119 0.0241015 -0.0239448 
0.0164761 0.0264839 -0.0245389 
0.012952 0.0283598 -0.0248229 
0.00924819 0.0297611 -0.0248157 
0.00536269 0.0306911 -0.0245187 
0.00128275 0.0311256 -0.0239161 
-0.00301754 0.0310069 -0.022972 
-0.00758344 0.0302296 -0.0216205 
-0.0124981 0.028595 -0.0197379 
-0.0180601 0.0253659 -0.016868 
-0.0251052 0.0184777 -0.0117329 
0.0310172 -0.00291363 -0.0163716 
0.0303789 0.0069615 -0.0215138 
0.0283317 0.0129172 -0.0242759 
0.0257957 0.0175017 -0.0262063 
0.0229265 0.0211558 -0.0275721 
0.019804 0.0241089 -0.0285119 
0.0164711 0.0264875 -0.0291021 
0.0129502 0.0283607 -0.0293842 
0.00925007 0.0297604 -0.0293769 
0.00536862 0.0306899 -0.0290816 
0.00129315 0.0311248 -0.0284828 
-0.00300215 0.0310079 -0.0275445 
-0.00756243 0.030234 -0.0262014 
-0.0124684 0.0286104 -0.0243341 
-0.0180211 0.0253934 -0.0214842 
-0.0250414 0.0185563 -0.0164023 
0.0310366 -0.00277251 -0.0210558 
0.0303669 0.00700429 -0.0261183 
0.028319 0.0129463 -0.0288618 
0.0257839 0.0175212 -0.0307794 
0.0229164 0.0211683 -0.0321361 
0.0197961 0.0241162 -0.0330698 
0.0164661 0.026491 -0.0336562 
0.0129484 0.0283616 -0.0339364 
0.00925194 0.0297598 -0.033929 
0.00537453 0.0306887 -0.0336355 
0.00130354 0.0311241 -0.0330403 
-0.00298679 0.031009 -0.0321077 
-0.00754146 0.0302384 -0.030773 
-0.0124387 0.0286257 -0.028921 
-0.0179823 0.0254208 -0.0260911 
-0.0249776 0.0186346 -0.0210619 
0.0310559 -0.00263169 -0.0257299 
0.0303549 0.007047 -0.0307136 
0.0283064 0.0129753 -0.0334385 
0.025772 0.0175407 -0.0353433 
0.0229062 0.0211808 -0.0366911 
0.0197883 0.0241235 -0.0376187 
0.016461 0.0264946 -0.0382012 
0.0129467 0.0283625 -0.0384795 
0.00925381 0.0297591 -0.0384721 
0.00538043 0.0306874 -0.0381803 
0.0013139 0.0311234 -0.0375887 
-0.00297146 0.03101 -0.0366619 
-0.00752054 0.0302427 -0.0353356 
-0.0124106 0.0286371 -0.0334963 
-0.0179435 0.0254482 -0.0306886 
-0.024914 0.0187128 -0.0257118 
0.0310753 -0.00249117 -0.0303942 
0.030343 0.00708962 -0.0352995 
0.0282938 0.0130043 -0.038006 
0.0257602 0.0175601 -0.0398981 
0.022896 0.0211932 -0.0412371 
0.0197804 0.0241308 -0.0421586 
0.016456 0.0264981 -0.0427373 
0.0129449 0.0283635 -0.0430137 
0.00925567 0.0297584 -0.0430062 
0.00538632 0.0306862 -0.0427161 
0.00132424 0.0311227 -0.0421281 
-0.00295616 0.0310111 -0.0412071 
-0.00749966 0.030247 -0.039889 
-0.0123833 0.0286469 -0.0380615 
-0.0179048 0.0254755 -0.0352768 
-0.0248505 0.0187908 -0.0303521 
0.0310945 -0.00235095 -0.0350486 
0.0303311 0.00713216 -0.0398763 
0.0282812 0.0130333 -0.0425644 
0.0257484 0.0175795 -0.0444439 
0.0228859 0.0212057 -0.045774 
0.0198299 0.0242903 -0.0467809 
0.0165071 0.0266498 -0.0473535 
0.0129979 0.0285082 -0.0476255 
0.009313 0.0299025 -0.0476186 
0.00544706 0.0308273 -0.0473288 
0.00139144 0.0312687 -0.0467471 
-0.0029409 0.0310121 -0.0457433 
-0.00747881 0.0302514 -0.0444335 
-0.012356 0.0286566 -0.0426176 
-0.0178661 0.0255028 -0.0398558 
-0.0247872 0.0188687 -0.0349828 
0.0311138 -0.00221102 -0.0396933 
0.0303192 0.00717461 -0.044444 
0.0283444 0.0132671 -0.0472361 
0.0258088 0.0177931 -0.0490967 
0.0229371 0.0213819 -0.0504 
0.0198187 0.0242886 -0.0512972 
0.0165014 0.0266514 -0.0518702 
0.0130013 0.0285228 -0.0521497 
0.00932348 0.0299244 -0.0521481 
0.00545496 0.0308314 -0.0518496 
0.00141012 0.0312896 -0.0512813 
-0.00285821 0.0311861 -0.0503745 
-0.00738867 0.0304325 -0.0490753 
-0.0122542 0.0288553 -0.0472784 
-0.0178276 0.02553 -0.0444257 
-0.024724 0.0189464 -0.039604 
0.0311269 -0.00208799 -0.0443184 
0.0304033 0.0074785 -0.0491579 
0.0283377 0.0133117 -0.0517854 
0.0257923 0.0177995 -0.0536164 
0.0229268 0.0213938 -0.0549184 
0.0198062 0.0242834 -0.0558026 
0.0164941 0.0266488 -0.0563756 
0.0130043 0.028536 -0.0566643 
0.00932315 0.029918 -0.0566517 
0.00546284 0.0308354 -0.0563616 
0.00142876 0.0313105 -0.0558065 
-0.00283679 0.0312031 -0.054902 
-0.00736042 0.0304559 -0.0536129 
-0.0122278 0.028863 -0.0518149 
-0.0176794 0.0258336 -0.0491523 
-0.0246609 0.0190239 -0.0442157 
0.0312884 -0.0015586 -0.0491744 
0.0304057 0.00755947 -0.0537297 
0.028331 0.0133561 -0.0563256 
0.0257751 0.0178042 -0.0581263 
0.0229156 0.0214032 -0.0594266 
0.0197938 0.0242783 -0.0602993 
0.0164722 0.0266075 -0.0608493 
0.0129768 0.0284693 -0.0611225 
0.00929975 0.0298515 -0.0611109 
0.00545958 0.0308106 -0.0608476 
0.0014456 0.0313267 -0.0603201 
-0.002823 0.0312006 -0.059409 
-0.00733223 0.0304792 -0.0581415 
-0.0122048 0.0288623 -0.0563374 
-0.0176252 0.0259005 -0.0537271 
-0.0244128 0.0195652 -0.0490954 
0.031309 -0.00141538 -0.0537916 
0.0303958 0.0076068 -0.0582726 
0.0283044 0.0133464 -0.0608249 
0.0255748 0.017316 -0.0623367 
0.0225111 0.0203607 -0.0633048 
0.019223 0.0227891 -0.0639102 
0.0157801 0.0247957 -0.0642673 
0.0122235 0.0264967 -0.0644441 
0.00854816 0.0278842 -0.0644356 
0.0047716 0.0290091 -0.0642717 
0.000866339 0.0298055 -0.0639127 
-0.00320814 0.0301752 -0.0632999 
-0.00750608 0.0299876 -0.0623552 
-0.012201 0.0288129 -0.0608222 
-0.0175857 0.0259305 -0.0582707 
-0.0243429 0.01966 -0.0536977 
0.0313017 -0.00134889 -0.0583545 
0.0300997 0.00687491 -0.0623493 
0.0274754 0.011165 -0.0640403 
0.0243731 0.0141339 -0.0649575 
0.0209245 0.0161577 -0.0653205 
0.0154606 0.0128178 -0.0625272 
0.011773 0.0142269 -0.0625272 
0.00808528 0.0156358 -0.0625272 
0.00439747 0.0170444 -0.0625272 
0.000709543 0.0184528 -0.0625272 
-0.00297852 0.0198609 -0.0625272 
-0.00482529 0.0259907 -0.0653192 
-0.00874212 0.0267884 -0.0649604 
-0.013033 0.0266455 -0.0640442 
-0.0178387 0.0252236 -0.0623688 
-0.0242507 0.019811 -0.058324 
0.0308384 -0.00253214 -0.0621786 
0.0286773 0.0030753 -0.0646282 
0.0254268 0.00568274 -0.0653272 
0.0199587 0.00230967 -0.0625272 
0.0162596 0.00372396 -0.0625272 
0.0125604 0.00513792 -0.0625272 
0.0088612 0.00655157 -0.0625272 
0.00516189 0.00796491 -0.0625272 
0.00146249 0.00937796 -0.0625272 
-0.00223703 0.0107907 -0.0625272 
-0.0059367 0.0122032 -0.0625272 
-0.00963655 0.0136154 -0.0625272 
-0.0133366 0.0150273 -0.0625272 
-0.0151635 0.0211869 -0.0653272 
-0.0193168 0.0214299 -0.0646397 
-0.0246432 0.0187478 -0.0622237 
0.0289659 -0.00757636 -0.0637546 
0.0262447 -0.00347462 -0.0653163 
0.0214875 -0.00491641 -0.0636519 
0.0170633 -0.00542827 -0.0625272 
0.0133525 -0.00400942 -0.0625272 
0.00964168 -0.00259093 -0.0625272 
0.00593081 -0.00117277 -0.0625272 
0.00221985 0.000245054 -0.0625272 
-0.00149121 0.00166256 -0.0625272 
-0.00520241 0.00307974 -0.0625272 
-0.00891377 0.00449663 -0.0625272 
-0.0126253 0.00591321 -0.0625272 
-0.0163371 0.00732951 -0.0625272 
-0.0193188 0.0105962 -0.0636141 
-0.0218785 0.0149056 -0.0653157 
-0.0266248 0.0137037 -0.0637782 
0.0255058 -0.0169703 -0.0628273 
0.0233684 -0.0112326 -0.0653272 
0.0187168 -0.0123523 -0.0638539 
0.0141492 -0.0132158 -0.0625272 
0.0104268 -0.0117924 -0.0625272 
0.00670423 -0.0103693 -0.0625272 
0.00298164 -0.00894662 -0.0625272 
-0.000741044 -0.00752429 -0.0625272 
-0.00446385 -0.0061023 -0.0625272 
-0.0081868 -0.00468066 -0.0625272 
-0.0119099 -0.00325934 -0.0625272 
-0.0156332 -0.00183835 -0.0625272 
-0.0193567 -0.000417662 -0.0625272 
-0.0221761 0.00329499 -0.0638679 
-0.0249062 0.00720659 -0.0653272 
-0.0303187 0.00436908 -0.0628356 
0.0202026 -0.0197782 -0.0649124 
0.01659 -0.0180456 -0.0650896 
0.0120502 -0.0188107 -0.0638236 
0.00766325 -0.0191413 -0.0628072 
0.00374788 -0.0181978 -0.0625272 
1.34929e-05 -0.0167705 -0.0625272 
-0.003721 -0.0153436 -0.0625272 
-0.00745562 -0.0139171 -0.0625272 
-0.0111904 -0.012491 -0.0625272 
-0.0149253 -0.0110652 -0.0625272 
-0.0184651 -0.00913874 -0.0628186 
-0.0215327 -0.00601399 -0.063808 
-0.0244084 -0.00242243 -0.065071 
-0.0282395 -0.00126313 -0.0649184 
0.0100731 -0.0240776 -0.0653272 
0.0060496 -0.0234159 -0.0648852 
0.00190766 -0.0230599 -0.0642664 
-0.00209662 -0.0223277 -0.0638641 
-0.00596765 -0.0212374 -0.0636682 
-0.00970825 -0.0198026 -0.0636712 
-0.0133165 -0.0180244 -0.063873 
-0.0167894 -0.0159012 -0.0642751 
-0.0201234 -0.0134295 -0.0648797 
-0.0235598 -0.0112309 -0.0653272 
-0.00804598 -0.0266892 -0.0650831 
-0.0118284 -0.0253424 -0.0650339 
0.0221255 0.00342922 0.0583442 
0.0180253 0.0132603 0.0580944 
0.0139939 0.0174592 0.0579875 
0.00998438 0.0200256 0.057922 
0.00598653 0.021581 0.0578822 
0.00199488 0.0222951 0.057864 
-0.00199488 0.0222951 0.057864 
-0.00598654 0.0215796 0.0578823 
-0.00998438 0.0200256 0.057922 
-0.0139939 0.0174592 0.0579875 
-0.0180253 0.0132603 0.0580944 
-0.0221255 0.00342926 0.0583442 
0.0221259 0.0033829 0.05432 
0.0180253 0.0132625 0.0540863 
0.0139939 0.0174649 0.0539866 
0.00998435 0.0200335 0.0539256 
0.00598656 0.0215714 0.053889 
0.00199488 0.0222981 0.0538718 
-0.00199488 0.0222981 0.0538718 
-0.00598658 0.0215639 0.0538892 
-0.00998435 0.0200335 0.0539256 
-0.0139939 0.0174649 0.0539866 
-0.0180253 0.0132625 0.0540863 
-0.0221259 0.00338532 0.0543199 
0.0221264 0.00333835 0.0502959 
0.0180252 0.0132648 0.0500786 
0.0139938 0.0174705 0.0499862 
0.00998431 0.0200414 0.0499296 
0.00598659 0.0215585 0.0498962 
0.00199489 0.0222841 0.0498802 
-0.00199489 0.0222841 0.0498802 
-0.00598662 0.0215482 0.0498965 
-0.00998431 0.0200414 0.0499296 
-0.0139938 0.0174706 0.0499862 
-0.0180252 0.0132648 0.0500786 
-0.0221263 0.00334138 0.0502959 
0.0221268 0.0032938 0.046272 
0.0180253 0.0132636 0.0460712 
0.0139938 0.0174666 0.0459863 
0.00998429 0.0200472 0.045934 
0.00598662 0.0215455 0.0459037 
0.00199491 0.0222677 0.045889 
-0.00199491 0.0222677 0.045889 
-0.00598665 0.0215375 0.0459038 
-0.00998429 0.0200472 0.045934 
-0.0139938 0.0174667 0.0459863 
-0.0180253 0.0132636 0.0460712 
-0.0221268 0.00329744 0.046272 
0.0220502 0.0112753 0.0421011 
0.017996 0.0169892 0.0419958 
0.0139755 0.0204757 0.0419314 
0.0099729 0.0226567 0.041891 
0.00598016 0.0240135 0.0418659 
0.00199282 0.0246642 0.0418538 
-0.00199282 0.0246613 0.0418539 
-0.00598016 0.0240135 0.0418659 
-0.0099729 0.0226562 0.041891 
-0.0139755 0.0204757 0.0419314 
-0.017996 0.0169858 0.0419958 
-0.0220502 0.0112745 0.0421012 
0.0220495 0.0113436 0.0380896 
0.0179954 0.0170676 0.0379941 
0.0139755 0.0204744 0.0379371 
0.00997275 0.0226913 0.0379 
0.00598002 0.0240695 0.037877 
0.00199278 0.0247055 0.0378663 
-0.00199279 0.0246923 0.0378665 
-0.00598002 0.0240695 0.037877 
-0.00997276 0.0226889 0.0379001 
-0.0139755 0.0204744 0.0379371 
-0.0179954 0.017066 0.0379941 
-0.0220495 0.0113436 0.0380896 
0.0260588 0.011346 0.0340801 
0.021984 0.0181723 0.0339782 
0.0179548 0.0222364 0.0339174 
0.0139478 0.0249983 0.033876 
0.00995453 0.026867 0.033848 
0.00596966 0.0280256 0.0338306 
0.00198938 0.0285982 0.033822 
-0.00198938 0.0285982 0.033822 
-0.00596966 0.0280256 0.0338306 
-0.00995453 0.026867 0.033848 
-0.0139478 0.0249983 0.033876 
-0.0179548 0.0222364 0.0339174 
-0.021984 0.0181723 0.0339782 
-0.0260588 0.011346 0.0340801 
0.0301431 0.00563449 0.0301456 
0.0260017 0.0163803 0.0300043 
0.0219519 0.0215157 0.0299365 
0.017933 0.025011 0.0298903 
0.013933 0.0274272 0.0298583 
0.0099446 0.0291429 0.0298356 
0.00596399 0.0301916 0.0298217 
0.00198752 0.0307293 0.0298146 
-0.00198752 0.0307293 0.0298146 
-0.00596399 0.0301916 0.0298217 
-0.0099446 0.0291429 0.0298356 
-0.013933 0.0274272 0.0298583 
-0.017933 0.025011 0.0298903 
-0.0219519 0.0215157 0.0299365 
-0.0260017 0.0163803 0.0300043 
-0.0301431 0.00563451 0.0301456 
0.0301029 0.00869872 0.0260911 
0.0259892 0.0174857 0.0259908 
0.0219438 0.0223517 0.0259351 
0.0179275 0.0257039 0.0258967 
0.0139291 0.0280649 0.0258696 
0.00994206 0.0297255 0.0258505 
0.00596252 0.0307532 0.0258387 
0.00198704 0.0312813 0.0258327 
-0.00198704 0.0312813 0.0258327 
-0.00596252 0.0307513 0.0258387 
-0.00994206 0.0297255 0.0258505 
-0.0139291 0.0280658 0.0258696 
-0.0179275 0.0257039 0.0258967 
-0.0219438 0.0223517 0.0259351 
-0.0259892 0.0174857 0.0259908 
-0.0301029 0.00869872 0.0260911 
0.0301033 0.00867064 0.0220771 
0.0259889 0.0175072 0.0219918 
0.0219438 0.0223532 0.0219448 
0.0179276 0.0256961 0.0219124 
0.0139292 0.0280462 0.0218896 
0.00994208 0.0297213 0.0218733 
0.00596253 0.0307484 0.0218633 
0.00198705 0.0312689 0.0218583 
-0.00198705 0.0312689 0.0218583 
-0.00596258 0.03073 0.0218635 
-0.00994208 0.0297213 0.0218733 
-0.0139292 0.0280528 0.0218895 
-0.0179276 0.0256961 0.0219124 
-0.0219438 0.0223532 0.0219448 
-0.0259889 0.0175072 0.0219918 
-0.0301033 0.00867064 0.0220771 
0.0301046 0.0085735 0.0180636 
0.0259889 0.0175116 0.017993 
0.021944 0.0223391 0.0179548 
0.0179278 0.0256664 0.0179284 
0.0139293 0.0280308 0.0179096 
0.00994219 0.0296947 0.0178964 
0.00596257 0.030734 0.0178881 
0.00198707 0.0312459 0.017884 
-0.00198707 0.0312459 0.017884 
-0.0059626 0.0307241 0.0178882 
-0.00994219 0.0296947 0.0178964 
-0.0139293 0.0280358 0.0179096 
-0.0179278 0.0256665 0.0179284 
-0.021944 0.0223391 0.0179548 
-0.0259889 0.0175116 0.017993 
-0.0301046 0.0085735 0.0180636 
0.0301133 0.00790952 0.0140534 
0.0259926 0.0171779 0.0139965 
0.0219462 0.0221082 0.0139661 
0.0179295 0.0254581 0.0139455 
0.0139304 0.0278528 0.0139307 
0.00994298 0.0295142 0.0139204 
0.00596301 0.0305664 0.0139139 
0.00198722 0.0310774 0.0139107 
-0.00198722 0.0310774 0.0139107 
-0.00596301 0.0305664 0.0139139 
-0.00994298 0.0295142 0.0139204 
-0.0139304 0.0278528 0.0139307 
-0.0179295 0.0254581 0.0139455 
-0.0219462 0.0221082 0.0139661 
-0.0259926 0.0171779 0.0139965 
-0.0301133 0.00790952 0.0140534 
0.0301133 0.00790952 0.0100381 
0.0259926 0.0171779 0.00999745 
0.0219462 0.0221082 0.00997575 
0.0179295 0.0254581 0.00996098 
0.0139304 0.0278528 0.00995041 
0.00994298 0.0295142 0.00994307 
0.00596301 0.0305664 0.00993842 
0.00198722 0.0310774 0.00993616 
-0.00198722 0.0310774 0.00993616 
-0.00596301 0.0305664 0.00993842 
-0.00994298 0.0295142 0.00994307 
-0.0139304 0.0278528 0.00995041 
-0.0179295 0.0254581 0.00996098 
-0.0219462 0.0221082 0.00997575 
-0.0259926 0.0171779 0.00999745 
-0.0301133 0.00790952 0.0100381 
0.0301133 0.00790952 0.00602284 
0.0259926 0.0171779 0.00599845 
0.0219462 0.0221082 0.00598543 
0.0179295 0.0254581 0.00597657 
0.0139304 0.0278528 0.00597022 
0.00994298 0.0295142 0.00596582 
0.00596301 0.0305664 0.00596303 
0.00198722 0.0310774 0.00596167 
-0.00198722 0.0310774 0.00596167 
-0.00596301 0.0305664 0.00596303 
-0.00994298 0.0295142 0.00596582 
-0.0139304 0.0278528 0.00597022 
-0.0179295 0.0254581 0.00597657 
-0.0219462 0.0221082 0.00598543 
-0.0259926 0.0171779 0.00599845 
-0.0301133 0.00790952 0.00602284 
0.0301133 0.00790952 0.00200761 
0.0259926 0.0171779 0.00199948 
0.0219462 0.0221082 0.00199514 
0.0179295 0.0254581 0.00199218 
0.0139304 0.0278528 0.00199007 
0.00994298 0.0295142 0.0019886 
0.00596301 0.0305664 0.00198767 
0.00198722 0.0310774 0.00198722 
-0.00198722 0.0310774 0.00198722 
-0.00596301 0.0305664 0.00198767 
-0.00994298 0.0295142 0.0019886 
-0.0139304 0.0278528 0.00199007 
-0.0179295 0.0254581 0.00199218 
-0.0219462 0.0221082 0.00199514 
-0.0259926 0.0171779 0.00199948 
-0.0301133 0.00790952 0.00200761 
0.0301133 0.00790952 -0.00200761 
0.0259926 0.0171779 -0.00199948 
0.0219462 0.0221082 -0.00199514 
0.0179295 0.0254581 -0.00199218 
0.0139304 0.0278528 -0.00199007 
0.00994298 0.0295142 -0.0019886 
0.00596301 0.0305664 -0.00198767 
0.00198722 0.0310774 -0.00198722 
-0.00198722 0.0310774 -0.00198722 
-0.00596301 0.0305664 -0.00198767 
-0.00994298 0.0295142 -0.0019886 
-0.0139304 0.0278528 -0.00199007 
-0.0179295 0.0254581 -0.00199218 
-0.0219462 0.0221082 -0.00199514 
-0.0259926 0.0171779 -0.00199948 
-0.0301133 0.00790952 -0.00200761 
0.0301133 0.00790952 -0.00602284 
0.0259926 0.0171779 -0.00599845 
0.0219462 0.0221082 -0.00598543 
0.0179295 0.0254581 -0.00597657 
0.0139304 0.0278528 -0.00597022 
0.00994298 0.0295142 -0.00596582 
0.00596301 0.0305664 -0.00596303 
0.00198722 0.0310774 -0.00596167 
-0.00198722 0.0310774 -0.00596167 
-0.00596301 0.0305664 -0.00596303 
-0.00994298 0.0295142 -0.00596582 
-0.0139304 0.0278528 -0.00597022 
-0.0179295 0.0254581 -0.00597657 
-0.0219462 0.0221082 -0.00598543 
-0.0259926 0.0171779 -0.00599845 
-0.0301133 0.00790952 -0.00602284 
0.0301133 0.00790952 -0.0100381 
0.0259926 0.0171779 -0.00999745 
0.0219462 0.0221082 -0.00997575 
0.0179295 0.0254581 -0.00996098 
0.0139304 0.0278528 -0.00995041 
0.00994298 0.0295142 -0.00994307 
0.00596301 0.0305664 -0.00993842 
0.00198722 0.0310774 -0.00993616 
-0.00198722 0.0310774 -0.00993616 
-0.00596301 0.0305664 -0.00993842 
-0.00994298 0.0295142 -0.00994307 
-0.0139304 0.0278528 -0.00995041 
-0.0179295 0.0254581 -0.00996098 
-0.0219462 0.0221082 -0.00997575 
-0.0259926 0.0171779 -0.00999745 
-0.0301133 0.00790952 -0.0100381 
0.0301133 0.00790952 -0.0140534 
0.0259926 0.0171779 -0.0139965 
0.0219462 0.0221082 -0.0139661 
0.0179295 0.0254581 -0.0139455 
0.0139304 0.0278528 -0.0139307 
0.00994298 0.0295142 -0.0139204 
0.00596301 0.0305664 -0.0139139 
0.00198722 0.0310774 -0.0139107 
-0.00198722 0.0310774 -0.0139107 
-0.00596301 0.0305664 -0.0139139 
-0.00994298 0.0295142 -0.0139204 
-0.0139304 0.0278528 -0.0139307 
-0.0179295 0.0254581 -0.0139455 
-0.0219462 0.0221082 -0.0139661 
-0.0259926 0.0171779 -0.0139965 
-0.0301133 0.00790952 -0.0140534 
0.0301133 0.00790952 -0.0180689 
0.0259926 0.0171779 -0.0179957 
0.0219462 0.0221082 -0.0179566 
0.0179295 0.0254581 -0.01793 
0.0139304 0.0278528 -0.017911 
0.00994298 0.0295142 -0.0178978 
0.00596301 0.0305664 -0.0178894 
0.00198722 0.0310774 -0.0178853 
-0.00198722 0.0310774 -0.0178853 
-0.00596301 0.0305664 -0.0178894 
-0.00994298 0.0295142 -0.0178978 
-0.0139304 0.0278528 -0.017911 
-0.0179295 0.0254581 -0.01793 
-0.0219462 0.0221082 -0.0179566 
-0.0259926 0.0171779 -0.0179957 
-0.0301133 0.00790952 -0.0180689 
0.0301133 0.00790952 -0.0220844 
0.0259926 0.0171779 -0.0219949 
0.0219462 0.0221082 -0.0219472 
0.0179295 0.0254581 -0.0219147 
0.0139304 0.0278528 -0.0218914 
0.00994298 0.0295142 -0.0218753 
0.00596301 0.0305664 -0.0218651 
0.00198722 0.0310774 -0.0218601 
-0.00198722 0.0310774 -0.0218601 
-0.00596301 0.0305664 -0.0218651 
-0.00994298 0.0295142 -0.0218753 
-0.0139304 0.0278528 -0.0218914 
-0.0179295 0.0254581 -0.0219147 
-0.0219462 0.0221082 -0.0219472 
-0.0259926 0.0171779 -0.0219949 
-0.0301133 0.00790952 -0.0220844 
0.0301133 0.00790952 -0.0261 
0.0259926 0.0171779 -0.0259943 
0.0219462 0.0221082 -0.0259379 
0.0179295 0.0254581 -0.0258995 
0.0139304 0.0278528 -0.025872 
0.00994298 0.0295142 -0.0258529 
0.00596301 0.0305664 -0.0258408 
0.00198722 0.0310774 -0.025835 
-0.00198722 0.0310774 -0.025835 
-0.00596301 0.0305664 -0.0258408 
-0.00994298 0.0295142 -0.0258529 
-0.0139304 0.0278528 -0.025872 
-0.0179295 0.0254581 -0.0258995 
-0.0219462 0.0221082 -0.0259379 
-0.0259926 0.0171779 -0.0259943 
-0.0301133 0.00790952 -0.0261 
0.0301133 0.00790952 -0.0301159 
0.0259926 0.0171779 -0.0299939 
0.0219462 0.0221082 -0.0299288 
0.0179295 0.0254581 -0.0298845 
0.0139304 0.0278528 -0.0298528 
0.00994298 0.0295142 -0.0298307 
0.00596301 0.0305664 -0.0298168 
0.00198722 0.0310774 -0.02981 
-0.00198722 0.0310774 -0.02981 
-0.00596301 0.0305664 -0.0298168 
-0.00994298 0.0295142 -0.0298307 
-0.0139304 0.0278528 -0.0298528 
-0.0179295 0.0254581 -0.0298845 
-0.0219462 0.0221082 -0.0299288 
-0.0259926 0.0171779 -0.0299939 
-0.0301133 0.00790952 -0.0301159 
0.0301133 0.00790952 -0.0341319 
0.0259926 0.0171779 -0.0339936 
0.0219462 0.0221082 -0.0339198 
0.0179295 0.0254581 -0.0338696 
0.0139304 0.0278528 -0.0338337 
0.00994298 0.0295142 -0.0338087 
0.00596301 0.0305664 -0.0337929 
0.00198722 0.0310774 -0.0337852 
-0.00198722 0.0310774 -0.0337852 
-0.00596301 0.0305664 -0.0337929 
-0.00994298 0.0295142 -0.0338087 
-0.0139304 0.0278528 -0.0338337 
-0.0179295 0.0254581 -0.0338696 
-0.0219462 0.0221082 -0.0339198 
-0.0259926 0.0171779 -0.0339936 
-0.0301133 0.00790952 -0.0341319 
0.0301133 0.00790952 -0.0381481 
0.0259926 0.0171779 -0.0379936 
0.0219462 0.0221082 -0.0379111 
0.0179295 0.0254581 -0.037855 
0.0139304 0.0278528 -0.0378148 
0.00994298 0.0295142 -0.0377869 
0.00596301 0.0305664 -0.0377692 
0.00198722 0.0310774 -0.0377606 
-0.00198722 0.0310774 -0.0377606 
-0.00596301 0.0305664 -0.0377692 
-0.00994298 0.0295142 -0.0377869 
-0.0139304 0.0278528 -0.0378148 
-0.0179295 0.0254581 -0.037855 
-0.0219462 0.0221082 -0.0379111 
-0.0259926 0.0171779 -0.0379936 
-0.0301133 0.00790952 -0.0381481 
0.0301133 0.00790952 -0.0421645 
0.0259926 0.0171779 -0.0419937 
0.0219462 0.0221082 -0.0419026 
0.0179295 0.0254581 -0.0418406 
0.0139304 0.0278528 -0.0417962 
0.00994298 0.0295142 -0.0417653 
0.00596301 0.0305664 -0.0417458 
0.00198722 0.0310774 -0.0417363 
-0.00198722 0.0310774 -0.0417363 
-0.00596301 0.0305664 -0.0417458 
-0.00994298 0.0295142 -0.0417653 
-0.0139304 0.0278528 -0.0417962 
-0.0179295 0.0254581 -0.0418406 
-0.0219462 0.0221082 -0.0419026 
-0.0259926 0.0171779 -0.0419937 
-0.0301133 0.00790952 -0.0421645 
0.0301133 0.00790952 -0.0461812 
0.0259926 0.0171779 -0.0459942 
0.0219462 0.0221082 -0.0458943 
0.0179295 0.0254581 -0.0458264 
0.0139304 0.0278528 -0.0457778 
0.00994298 0.0295142 -0.045744 
0.00596301 0.0305664 -0.0457226 
0.00198722 0.0310774 -0.0457122 
-0.00198722 0.0310774 -0.0457122 
-0.00596301 0.0305664 -0.0457226 
-0.00994298 0.0295142 -0.045744 
-0.0139304 0.0278528 -0.0457778 
-0.0179295 0.0254581 -0.0458264 
-0.0219462 0.0221082 -0.0458943 
-0.0259926 0.0171779 -0.0459942 
-0.0301133 0.00790952 -0.0461812 
0.0301047 0.00856435 -0.0501839 
0.0259889 0.0175059 -0.0499877 
0.021944 0.0223352 -0.0498814 
0.0179279 0.0256623 -0.0498081 
0.0139293 0.0280333 -0.0497557 
0.00994221 0.0296908 -0.0497191 
0.0059626 0.0307232 -0.0496963 
0.00198708 0.0312423 -0.0496848 
-0.00198708 0.0312423 -0.0496848 
-0.00596258 0.0307312 -0.0496961 
-0.00994221 0.0296908 -0.0497191 
-0.0139293 0.0280292 -0.0497558 
-0.0179279 0.0256623 -0.0498081 
-0.021944 0.0223352 -0.0498814 
-0.0259889 0.0175059 -0.0499877 
-0.0301047 0.00856435 -0.0501839 
0.0301036 0.00864669 -0.0541981 
0.0259888 0.017513 -0.053988 
0.0219438 0.0223536 -0.0538729 
0.0179277 0.0256874 -0.0537935 
0.0139292 0.0280477 -0.0537372 
0.00994211 0.0297133 -0.0536975 
0.00596258 0.0307282 -0.0536733 
0.00198706 0.0312618 -0.0536605 
-0.00198706 0.0312618 -0.0536605 
-0.00596254 0.0307466 -0.0536728 
-0.00994211 0.0297133 -0.0536975 
-0.0139293 0.0280406 -0.0537374 
-0.0179277 0.0256874 -0.0537935 
-0.0219438 0.0223536 -0.0538729 
-0.0259888 0.017513 -0.053988 
-0.0301036 0.00864669 -0.0541981 
0.0301028 0.00871032 -0.0582128 
0.0259891 0.0174948 -0.0579892 
0.0219438 0.0223523 -0.0578652 
0.0179275 0.0257073 -0.0577794 
0.0139291 0.0280613 -0.0577191 
0.00994203 0.0297308 -0.0576763 
0.00596255 0.0307412 -0.0576504 
0.00198704 0.0312812 -0.0576365 
-0.00198704 0.0312812 -0.0576365 
-0.00596253 0.030751 -0.0576501 
-0.00994203 0.0297308 -0.0576763 
-0.0139292 0.0280564 -0.0577192 
-0.0179275 0.0257073 -0.0577794 
-0.0219438 0.0223523 -0.0578652 
-0.0259891 0.0174948 -0.0579892 
-0.0301028 0.00871032 -0.0582128 
0.0301266 0.00688865 -0.0622787 
0.0259953 0.0169483 -0.0620051 
0.0219471 0.0220085 -0.0618671 
0.0179296 0.025438 -0.0617733 
0.0139305 0.0278346 -0.0617077 
0.00994295 0.0295218 -0.0616615 
0.00596302 0.0305631 -0.0616329 
0.0019872 0.0310964 -0.0616183 
-0.0019872 0.0310964 -0.0616183 
-0.00596302 0.0305631 -0.0616329 
-0.00994295 0.0295218 -0.0616615 
-0.0139305 0.0278346 -0.0617077 
-0.0179296 0.025438 -0.0617733 
-0.0219471 0.0220085 -0.0618671 
-0.0259953 0.0169483 -0.0620051 
-0.0301266 0.00688857 -0.0622787 
-0.00140636 -0.0205212 0.0603543 
-0.00513715 -0.0190622 0.0603712 
-0.00887915 -0.0176329 0.0603712 
-0.0126318 -0.0162312 0.0603554 
0.00903854 -0.015504 0.0603712 
0.00530867 -0.0140781 0.0603712 
0.00157872 -0.0126526 0.0603712 
-0.00215131 -0.0112275 0.0603712 
-0.00588147 -0.00980266 0.0603712 
-0.00961178 -0.0083782 0.0603712 
-0.0133422 -0.00695408 0.0603712 
-0.0170729 -0.00553028 0.0603712 
0.0156882 -0.00912729 0.0603712 
0.0119701 -0.00770564 0.0603712 
0.00825192 -0.00628435 0.0603712 
0.00453372 -0.00486339 0.0603712 
0.000815432 -0.00344276 0.0603712 
-0.00290296 -0.00202246 0.0603712 
-0.00662149 -0.000602478 0.0603712 
-0.0103402 0.000817204 0.0603712 
-0.014059 0.00223659 0.0603712 
-0.0177781 0.00365569 0.0603712 
0.0216553 -0.00452496 0.0593574 
0.0185893 -0.00137407 0.0603712 
0.0148829 4.30106e-05 0.0603712 
0.0111764 0.00145977 0.0603712 
0.00746989 0.00287621 0.0603712 
0.00376328 0.00429234 0.0603712 
5.65764e-05 0.00570818 0.0603712 
-0.00365025 0.00712373 0.0603712 
-0.00735723 0.00853899 0.0603712 
-0.0110644 0.00995399 0.0603712 
-0.0147717 0.0113687 0.0603712 
-0.019168 0.0110377 0.0593418 
0.0220835 -0.00342876 0.0554701 
0.0211137 0.00536581 0.0598046 
0.0177773 0.00774252 0.0603712 
0.0140824 0.00915476 0.0603712 
0.0103874 0.0105667 0.0603712 
0.00669244 0.0119784 0.0603712 
0.00299735 0.0133898 0.0603712 
-0.000697862 0.0148009 0.0603712 
-0.00439321 0.0162118 0.0603712 
-0.00808871 0.0176224 0.0603712 
-0.0121638 0.0180658 0.059799 
-0.0186899 0.0123087 0.0555541 
0.0220587 -0.00355893 0.0508562 
0.0214776 0.0062937 0.0558322 
0.0191937 0.0114904 0.0580662 
0.0162924 0.0150004 0.0593069 
0.0129752 0.0173862 0.0598848 
0.00943231 0.0191674 0.0601058 
0.00575197 0.0205855 0.0601121 
0.00191716 0.0216026 0.0598809 
-0.0021436 0.0220417 0.0593066 
-0.00663369 0.0213914 0.0580847 
-0.0118171 0.018998 0.0558254 
-0.0187694 0.0121665 0.0509236 
0.0220461 -0.0036559 0.0462526 
0.0214904 0.00627699 0.0512958 
0.0192021 0.0114734 0.0535381 
0.0163943 0.0152431 0.0549373 
0.0132428 0.0180764 0.0557826 
0.00979753 0.0201209 0.0561605 
0.00611802 0.0215465 0.0561709 
0.00217053 0.0222765 0.0557675 
-0.00205788 0.02229 0.0549367 
-0.00664663 0.0213962 0.0535638 
-0.0118481 0.0189679 0.0512734 
-0.0188491 0.0120241 0.0462835 
0.0220321 -0.0153217 0.0356126 
0.022364 -0.00285853 0.0421715 
0.0215032 0.00626025 0.0467507 
0.0192072 0.0114475 0.048996 
0.0164058 0.0152458 0.050417 
0.013247 0.0180707 0.0512601 
0.00980217 0.0201276 0.051646 
0.00611094 0.0215335 0.0516439 
0.00216403 0.0222761 0.0512455 
-0.00207236 0.02228 0.0504047 
-0.00666506 0.0213871 0.0490258 
-0.0118813 0.0189319 0.0467089 
-0.0185749 0.0127787 0.0421715 
-0.0266505 0.00323187 0.0355909 
0.0252277 -0.0066933 0.0361714 
0.0245533 0.00300459 0.0411096 
0.0215159 0.00624317 0.0421964 
0.0192089 0.0114127 0.0444395 
0.016413 0.0152369 0.0458812 
0.0132495 0.0180605 0.046726 
0.00980496 0.0201294 0.0471199 
0.00610385 0.0215205 0.0471081 
0.00215087 0.0222584 0.0467043 
-0.00209081 0.0222598 0.0458576 
-0.00668909 0.0213636 0.0444702 
-0.0118911 0.0189559 0.0421715 
-0.0162802 0.0186531 0.0411365 
-0.0232562 0.0118538 0.036186 
0.0289318 -0.00827868 0.0315008 
0.0274247 -0.000784286 0.0351346 
0.0247532 0.00348244 0.0368394 
0.0228037 0.00965686 0.0396912 
0.0202717 0.014215 0.0415772 
0.0169433 0.0166181 0.0421715 
0.013252 0.0180503 0.042183 
0.00979953 0.0201095 0.0425719 
0.00609674 0.0215075 0.0425633 
0.00214876 0.0222695 0.0421715 
-0.00155004 0.0236819 0.0421715 
-0.00563762 0.0240978 0.04157 
-0.0105415 0.0224448 0.0397181 
-0.0161252 0.0191056 0.0368441 
-0.0209701 0.0176834 0.0351255 
-0.0270482 0.0132058 0.0315544 
0.0306291 -0.00371398 0.0296593 
0.0289823 0.00338323 0.0330705 
0.0264263 0.00794875 0.0349632 
0.0234731 0.0114066 0.0361916 
0.02029 0.0142241 0.0370361 
0.0173589 0.0176946 0.0382759 
0.0141373 0.0203724 0.0390391 
0.010672 0.0223949 0.0394077 
0.00697135 0.0237959 0.0394011 
0.00304114 0.0246014 0.0390342 
-0.00113954 0.0247681 0.03828 
-0.00563127 0.0241523 0.0370505 
-0.00989482 0.0241422 0.0361865 
-0.0143933 0.0235539 0.0349702 
-0.0193291 0.0218875 0.0330973 
-0.0253282 0.0175947 0.029625 
0.031241 -0.00212453 0.0260359 
0.0300229 0.00614243 0.0301673 
0.0275896 0.0110347 0.0322657 
0.0247296 0.0147357 0.0336469 
0.0216105 0.0177159 0.034594 
0.0183209 0.0202234 0.0352564 
0.0148665 0.0222819 0.0356476 
0.011298 0.0240332 0.0358532 
0.00759595 0.0254318 0.035845 
0.00377986 0.0265346 0.0356571 
-0.000176547 0.0272793 0.0352513 
-0.00429085 0.0276273 0.0346035 
