ply
format ascii 1.0
comment VCGLIB generated
element vertex 1436
property float x
property float y
property float z
element face 0
property list uchar int vertex_indices
end_header
0.0140767 0.0138807 0.00702674 
0.00796397 0.0184811 0.00324834 
0.00342408 0.019098 0.00196744 
-0.00125988 0.0201135 0.000439426 
-0.00515918 0.0191106 0.000174312 
-0.00886755 0.0176116 0.000219289 
-0.0123864 0.0156111 0.000576953 
-0.0152087 0.0117515 0.00209242 
-0.0181735 0.00824318 0.00338685 
-0.019252 -0.000367645 0.00785369 
0.0139987 0.0140293 0.0022776 
0.00840223 0.0173186 -0.00066722 
0.00337232 0.0192035 -0.00273256 
-0.00130558 0.0202152 -0.00425109 
-0.00520005 0.0192117 -0.00451375 
-0.00890452 0.0177144 -0.00446909 
-0.0124207 0.0157186 -0.00411486 
-0.0151578 0.011645 -0.00247179 
-0.0182075 0.00837441 -0.00132911 
-0.019299 -0.000188684 0.00309116 
0.0139181 0.014185 -0.00246577 
0.00582145 0.0238958 -0.00938517 
0.00151771 0.0239586 -0.0103075 
-0.00277904 0.0240212 -0.0112284 
-0.00706883 0.0240838 -0.0121477 
-0.0108029 0.022705 -0.0121734 
-0.0139146 0.0196827 -0.0111824 
-0.0170319 0.0166551 -0.0101897 
-0.0201545 0.0136223 -0.00919518 
-0.0193495 -3.31936e-07 -0.00166688 
0.0102002 0.0236101 -0.0129361 
0.00580627 0.023896 -0.0139933 
0.00150688 0.0239587 -0.014911 
-0.00278553 0.0240213 -0.0158272 
-0.00707099 0.0240839 -0.0167419 
-0.0108013 0.0227065 -0.0167675 
-0.0139099 0.0196873 -0.0157815 
-0.017024 0.0166628 -0.0147938 
-0.0201435 0.013633 -0.0138043 
-0.0231967 0.0104044 -0.0126943 
0.0172946 0.0164426 -0.012241 
0.0101758 0.0236228 -0.0175478 
0.00579111 0.0238962 -0.0185921 
0.00150669 0.0239315 -0.0194883 
-0.00271225 0.0238145 -0.0202895 
-0.0066581 0.0230005 -0.0206611 
-0.0103587 0.0215499 -0.0206412 
-0.0138156 0.0194551 -0.0202261 
-0.0170079 0.0166484 -0.0193751 
-0.0201325 0.0136436 -0.0184042 
-0.0231868 0.0104298 -0.0173068 
-0.0234725 -0.000302805 -0.0116118 
0.0172545 0.0164839 -0.0168834 
0.0111037 0.0212087 -0.0206603 
0.00604984 0.0231944 -0.0227511 
0.00149565 0.0239323 -0.0240738 
-0.00271841 0.0238138 -0.0248698 
-0.00666002 0.023 -0.0252391 
-0.0103569 0.0215508 -0.0252193 
-0.0138106 0.0194588 -0.0248068 
-0.0170003 0.0166565 -0.0239611 
-0.0198645 0.012967 -0.0225754 
-0.0222423 0.00793996 -0.0203764 
-0.0234716 -0.000241307 -0.0162591 
0.017219 0.0165139 -0.0215095 
0.0110792 0.0212218 -0.0252598 
0.00603311 0.0231988 -0.0273358 
0.00148463 0.0239331 -0.02865 
-0.00272456 0.0238132 -0.0294411 
-0.00666193 0.0229994 -0.0298081 
-0.0103551 0.0215517 -0.0297884 
-0.0138056 0.0194625 -0.0293783 
-0.0169926 0.0166646 -0.0285379 
-0.0198551 0.0129816 -0.027161 
-0.022233 0.00796663 -0.0249774 
-0.0234453 -0.000248626 -0.0208553 
0.0171785 0.0165564 -0.0261338 
0.0110547 0.021235 -0.0298501 
0.00601641 0.0232032 -0.0319114 
0.00147365 0.0239339 -0.0332172 
-0.0027307 0.0238125 -0.0340033 
-0.00666384 0.0229988 -0.0343679 
-0.0103533 0.0215525 -0.0343483 
-0.0138006 0.0194662 -0.0339408 
-0.016985 0.0166727 -0.0331056 
-0.0198457 0.0129963 -0.0317375 
-0.0222237 0.00799325 -0.0295691 
-0.0234474 -0.000179214 -0.0254888 
0.0171381 0.0165988 -0.0307488 
0.0110303 0.0212481 -0.0344312 
0.00599975 0.0232075 -0.0364779 
0.00146279 0.0239344 -0.0377751 
-0.00273683 0.0238118 -0.0385564 
-0.00666575 0.0229982 -0.0389188 
-0.0103515 0.0215534 -0.0388993 
-0.0137956 0.0194698 -0.0384942 
-0.0169775 0.0166807 -0.0376643 
-0.0198363 0.0130109 -0.0363048 
-0.0222144 0.00801981 -0.0341517 
-0.0234496 -0.000109944 -0.0301128 
0.017098 0.0166405 -0.035354 
0.0110555 0.0211349 -0.0389269 
0.0073456 0.0197185 -0.0389269 
0.015477 -0.012239 -0.0205076 
0.0123304 -0.0152986 -0.0195316 
0.00884018 -0.0174808 -0.0190855 
0.00505011 -0.0188844 -0.0191086 
0.000961922 -0.0195 -0.0196056 
-0.00346297 -0.0192109 -0.0206455 
-0.0186208 0.00980026 -0.0389269 
-0.0222051 0.00804632 -0.0387251 
-0.0234517 -4.08154e-05 -0.0347275 
0.0177287 0.0149827 -0.0389269 
0.019936 -0.00155031 -0.0298358 
0.0181466 -0.00801398 -0.0268114 
0.0154697 -0.0122479 -0.025131 
0.0123254 -0.0153025 -0.0241611 
0.00883836 -0.0174816 -0.0237178 
0.00505207 -0.0188839 -0.0237408 
0.000968266 -0.0194997 -0.0242348 
-0.00345139 -0.0192129 -0.0252682 
-0.00832703 -0.017686 -0.0270416 
-0.0141271 -0.0136359 -0.0303199 
-0.0232027 -0.000651628 -0.0389269 
0.0207104 0.00736705 -0.0389269 
0.0199321 -0.00158967 -0.0344146 
0.0181384 -0.00803152 -0.0314147 
0.0154623 -0.0122567 -0.0297455 
0.0123204 -0.0153063 -0.0287816 
0.00883653 -0.0174825 -0.028341 
0.00505403 -0.0188833 -0.0283639 
0.000974598 -0.0194993 -0.0288549 
-0.00343985 -0.019215 -0.0298818 
-0.00830877 -0.0176946 -0.0316433 
-0.0140966 -0.0136661 -0.0348946 
-0.020348 -0.00831585 -0.0389269 
0.019966 -0.00172558 -0.0389269 
0.0181301 -0.00804903 -0.0360091 
0.0154549 -0.0122654 -0.0343511 
0.0123154 -0.0153102 -0.0333932 
0.00883471 -0.0174834 -0.0329553 
0.00505598 -0.0188828 -0.0329781 
0.000980917 -0.019499 -0.0334661 
-0.00342832 -0.0192171 -0.0344865 
-0.00829056 -0.0177032 -0.0362362 
-0.0137314 -0.0145969 -0.0389269 
0.0192173 -0.0108754 -0.0389269 
0.0154611 -0.0123093 -0.0389269 
0.0123104 -0.015314 -0.0379958 
0.0088329 -0.0174843 -0.0375606 
0.00505793 -0.0188823 -0.0375833 
0.000987225 -0.0194986 -0.0380684 
-0.00331785 -0.0194822 -0.0389269 
-0.00707345 -0.0209176 -0.0389269 
0.0124278 0.0156687 0.0144725 
0.00885908 0.0175723 0.0141744 
0.00510017 0.0189736 0.0141934 
0.00114702 0.0198714 0.014531 
0.017728 0.00697036 0.0134832 
0.0152566 0.0118213 0.0113374 
0.0124553 0.0157586 0.00976264 
0.00888945 0.0176577 0.0094676 
0.00513459 0.0190578 0.00948637 
0.00118649 0.0199568 0.00982086 
-0.00325422 0.0195921 0.0109528 
-0.00800999 0.0184413 0.0125826 
0.0196971 0.000777585 0.0117994 
0.0177561 0.00708615 0.00875411 
0.0152842 0.0119234 0.00662453 
0.0124847 0.0158534 0.00505971 
0.00892204 0.017749 0.00476712 
0.00517122 0.0191477 0.00478571 
0.00122829 0.0200484 0.00511689 
-0.00341439 0.0191509 0.00657786 
-0.00795358 0.0185467 0.00785686 
-0.0144201 0.0130558 0.0122116 
0.0197347 0.000931366 0.00704555 
0.017787 0.00720951 0.00403041 
0.0153142 0.012032 0.00191765 
0.0125168 0.0159554 0.000362264 
0.00895689 0.0178462 7.28873e-05 
0.0052101 0.0192435 9.13057e-05 
0.00127237 0.0201459 0.000419177 
-0.00346242 0.0189991 0.00202929 
-0.00789464 0.0186588 0.00313709 
-0.0143417 0.0132053 0.00744986 
0.019776 0.00109508 0.00229571 
0.0178204 0.0073392 -0.00068718 
0.0153465 0.0121465 -0.002783 
0.0125062 0.0159447 -0.00425529 
0.0089938 0.0179488 -0.0046148 
0.00525107 0.0193448 -0.00459659 
0.00131846 0.0202486 -0.0042719 
-0.00340982 0.0191068 -0.00267231 
-0.00783306 0.0187777 -0.00157691 
-0.0142596 0.0133647 0.00269228 
0.0198204 0.00126688 -0.00244893 
0.020121 0.0135326 -0.00913978 
0.0170476 0.016697 -0.0102155 
0.01398 0.0198554 -0.0112892 
0.0109182 0.0230079 -0.0123609 
0.00699026 0.0238787 -0.0120207 
0.00274796 0.0239406 -0.0111784 
-0.00150063 0.0240026 -0.0103348 
-0.00575557 0.0240647 -0.00949004 
-0.0141741 0.0135325 -0.00206027 
0.0231848 0.0103726 -0.0126747 
0.0201102 0.0135437 -0.0137494 
0.0170399 0.0167049 -0.0148197 
0.0139754 0.0198602 -0.015888 
0.0109167 0.0230095 -0.0169542 
0.00699239 0.0238787 -0.0166153 
0.00275438 0.0239405 -0.0157773 
-0.00148993 0.0240024 -0.014938 
-0.00574056 0.0240644 -0.0140975 
-0.010403 0.0230934 -0.0126163 
0.0235344 -0.0001353 -0.0117142 
0.0231714 0.0103882 -0.0172813 
0.0200993 0.0135549 -0.0183498 
0.0170314 0.0167109 -0.0194134 
0.0138334 0.0195021 -0.0202549 
0.0103719 0.0215846 -0.0206624 
0.00666643 0.0230223 -0.0206744 
0.00271614 0.0238246 -0.0202957 
-0.00150903 0.0239254 -0.0194846 
-0.00572558 0.0240642 -0.0186956 
-0.0103716 0.0231239 -0.0172402 
-0.017322 0.0163734 -0.0121983 
0.0235353 -6.875e-05 -0.0163643 
0.0222849 0.00805466 -0.0204464 
0.019895 0.0130485 -0.0226252 
0.0170237 0.0167189 -0.0239992 
0.0138284 0.0195057 -0.0248354 
0.0103701 0.0215855 -0.0252405 
0.00666835 0.0230217 -0.0252524 
0.00272226 0.0238238 -0.024876 
-0.00149807 0.0239261 -0.0240699 
-0.00605931 0.0231701 -0.0227362 
-0.0111254 0.0211533 -0.0206263 
-0.0172834 0.0164108 -0.0168385 
0.0235348 -6.37847e-06 -0.0210023 
0.0222759 0.00808206 -0.0250475 
0.0198857 0.0130635 -0.0272108 
0.017016 0.0167268 -0.0285757 
0.0138233 0.0195093 -0.0294068 
0.0103683 0.0215864 -0.0298095 
0.00667027 0.0230212 -0.0298213 
0.00272838 0.0238231 -0.0294471 
-0.00148713 0.0239267 -0.0286461 
-0.00604252 0.0231746 -0.0273211 
-0.0111007 0.0211669 -0.0252262 
-0.0172801 0.016359 -0.0214147 
0.0235362 6.11129e-05 -0.0256341 
0.0222668 0.00810941 -0.0296394 
0.0198764 0.0130785 -0.0317873 
0.0170083 0.0167345 -0.0331431 
0.0138183 0.0195129 -0.0339691 
0.0103665 0.0215873 -0.0343694 
0.00667219 0.0230206 -0.0343811 
0.00273448 0.0238223 -0.0340092 
-0.00147621 0.0239273 -0.0332132 
-0.00602575 0.0231792 -0.0318968 
-0.0110761 0.0211804 -0.0298168 
-0.0172393 0.0164024 -0.02604 
0.0235373 0.000127692 -0.0302559 
0.0222577 0.00813638 -0.0342219 
0.0198672 0.0130935 -0.0363546 
0.0170005 0.0167421 -0.0377013 
0.0138133 0.0195165 -0.0385224 
0.0103647 0.0215882 -0.0389203 
0.0066709 0.0230117 -0.0389269 
0.00274056 0.0238215 -0.0385623 
-0.00146531 0.0239279 -0.0377712 
-0.00600902 0.0231838 -0.0364635 
-0.0110516 0.0211938 -0.0343983 
-0.0171985 0.0164457 -0.0306559 
0.0235385 0.000194136 -0.0348683 
0.0222483 0.00816253 -0.0387948 
0.0186208 0.00980026 -0.0389269 
0.00345677 -0.0192273 -0.0206356 
-0.000960046 -0.0194951 -0.0196086 
-0.00504209 -0.0188633 -0.0191213 
-0.00882719 -0.0174468 -0.0191059 
-0.0123117 -0.0152502 -0.0195607 
-0.01545 -0.0121692 -0.0205497 
-0.0073456 0.0197185 -0.0389269 
-0.0110555 0.0211349 -0.0389269 
-0.0171578 0.016489 -0.0352624 
0.0232027 -0.000651628 -0.0389269 
0.0140781 -0.0137678 -0.0302412 
0.00831042 -0.0177304 -0.0270151 
0.00344528 -0.0192292 -0.0252585 
-0.00096641 -0.0194948 -0.0242377 
-0.00504406 -0.0188628 -0.0237534 
-0.00882537 -0.0174477 -0.0237381 
-0.0123068 -0.0152542 -0.0241901 
-0.0154426 -0.0121781 -0.0251729 
-0.0181097 -0.00791918 -0.0268684 
-0.0198711 -0.00138482 -0.0299354 
-0.0177287 0.0149827 -0.0389269 
0.020348 -0.00831585 -0.0389269 
0.0140476 -0.0137979 -0.0348162 
0.00829234 -0.0177386 -0.0316172 
0.00343381 -0.0192311 -0.0298723 
-0.000972763 -0.0194945 -0.0288578 
-0.00504602 -0.0188623 -0.0283765 
-0.00882356 -0.0174486 -0.0283612 
-0.0123018 -0.0152582 -0.0288104 
-0.0154353 -0.0121871 -0.0297871 
-0.0181016 -0.00793716 -0.0314712 
-0.0198677 -0.00142563 -0.0345128 
-0.0207104 0.00736705 -0.0389269 
0.0137314 -0.0145969 -0.0389269 
0.0082743 -0.0177467 -0.0362104 
0.00342237 -0.0192329 -0.0344772 
-0.000979102 -0.0194942 -0.033469 
-0.00504798 -0.0188618 -0.0329905 
-0.00882175 -0.0174496 -0.0329754 
-0.0122969 -0.0152621 -0.0334218 
-0.015428 -0.0121961 -0.0343924 
-0.0180935 -0.00795511 -0.0360651 
-0.019966 -0.00172558 -0.0389269 
0.00707345 -0.0209176 -0.0389269 
0.00331785 -0.0194822 -0.0389269 
-0.00098543 -0.0194939 -0.0380712 
-0.00504993 -0.0188613 -0.0375957 
-0.00881995 -0.0174505 -0.0375806 
-0.012292 -0.0152661 -0.0380242 
-0.0154611 -0.0123093 -0.0389269 
-0.0192173 -0.0108754 -0.0389269 
0.0180697 0.00760104 0.0140545 
0.0140171 0.0136527 0.0140174 
0.0099986 0.0167667 0.0139983 
0.00599456 0.0185158 0.0139875 
0.00199751 0.0192874 0.0139827 
-0.00199758 0.0192022 0.0139833 
-0.00599506 0.0183246 0.0139887 
-0.00999974 0.0165066 0.0139998 
-0.0140196 0.0132499 0.0140199 
-0.018078 0.00654741 0.014061 
0.0180612 0.00868058 0.0100342 
0.0140106 0.0147316 0.0100077 
0.00999472 0.017656 0.00999482 
0.00599244 0.0193253 0.00998747 
0.00199683 0.0200657 0.00998421 
-0.0019969 0.0199835 0.00998457 
-0.00599313 0.0190589 0.00998863 
-0.00999693 0.0171499 0.00999702 
-0.0140162 0.0138116 0.0100117 
-0.0180745 0.00699265 0.0100416 
0.018079 0.00642385 0.0060264 
0.0140174 0.0136045 0.00600753 
0.00999762 0.0169912 0.00599861 
0.00599352 0.0189137 0.00599354 
0.00199703 0.0198332 0.00599111 
-0.00199697 0.0198998 0.00599094 
-0.00599295 0.0191306 0.00599297 
-0.0099958 0.0174082 0.00599751 
-0.0140127 0.0143819 0.00600549 
-0.018061 0.00870787 0.00602042 
0.0180707 0.00748032 0.00200787 
0.0140173 0.0136323 0.00200248 
0.00999859 0.0167693 0.00199972 
0.00599453 0.0185263 0.00199818 
0.0019975 0.0193026 0.0019975 
-0.00199757 0.0192151 0.00199757 
-0.00599508 0.0183142 0.00199836 
-0.00999973 0.0165082 0.00199995 
-0.0140194 0.0132767 0.00200279 
-0.0180768 0.00670062 0.00200855 
0.0180604 0.00878441 -0.00200674 
0.0140106 0.0147183 -0.00200153 
0.00999469 0.0176638 -0.00199894 
0.0059924 0.0193402 -0.00199747 
0.00199681 0.0200846 -0.00199681 
-0.00199689 0.0200009 -0.00199689 
-0.0059931 0.0190738 -0.0019977 
-0.00999691 0.0171541 -0.00199939 
-0.0140163 0.0137916 -0.00200234 
-0.0180757 0.00683617 -0.00200844 
0.0180776 0.00659882 -0.00602594 
0.0140173 0.0136254 -0.00600747 
0.00999764 0.0169871 -0.00599862 
0.00599355 0.0189013 -0.00599357 
0.00199705 0.0198152 -0.00599116 
-0.00199699 0.0198826 -0.00599098 
-0.00599298 0.0191171 -0.005993 
-0.00999582 0.0174033 -0.00599753 
-0.0140126 0.0143949 -0.00600546 
-0.0180603 0.0088 -0.00602018 
0.0220475 0.011549 -0.0100218 
0.018006 0.0157102 -0.0100035 
0.0139793 0.0198562 -0.00998531 
0.00996828 0.0237153 -0.00996838 
0.00598048 0.0238935 -0.00996754 
0.00199344 0.0239516 -0.00996725 
-0.00199339 0.0240098 -0.009967 
-0.00598002 0.0240679 -0.00996678 
-0.00996916 0.0235147 -0.00996925 
-0.0139807 0.0196185 -0.00998634 
-0.018006 0.015709 -0.0100035 
-0.0220453 0.0117859 -0.0100208 
0.0220475 0.011549 -0.0140306 
0.018006 0.0157102 -0.014005 
0.0139793 0.0198562 -0.0139795 
0.00996828 0.0237153 -0.0139558 
0.00598048 0.0238935 -0.0139546 
0.00199344 0.0239516 -0.0139542 
-0.00199339 0.0240098 -0.0139539 
-0.00598002 0.0240679 -0.0139536 
-0.00996916 0.0235147 -0.013957 
-0.0139807 0.0196185 -0.013981 
-0.018006 0.015709 -0.014005 
-0.0220453 0.0117859 -0.0140292 
0.0220475 0.011549 -0.0180395 
0.018006 0.0157102 -0.0180066 
0.0139793 0.0198562 -0.0179738 
0.00996828 0.0237153 -0.0179433 
0.00598048 0.0238935 -0.0179418 
0.00199344 0.0239516 -0.0179413 
-0.00199339 0.0240098 -0.0179409 
-0.00598002 0.0240679 -0.0179405 
-0.00996916 0.0235147 -0.0179449 
-0.0139807 0.0196185 -0.0179757 
-0.018006 0.0157089 -0.0180066 
-0.0220453 0.0117859 -0.0180377 
0.0220754 0.00864408 -0.0220764 
0.0180067 0.0156252 -0.0220091 
0.0139821 0.019395 -0.0219726 
0.00997676 0.0217719 -0.0219496 
0.00598226 0.0232121 -0.0219357 
0.00199349 0.0238953 -0.021929 
-0.00199349 0.0238875 -0.0219291 
-0.00598232 0.0231911 -0.0219359 
-0.00997693 0.0217341 -0.02195 
-0.0139825 0.0193328 -0.0219732 
-0.0180075 0.0155252 -0.0220101 
-0.0220777 0.00841141 -0.0220787 
0.0220754 0.00864408 -0.0260907 
0.0180067 0.0156252 -0.0260111 
0.0139821 0.019395 -0.025968 
0.00997676 0.0217719 -0.0259408 
0.00598226 0.0232121 -0.0259243 
0.00199349 0.0238953 -0.0259164 
-0.00199349 0.0238875 -0.0259165 
-0.00598232 0.0231911 -0.0259245 
-0.00997693 0.0217341 -0.0259412 
-0.0139825 0.0193328 -0.0259687 
-0.0180075 0.0155252 -0.0260122 
-0.0220777 0.00841141 -0.0260933 
0.0220754 0.00864408 -0.030105 
0.0180067 0.0156252 -0.0300132 
0.0139821 0.019395 -0.0299635 
0.00997676 0.0217719 -0.0299321 
0.00598226 0.0232121 -0.0299131 
0.00199349 0.0238953 -0.029904 
-0.00199349 0.0238875 -0.0299041 
-0.00598232 0.0231911 -0.0299133 
-0.00997693 0.0217341 -0.0299326 
-0.0139825 0.0193328 -0.0299643 
-0.0180075 0.0155252 -0.0300145 
-0.0220777 0.00841141 -0.0301081 
0.0220754 0.00864408 -0.0341196 
0.0180067 0.0156252 -0.0340155 
0.0139821 0.019395 -0.0339592 
0.00997676 0.0217719 -0.0339236 
0.00598226 0.0232121 -0.033902 
0.00199349 0.0238953 -0.0338918 
-0.00199349 0.0238875 -0.0338919 
-0.00598232 0.0231911 -0.0339023 
-0.00997693 0.0217341 -0.0339241 
-0.0139825 0.0193328 -0.0339601 
-0.0180075 0.0155252 -0.034017 
-0.0220777 0.00841141 -0.0341231 
0.0220754 0.00864408 -0.0381344 
0.0180067 0.0156252 -0.038018 
0.0139821 0.019395 -0.037955 
0.00997676 0.0217719 -0.0379153 
0.00598226 0.0232121 -0.0378912 
0.00199349 0.0238953 -0.0378797 
-0.00199349 0.0238875 -0.0378799 
-0.00598232 0.0231911 -0.0378915 
-0.00997693 0.0217341 -0.0379159 
-0.0139825 0.0193328 -0.0379561 
-0.0180075 0.0155252 -0.0380197 
-0.0220777 0.00841141 -0.0381382 
-0.00844391 -0.0164407 0.0150724 
0.00954953 -0.0145379 0.0150724 
0.00565955 -0.0134299 0.0148721 
0.000946203 -0.0144934 0.0133552 
-0.00324545 -0.0141569 0.0126855 
-0.00703149 -0.0127484 0.0126655 
-0.0104097 -0.0102814 0.0132888 
-0.0132575 -0.00645833 0.0147375 
-0.0168097 -0.00446953 0.0150724 
0.016171 -0.00834462 0.0150724 
0.0116091 -0.0090705 0.0137596 
0.00567238 -0.0134246 0.0102383 
0.000952847 -0.014493 0.00871144 
-0.00324346 -0.0141574 0.00803755 
-0.00703329 -0.0127474 0.00801752 
-0.0104144 -0.0102767 0.00864466 
-0.0132637 -0.00644631 0.0101029 
-0.0149568 0.000319851 0.0133571 
-0.0176162 0.00456093 0.0150724 
0.0190093 -0.000759241 0.0150724 
0.0152666 0.000670612 0.0150724 
0.00568525 -0.0134192 0.0055954 
0.000959504 -0.0144926 0.0040584 
-0.00324147 -0.0141578 0.00338039 
-0.00703509 -0.0127465 0.00336027 
-0.0104191 -0.010272 0.00399134 
-0.0132699 -0.00643426 0.00545909 
-0.014957 0.000358388 0.00874187 
-0.0146749 0.012107 0.0150724 
0.0191047 -0.000554827 0.0105822 
0.0180761 0.00814405 0.0150348 
0.0143678 0.00963072 0.0150724 
0.000966175 -0.0144923 -0.000603915 
-0.00323947 -0.0141583 -0.00128608 
-0.0070369 -0.0127455 -0.00130628 
-0.0104239 -0.0102673 -0.000671273 
-0.00428861 0.0167568 0.0150724 
-0.00802001 0.018182 0.0150724 
-0.0141328 0.0135382 0.0113313 
0.0199578 0.00168862 0.00733701 
0.018034 0.0079912 0.0103339 
0.0155918 0.0128557 0.0124501 
0.012283 0.015389 0.0131334 
0.00877418 0.0173834 0.0134855 
0.00507385 0.018871 0.0135254 
0.00117877 0.0198526 0.013253 
-0.00315742 0.019702 0.0122804 
-0.00788924 0.0185559 0.0106907 
-0.0142227 0.0133589 0.00659126 
0.0199084 0.00150355 0.00259498 
0.0179942 0.00784448 0.00562673 
0.0155542 0.0127273 0.00776188 
0.0122443 0.0152696 0.0084526 
0.00873329 0.0172704 0.00880912 
0.005029 0.0187596 0.00884926 
0.00112896 0.0197402 0.00857413 
-0.002976 0.0201977 0.00797399 
-0.00795502 0.0184261 0.00598877 
-0.0143097 0.0131869 0.00184553 
0.0195749 -0.0110495 -0.00892727 
0.0198621 0.00132666 -0.00215222 
0.0179571 0.00770483 0.000913907 
0.0155192 0.0126055 0.00306786 
0.0122079 0.0151564 0.00376573 
0.00869975 0.0171766 0.00413486 
0.00498633 0.0186538 0.00416677 
0.00108082 0.0196321 0.0038881 
-0.00303008 0.0200861 0.0032824 
-0.00801868 0.0183018 0.00128024 
-0.0143934 0.0130237 -0.00290504 
-0.0219566 0.00481413 -0.00892727 
0.0223753 -0.00353093 -0.00892727 
0.019819 0.0011583 -0.00690438 
0.0179228 0.0075727 -0.00380429 
0.0154859 0.0124885 -0.00163317 
0.0121738 0.0150493 -0.000927218 
0.00884024 0.0175399 -0.000264043 
0.00506288 0.0188593 -0.000331283 
0.00103537 0.019531 -0.000803475 
-0.00308259 0.0199786 -0.0014166 
-0.00807935 0.0181853 -0.00343349 
-0.0144731 0.0128705 -0.00765958 
-0.0190315 0.0122851 -0.00892727 
0.0235295 -0.000470123 -0.0116815 
0.0214057 0.00537592 -0.00892727 
0.0178912 0.00744757 -0.00852819 
0.0154553 0.0123783 -0.00633995 
0.0121419 0.0149478 -0.00562664 
0.00897476 0.0178874 -0.00468039 
0.00519471 0.019209 -0.00474726 
0.00099198 0.0194353 -0.00550161 
-0.00313213 0.0198789 -0.00612073 
-0.00813758 0.0180751 -0.00815331 
-0.0123709 0.0182774 -0.00892727 
-0.0175161 0.0161848 -0.0111471 
0.0235285 -0.000537509 -0.0163901 
0.0232514 0.0102908 -0.0105013 
0.0201646 0.0134877 -0.00939291 
0.0167001 0.0156586 -0.00892727 
0.0129583 0.0170876 -0.00892727 
0.00921654 0.0185167 -0.00892727 
0.00547485 0.0199459 -0.00892727 
0.00173319 0.0213752 -0.00892727 
-0.00200847 0.0228046 -0.00892727 
-0.00581592 0.0240655 -0.00903366 
-0.0105607 0.0229402 -0.0106472 
-0.0175552 0.0161468 -0.0158455 
0.0235118 -0.000647435 -0.0211354 
0.0232646 0.0102737 -0.0151655 
0.0201756 0.0134764 -0.0140499 
0.0170865 0.0166569 -0.0129466 
0.0140033 0.0198314 -0.0118454 
0.0109259 0.0229999 -0.0107465 
0.00697952 0.0238789 -0.011093 
0.0027157 0.0239411 -0.0119567 
-0.00155449 0.0240034 -0.0128219 
-0.00583108 0.0240658 -0.0136884 
-0.0105925 0.0229093 -0.0153291 
-0.0176663 0.0159266 -0.0206693 
0.0235083 -0.000722151 -0.0258686 
0.0223671 0.0078055 -0.0213888 
0.0201865 0.0134651 -0.0187165 
0.0170943 0.0166489 -0.0176076 
0.014008 0.0198266 -0.0165009 
0.0109275 0.0229983 -0.0153964 
0.00697736 0.0238789 -0.0157442 
0.0027092 0.0239412 -0.0166123 
-0.00156533 0.0240035 -0.0174818 
-0.00584628 0.024066 -0.0183527 
-0.0113496 0.0210303 -0.0211971 
-0.0177104 0.0158762 -0.0253957 
0.0235047 -0.000797026 -0.0306119 
0.0223763 0.00777753 -0.0260854 
0.0199892 0.0128964 -0.0237468 
0.017101 0.0166378 -0.0222803 
0.0138792 0.0194691 -0.0213904 
0.0103882 0.0215764 -0.0209602 
0.00664893 0.0230274 -0.0209476 
0.00266006 0.0238307 -0.021348 
-0.00160883 0.0239195 -0.0222051 
-0.00622918 0.0231238 -0.0236285 
-0.0113748 0.0210165 -0.0258924 
-0.0177558 0.0158225 -0.0301343 
0.0235011 -0.000872063 -0.0353655 
0.0223856 0.0077495 -0.0307919 
0.0199987 0.012881 -0.0284369 
0.0171088 0.0166296 -0.0269608 
0.0138843 0.0194654 -0.0260654 
0.01039 0.0215754 -0.0256327 
0.00664697 0.023028 -0.02562 
0.00265375 0.0238313 -0.0260229 
-0.00162014 0.0239186 -0.0268853 
-0.00624636 0.0231191 -0.0283178 
-0.0114 0.0210027 -0.0305976 
-0.0178014 0.0157687 -0.034883 
0.0223948 0.00772141 -0.0355084 
0.0200082 0.0128656 -0.0331367 
0.0171167 0.0166213 -0.0316511 
0.0138895 0.0194617 -0.0307502 
0.0103919 0.0215745 -0.0303149 
0.006645 0.0230285 -0.0303021 
0.00264742 0.0238319 -0.0307075 
-0.00163147 0.0239176 -0.0315754 
-0.00626358 0.0231144 -0.0330169 
-0.0114253 0.0209888 -0.0353127 
0.0200178 0.0128501 -0.0378465 
0.0171244 0.0166128 -0.0363514 
0.0138947 0.019458 -0.0354448 
0.0103937 0.0215736 -0.0350069 
0.00664303 0.0230291 -0.034994 
0.00264109 0.0238326 -0.035402 
-0.00164283 0.0239167 -0.0362753 
-0.00628083 0.0231097 -0.037726 
0.00844391 -0.0164407 0.0150724 
0.0168097 -0.00446953 0.0150724 
0.0132923 -0.00654828 0.0146828 
0.0104317 -0.0103384 0.0132541 
0.00704565 -0.0127854 0.0126431 
0.00325161 -0.014173 0.0126757 
-0.000948078 -0.0144884 0.0133583 
-0.00567505 -0.0133887 0.014897 
-0.00954953 -0.0145379 0.0150724 
0.0176162 0.00456093 0.0150724 
0.0150354 0.000118578 0.0132341 
0.0132986 -0.00653654 0.0100478 
0.0104364 -0.0103338 0.0086098 
0.00704747 -0.0127844 0.00799496 
0.0032496 -0.0141735 0.00802773 
-0.000954768 -0.0144879 0.00871453 
-0.00568783 -0.0133835 0.0102633 
-0.0116795 -0.00888225 0.013874 
-0.016171 -0.00834462 0.0150724 
0.0146749 0.012107 0.0150724 
0.0150362 0.000155497 0.0086174 
0.013305 -0.00652478 0.0054036 
0.0104412 -0.0103293 0.00395626 
0.00704928 -0.0127835 0.0033376 
0.00324759 -0.0141739 0.00337055 
-0.000961472 -0.0144874 0.00406158 
-0.00570064 -0.0133783 0.00562038 
-0.0152666 0.000670612 0.0150724 
-0.0190093 -0.000759241 0.0150724 
0.0143588 0.0129623 0.0109763 
0.00802001 0.018182 0.0150724 
0.00428861 0.0167568 0.0150724 
0.010446 -0.0103247 -0.000706562 
0.0070511 -0.0127826 -0.00132906 
0.00324558 -0.0141743 -0.00129593 
-0.0106365 0.011056 0.0150724 
-0.0143678 0.00963072 0.0150724 
-0.017643 0.00698573 0.0143252 
-0.0195384 0.0006122 0.0112966 
0.0135341 0.0151138 0.00767743 
0.00796835 0.0183531 0.0105653 
0.00300651 0.0200912 0.0125209 
-0.0011882 0.0198771 0.0132681 
-0.00511447 0.0189771 0.0135909 
-0.008847 0.0175746 0.0136034 
-0.0123897 0.015671 0.0133071 
-0.0151639 0.0117184 0.01175 
-0.0179624 0.00779954 0.010216 
-0.0194852 0.000416913 0.00655535 
0.0136187 0.0149479 0.00293987 
0.00803535 0.0182202 0.00586089 
0.00300067 0.0201341 0.00793452 
-0.00113786 0.0197633 0.00858845 
-0.00506955 0.0188654 0.00891484 
-0.00880606 0.0174615 0.0089274 
-0.0123516 0.0155531 0.00862794 
-0.0151269 0.0115914 0.00705979 
-0.0182163 0.00843836 0.00599352 
-0.0194352 0.000230152 0.00180912 
0.0219566 0.00481413 -0.00892727 
0.0137002 0.01479 -0.00180294 
0.00809981 0.0180938 0.00115056 
0.00305587 0.0200196 0.00324096 
-0.00108973 0.0196552 0.00390249 
-0.00502657 0.0187589 0.00423209 
-0.00876721 0.0173538 0.00424497 
-0.0123153 0.0154403 0.00394203 
-0.0153393 0.0121275 0.0027712 
-0.0181805 0.00830233 0.00128442 
-0.0193885 5.21996e-05 -0.00294191 
-0.0195749 -0.0110495 -0.00892727 
0.0190315 0.0122851 -0.00892727 
0.0137786 0.0146404 -0.00655081 
0.00816198 0.0179734 -0.00356609 
0.00310849 0.0199118 -0.00145837 
-0.00104345 0.019552 -0.000790372 
-0.00498589 0.0186583 -0.000456781 
-0.00873035 0.0172513 -0.000444127 
-0.0122815 0.0153339 -0.000749766 
-0.0155513 0.0126621 -0.001525 
-0.0181477 0.00817411 -0.00342986 
-0.0193453 -0.000116448 -0.00769742 
-0.0223753 -0.00353093 -0.00892727 
0.0174963 0.016235 -0.0111155 
0.0123709 0.0182774 -0.00892727 
0.00822142 0.0178601 -0.00828838 
0.00315854 0.0198107 -0.00616351 
-0.00100016 0.0194565 -0.00548829 
-0.00501008 0.0187271 -0.00504943 
-0.00869597 0.0171554 -0.00513906 
-0.0122499 0.0152332 -0.00544796 
-0.015606 0.0127789 -0.00608936 
-0.0181173 0.00805235 -0.00815015 
-0.0214057 0.00537592 -0.00892727 
-0.023477 -0.000612208 -0.0117702 
0.0175369 0.0161932 -0.0158162 
0.0103266 0.0235368 -0.0102705 
0.00588249 0.0238949 -0.00914134 
0.00200847 0.0228046 -0.00892727 
-0.00173319 0.0213752 -0.00892727 
-0.00547485 0.0199459 -0.00892727 
-0.00921654 0.0185167 -0.00892727 
-0.0129583 0.0170876 -0.00892727 
-0.0167001 0.0156586 -0.00892727 
-0.0201988 0.0135792 -0.00933545 
-0.0232428 0.0102677 -0.0105158 
-0.0234779 -0.000674476 -0.0164759 
0.0175998 0.0160949 -0.0205625 
0.0103529 0.0235197 -0.0149421 
0.00589783 0.0238947 -0.0137968 
0.00157218 0.0239578 -0.0128507 
-0.00274641 0.0240208 -0.0119063 
-0.00705798 0.0240837 -0.0109635 
-0.0108107 0.0226973 -0.0109376 
-0.0139383 0.0196597 -0.0119538 
-0.0170714 0.0166168 -0.0129719 
-0.02021 0.0135684 -0.0139919 
-0.0232514 0.0102383 -0.0151878 
-0.0234158 -0.00090762 -0.0212991 
0.0176427 0.0160477 -0.0252865 
0.0113266 0.0210889 -0.0211599 
0.0059132 0.0238944 -0.0184618 
0.00158314 0.0239576 -0.017511 
-0.00273984 0.0240207 -0.0165618 
-0.00705579 0.0240836 -0.0156143 
-0.0108123 0.0226958 -0.0155882 
-0.0139431 0.0196551 -0.0166096 
-0.0170793 0.016609 -0.0176329 
-0.0202211 0.0135576 -0.018658 
-0.0223233 0.00768755 -0.0214633 
-0.0234114 -0.000984414 -0.0260343 
0.0176875 0.0159957 -0.0300235 
0.0113517 0.0210754 -0.0258548 
0.00621903 0.0231498 -0.0236119 
0.00160708 0.023924 -0.0222022 
-0.0026562 0.0238207 -0.0213544 
-0.00664066 0.0230058 -0.0209613 
-0.0103751 0.021542 -0.0209821 
-0.0138613 0.0194217 -0.0214206 
-0.0170773 0.0165746 -0.0223204 
-0.0199585 0.0128143 -0.023799 
-0.0223323 0.00765918 -0.0261605 
-0.0234071 -0.00106137 -0.0307796 
0.0177323 0.0159437 -0.0347707 
0.0113767 0.021062 -0.0305596 
0.00623614 0.0231453 -0.028301 
0.00161835 0.0239232 -0.0268824 
-0.00264991 0.0238213 -0.0260293 
-0.0066387 0.0230064 -0.0256338 
-0.010377 0.0215411 -0.0256546 
-0.0138664 0.0194179 -0.0260957 
-0.0170851 0.0165663 -0.0270011 
-0.0199679 0.0127987 -0.0284893 
-0.0223414 0.00763076 -0.0308676 
-0.0234027 -0.0011385 -0.0355351 
0.0114019 0.0210485 -0.0352743 
0.00625329 0.0231408 -0.033 
0.00162964 0.0239224 -0.0315723 
-0.00264361 0.023822 -0.0307139 
-0.00663674 0.023007 -0.0303159 
-0.0103788 0.0215402 -0.0303369 
-0.0138715 0.0194142 -0.0307807 
-0.0170929 0.016558 -0.0316916 
-0.0199774 0.0127831 -0.0331895 
-0.0223506 0.00760228 -0.0355846 
0.00627047 0.0231362 -0.0377088 
0.00164096 0.0239215 -0.0362722 
-0.00263729 0.0238227 -0.0354083 
-0.00663478 0.0230076 -0.0350079 
-0.0103807 0.0215393 -0.0350289 
-0.0138767 0.0194104 -0.0354754 
-0.0171007 0.0165497 -0.036392 
-0.0199869 0.0127675 -0.0378996 
0.0192472 -6.84099e-05 0.0150724 
0.0171313 -0.00349158 0.0150724 
0.0150156 -0.00691476 0.0150724 
0.0128999 -0.010338 0.0150724 
0.0107843 -0.0137612 0.0150724 
0.0170976 0.00596985 0.0150724 
0.0149844 0.00255101 0.0150724 
0.0148235 -0.00206246 0.0119738 
0.0135623 -0.00601389 0.0106137 
0.0113462 -0.00938016 0.0107699 
0.00815497 -0.0121371 0.0124829 
0.00441955 -0.0145433 0.0150724 
0.0023067 -0.0179624 0.0150724 
0.0156808 0.0115566 0.0139204 
0.0128432 0.00857819 0.0150724 
0.0148835 0.00264036 0.00847177 
0.0148262 -0.00204727 0.00518906 
0.0135643 -0.00600952 0.00381706 
0.0113429 -0.0093838 0.00397427 
0.00814173 -0.0121458 0.00570149 
0.00364072 -0.0140823 0.00952092 
-0.00192893 -0.0153236 0.0150724 
0.0158808 0.0114869 0.00684557 
0.0125057 0.00882116 0.00884958 
0.0148794 0.00267104 0.00168596 
0.014829 -0.00203202 -0.00162785 
0.0135664 -0.00600513 -0.00301185 
0.0113397 -0.00938745 -0.00285365 
0.00812842 -0.0121545 -0.00111209 
0.00360822 -0.0140903 0.00274412 
-0.00425403 -0.0138929 0.0120071 
-0.00826126 -0.0161019 0.0150724 
0.00647198 0.0171808 0.0150724 
0.0124616 0.00888713 0.00212952 
0.014875 0.00270199 -0.00513171 
0.0148318 -0.00201669 -0.00847723 
0.0135685 -0.00600073 -0.00987334 
0.0113364 -0.00939112 -0.00971414 
0.00811504 -0.0121633 -0.00795813 
0.00357555 -0.0140983 -0.0040648 
-0.00437319 -0.0138573 0.0053642 
-0.0124726 -0.0134722 0.0150724 
0.0193594 0.0142251 -0.00892727 
0.00224732 0.0197649 0.0150724 
0.000144954 0.0163632 0.0150724 
0.0148698 0.00273352 -0.0119807 
0.0193418 -0.00475928 -0.0226189 
0.0178453 -0.00862949 -0.0236654 
0.0156242 -0.0120556 -0.0235442 
0.012673 -0.0150255 -0.0222404 
0.00354274 -0.0141063 -0.0109061 
-0.0145709 -0.00744752 0.0150724 
-0.0158307 -0.0113856 0.0137003 
0.0150881 0.0168317 -0.00892727 
0.0022096 0.019838 0.00835825 
-0.00406627 0.0189451 0.0150724 
-0.00616588 0.0155478 0.0150724 
0.0193457 -0.00474441 -0.0295625 
0.0178475 -0.00862509 -0.0306184 
0.0156211 -0.0120595 -0.0304966 
0.012661 -0.0150354 -0.0291818 
-0.0166638 -0.00143825 0.0150724 
-0.0182627 -0.00515226 0.0142554 
-0.0156502 -0.0115519 0.0065516 
-0.00830716 -0.0210226 -0.00892727 
0.0108276 0.0194318 -0.00892727 
0.00242282 0.0197608 0.0012072 
-0.00437139 0.0191686 0.0087752 
-0.00934791 0.0175099 0.0134272 
-0.0124607 0.0147344 0.0150724 
-0.0145576 0.0113415 0.0150724 
-0.0166545 0.00794861 0.0150724 
-0.0187514 0.00455573 0.0150724 
-0.019826 0.000520338 0.0134012 
-0.01909 -0.00466884 0.00875902 
-0.0154839 -0.0117093 -0.000609312 
-0.012538 -0.0183747 -0.00892727 
0.00657786 0.0220252 -0.00892727 
0.00148245 0.0203756 -0.00411081 
-0.00517503 0.0196933 0.00325778 
-0.00919277 0.0174439 0.00636268 
-0.012799 0.0149584 0.00880887 
-0.0160475 0.0122649 0.0106804 
-0.0172988 0.00834248 0.00929453 
-0.0190915 0.004751 0.00879002 
-0.0196973 0.000410997 0.00633624 
-0.0189575 -0.00479275 0.00166165 
-0.0153345 -0.0118563 -0.00777791 
-0.0167583 -0.0157334 -0.00892727 
0.00348459 0.0239299 -0.0107864 
0.000220103 0.0211836 -0.00892727 
-0.00501792 0.0196382 -0.00384753 
-0.00905036 0.0173857 -0.000715925 
-0.0126669 0.0148946 0.00174751 
-0.0159222 0.0121934 0.00362839 
-0.0180227 0.00878565 0.00362166 
-0.018975 0.00466114 0.00172792 
-0.019582 0.000309904 -0.000741764 
-0.0188377 -0.00490878 -0.00544992 
-0.0188488 -0.00967048 -0.00892727 
-0.0171628 -0.015538 -0.015228 
0.00359255 0.0239283 -0.0178548 
-0.00400566 0.0237684 -0.00892727 
-0.00612158 0.0203443 -0.00892727 
-0.00892065 0.0173354 -0.00780866 
-0.0125476 0.0148387 -0.00532785 
-0.0158092 0.0121295 -0.0034384 
-0.0179151 0.00871324 -0.00344485 
-0.0188712 0.00457913 -0.00534824 
-0.0194785 0.000216115 -0.00783534 
-0.0209341 -0.00362293 -0.00892727 
-0.0230505 -0.00704679 -0.00892727 
-0.0169884 -0.0157139 -0.0225202 
0.00426043 0.0235937 -0.0258731 
-0.0043806 0.0240446 -0.0152155 
-0.0103341 0.0229269 -0.00892727 
-0.0124473 0.0195071 -0.00892727 
-0.0145606 0.0160875 -0.00892727 
-0.0166739 0.0126679 -0.00892727 
-0.0187873 0.00924836 -0.00892727 
-0.0209008 0.00582886 -0.00892727 
-0.0230143 0.00240937 -0.00892727 
-0.0234979 -0.00204148 -0.0116365 
-0.0235668 -0.00677022 -0.0150463 
-0.0168285 -0.0158809 -0.029825 
0.00441331 0.023566 -0.0330883 
-0.00368378 0.0236786 -0.0232942 
-0.0104568 0.0230411 -0.0156439 
-0.0134429 0.0201408 -0.014212 
-0.0164245 0.0172451 -0.0127825 
-0.0194015 0.0143537 -0.0113553 
-0.0223739 0.0114667 -0.00993041 
-0.0233609 0.00734737 -0.0118 
-0.0234295 0.00264136 -0.0152058 
-0.0234984 -0.0020818 -0.0186241 
-0.021925 -0.00786848 -0.0248003 
-0.0166575 -0.0160554 -0.0371855 
-0.00361566 0.0236896 -0.0303783 
-0.00896524 0.0221812 -0.0250608 
-0.0130989 0.0199606 -0.0217367 
-0.0164133 0.0172555 -0.0197594 
-0.0193978 0.0143572 -0.0183229 
-0.0223776 0.0114632 -0.0168892 
-0.0233611 0.00733013 -0.01878 
-0.0233646 0.00257146 -0.0223161 
-0.0232984 -0.00224929 -0.0259824 
-0.0218977 -0.00793873 -0.0319013 
-0.00354719 0.0237008 -0.037498 
-0.00892559 0.0221978 -0.0321217 
-0.013076 0.0199756 -0.0287663 
-0.0164023 0.0172662 -0.0267703 
-0.0190642 0.0141575 -0.0258754 
-0.0211265 0.0106816 -0.0259793 
-0.0225837 0.00682726 -0.0270968 
-0.0233674 0.00254395 -0.0293485 
-0.0232935 -0.00229346 -0.0330502 
-0.0130529 0.0199907 -0.0358309 
-0.0163912 0.0172768 -0.0338164 
-0.0190613 0.0141616 -0.032913 
-0.0211286 0.010677 -0.0330176 
-0.022588 0.00681238 -0.0341444 
-0.0233699 0.00251616 -0.0364164 
0.0222443 0.0101107 -0.00892727 
0.0222442 0.0060664 -0.00892727 
0.0222441 0.00202213 -0.00892727 
0.0222441 -0.00202213 -0.00892727 
0.0222442 -0.0060664 -0.00892727 
0.0222443 -0.0101107 -0.00892727 
0.0181999 0.0141551 -0.00892727 
0.0181997 0.0101107 -0.00892727 
0.0180111 0.00600357 0.0150724 
0.0180111 0.00200119 0.0150724 
0.0180111 -0.00200119 0.0150724 
0.0180111 -0.00600357 0.0150724 
0.0181997 -0.0101107 -0.00892727 
0.0181999 -0.0141551 -0.00892727 
0.0141555 0.0181995 -0.00892727 
0.0140087 0.0140085 0.0150724 
0.0140086 0.010006 0.0150724 
0.0140085 0.00600357 0.0150724 
0.0140085 -0.00600357 0.0150724 
0.0140086 -0.010006 0.0150724 
0.0141553 -0.0141551 -0.00892727 
0.0141555 -0.0181995 -0.00892727 
0.0101112 0.0222441 -0.00892727 
0.010111 0.0181995 -0.00892727 
0.0100062 0.0140085 0.0150724 
0.0100062 -0.0140085 0.0150724 
0.010111 -0.0181995 -0.00892727 
0.0101112 -0.0222441 -0.00892727 
0.00606668 0.0222441 -0.00892727 
0.00600376 0.018011 0.0150724 
0.00600368 -0.0140085 0.0150724 
0.00600507 -0.018015 0.0145718 
0.00606668 -0.0222441 -0.00892727 
0.00202222 0.0222441 -0.00892727 
0.00200125 0.018011 0.0150724 
0.00200125 -0.018011 0.0150724 
0.00202222 -0.0222441 -0.00892727 
-0.00202222 0.0222441 -0.00892727 
-0.00200125 0.018011 0.0150724 
-0.00200125 -0.018011 0.0150724 
-0.00202222 -0.0222441 -0.00892727 
-0.00606668 0.0222441 -0.00892727 
-0.00600376 0.018011 0.0150724 
-0.00607426 0.0141731 -0.0118841 
-0.00600368 -0.0140085 0.0150724 
-0.00600577 -0.0180171 0.014304 
-0.00606668 -0.0222441 -0.00892727 
-0.0101112 0.0222441 -0.00892727 
-0.010111 0.0181995 -0.00892727 
-0.0100062 0.0140085 0.0150724 
-0.0100062 -0.0140085 0.0150724 
-0.010111 -0.0181995 -0.00892727 
-0.0101112 -0.0222441 -0.00892727 
-0.0141555 0.0181995 -0.00892727 
-0.0140087 0.0140085 0.0150724 
-0.0140086 0.010006 0.0150724 
-0.0140085 0.00600357 0.0150724 
-0.0140085 -0.00600357 0.0150724 
-0.0140086 -0.010006 0.0150724 
-0.0141553 -0.0141551 -0.00892727 
-0.0141555 -0.0181995 -0.00892727 
-0.0181999 0.0141551 -0.00892727 
-0.0181997 0.0101107 -0.00892727 
-0.0180111 0.00600357 0.0150724 
-0.0180111 0.00200119 0.0150724 
-0.0180111 -0.00200119 0.0150724 
-0.0180111 -0.00600357 0.0150724 
-0.0181997 -0.0101107 -0.00892727 
-0.0181999 -0.0141551 -0.00892727 
-0.0222443 0.0101107 -0.00892727 
-0.0222442 0.0060664 -0.00892727 
-0.0222441 0.00202213 -0.00892727 
-0.0222441 -0.00202213 -0.00892727 
-0.0222442 -0.0060664 -0.00892727 
-0.0222443 -0.0101107 -0.00892727 
0.00866878 0.0171846 0.0150724 
0.0107843 0.0137612 0.0150724 
0.0128999 0.010338 0.0150724 
0.0150156 0.00691476 0.0150724 
0.0171313 0.00349158 0.0150724 
0.0192472 6.84099e-05 0.0150724 
0.0023067 0.0179624 0.0150724 
0.00471611 0.0147296 0.0145982 
0.00888445 0.0125924 0.0113187 
0.0118671 0.00970317 0.00994004 
0.013897 0.00622011 0.0100813 
0.0149474 0.0021383 0.0117771 
0.0149844 -0.00255101 0.0150724 
0.0170976 -0.00596985 0.0150724 
-0.0034592 0.0191075 0.0141384 
-0.00188257 0.0153529 0.0149979 
0.00468629 0.0147392 0.00784308 
0.00887183 0.0126015 0.00453202 
0.0118641 0.00970698 0.00314092 
0.0138989 0.00621563 0.00328308 
0.0149492 0.00212249 0.00499325 
0.0146872 -0.00275975 0.00878407 
0.0128432 -0.00857819 0.0150724 
0.0151983 -0.011846 0.0146849 
-0.00330404 0.0192574 0.00705882 
-0.00196257 0.015342 0.00830969 
0.00465633 0.0147488 0.00105599 
0.00885915 0.0126106 -0.00228687 
0.0118612 0.00971082 -0.00369052 
0.0139008 0.00621112 -0.0035475 
0.0149509 0.00210661 -0.00182275 
0.0146797 -0.00279241 0.00200461 
0.0110694 -0.00968848 0.0111378 
0.0107074 -0.0145901 0.0150724 
-0.0124726 0.0134722 0.0150724 
-0.00204295 0.015331 0.00159032 
0.00462623 0.0147584 -0.00576327 
0.00884641 0.0126198 -0.00913824 
0.0118582 0.00971467 -0.0105546 
0.0139027 0.0062066 -0.0104107 
0.0149526 0.00209065 -0.0086712 
0.0146719 -0.0028254 -0.0048065 
0.0109837 -0.00977951 0.00449256 
0.00647198 -0.0171808 0.0150724 
-0.00406555 0.0236773 -0.00892727 
-0.0158793 0.0113547 0.0137794 
-0.0145709 0.00744752 0.0150724 
0.00459599 0.0147681 -0.012615 
0.0133211 0.01543 -0.0232899 
0.0161229 0.0123649 -0.0243505 
0.0182032 0.00884991 -0.0242428 
0.019548 0.00488548 -0.0229511 
0.0146641 -0.00285856 -0.01165 
0.000144954 -0.0163632 0.0150724 
0.00415137 -0.018623 0.0120224 
-0.00830716 0.0210226 -0.00892727 
-0.0168318 0.0107996 0.00848295 
-0.0187635 0.00483552 0.0150724 
-0.0166638 0.00143825 0.0150724 
0.0133096 0.0154403 -0.0302361 
0.01612 0.0123689 -0.0313061 
0.0182052 0.0088454 -0.0311976 
-0.00815545 -0.0120832 0.0148945 
-0.00616588 -0.0155478 0.0150724 
-0.00360169 -0.0186646 0.0143241 
0.00438225 -0.018535 0.00486524 
0.0150881 -0.0168317 -0.00892727 
-0.012538 0.0183747 -0.00892727 
-0.0166702 0.010954 0.00133698 
-0.0191108 0.00465572 0.00879298 
-0.0198238 -0.000518964 0.0133976 
-0.0183406 -0.00429925 0.0144021 
-0.0166545 -0.00794861 0.0150724 
-0.0145576 -0.0113415 0.0150724 
-0.0120454 -0.0144803 0.0143986 
-0.0084268 -0.0169501 0.0119355 
-0.00341856 -0.0185934 0.00723489 
0.00341785 -0.0191641 -0.000398382 
0.0108276 -0.0194318 -0.00892727 
-0.0167583 0.0157334 -0.00892727 
-0.0165245 0.0110985 -0.00581842 
-0.0189787 0.00477934 0.00169649 
-0.0196956 -0.000409949 0.0063335 
-0.0190726 -0.00473914 0.00875891 
-0.0172684 -0.00832365 0.00924489 
-0.0151668 -0.0117224 0.00924356 
-0.0119031 -0.0144102 0.00734987 
-0.00827319 -0.016885 0.00486793 
-0.00324865 -0.0185304 0.000132265 
0.0036137 -0.0190977 -0.00756241 
0.00657786 -0.0220252 -0.00892727 
-0.020161 0.013616 -0.0102635 
-0.0188488 0.00967048 -0.00892727 
-0.0188596 0.00489489 -0.0054137 
-0.0195802 -0.000308808 -0.000744635 
-0.0189567 -0.00464969 0.00169776 
-0.0171504 -0.00824478 0.00219076 
-0.0150431 -0.0116519 0.00218883 
-0.0126344 -0.0148747 0.00169431 
-0.0081324 -0.0168278 -0.00221353 
-0.00309296 -0.0184762 -0.00698223 
0.000220103 -0.0211836 -0.00892727 
0.00488657 -0.023095 -0.013061 
-0.0199671 0.0138043 -0.0175696 
-0.0230505 0.00704679 -0.00892727 
-0.0209341 0.00362293 -0.00892727 
-0.0194778 -0.000215633 -0.00783661 
-0.0188533 -0.00456792 -0.00537788 
-0.0170443 -0.00817324 -0.00487872 
-0.0149319 -0.0115891 -0.00488022 
-0.0125152 -0.0148189 -0.00538095 
-0.00890416 -0.0173254 -0.00783568 
-0.00612158 -0.0203443 -0.00892727 
-0.00269781 -0.0229843 -0.0110609 
0.00677165 -0.0220353 -0.0230318 
-0.0186576 0.0147082 -0.0267738 
-0.0233675 0.00689721 -0.0153783 
-0.0234377 0.00207952 -0.0117364 
-0.0230143 -0.00240937 -0.00892727 
-0.0209008 -0.00582886 -0.00892727 
-0.0187873 -0.00924836 -0.00892727 
-0.0166739 -0.0126679 -0.00892727 
-0.0145606 -0.0160875 -0.00892727 
-0.0124473 -0.0195071 -0.00892727 
-0.00998764 -0.0227178 -0.00949562 
-0.002614 -0.0229856 -0.0181082 
0.00698628 -0.0219707 -0.0303283 
-0.0185615 0.0148345 -0.0339973 
-0.0223525 0.00759621 -0.0240859 
-0.0234371 0.00212059 -0.0187264 
-0.0235073 -0.00269025 -0.0150763 
-0.0235772 -0.00748243 -0.0114405 
-0.0215894 -0.0109802 -0.0112317 
-0.0187204 -0.0139342 -0.0124829 
-0.0158476 -0.0168921 -0.0137359 
-0.0129709 -0.019854 -0.0149908 
-0.00994886 -0.0227345 -0.0164803 
-0.00237683 -0.0228951 -0.0254422 
0.00721229 -0.0218997 -0.0376799 
-0.0223313 0.00766257 -0.0311741 
-0.0233943 0.00218861 -0.0258219 
-0.0232666 -0.00250982 -0.02248 
-0.023577 -0.00746488 -0.01842 
-0.021593 -0.0109766 -0.0181955 
-0.0185802 -0.0138536 -0.0196816 
-0.0157993 -0.0168799 -0.0207779 
-0.012336 -0.019497 -0.0229998 
-0.0080046 -0.0216014 -0.0266483 
-0.00230258 -0.0229026 -0.0325442 
-0.0223099 0.00772927 -0.0382979 
-0.0233911 0.00223174 -0.0328862 
-0.0232702 -0.00248288 -0.0295115 
-0.022342 -0.00667639 -0.0275014 
-0.0207596 -0.0104541 -0.0265923 
-0.0185772 -0.0138576 -0.0266877 
-0.0157877 -0.0168902 -0.0277936 
-0.0123121 -0.0195115 -0.0300356 
-0.00796226 -0.0216165 -0.0337196 
-0.0232739 -0.00245579 -0.0365781 
-0.0223469 -0.0066618 -0.0345497 
-0.0207619 -0.0104496 -0.0336327 
-0.0185741 -0.0138615 -0.0337287 
-0.0157761 -0.0169006 -0.0348442 
-0.0122881 -0.0195261 -0.0371065 
-0.0107843 -0.0137612 0.0150724 
-0.0128999 -0.010338 0.0150724 
-0.0150156 -0.00691476 0.0150724 
-0.0171313 -0.00349158 0.0150724 
-0.0192472 -6.84099e-05 0.0150724 
-0.0023067 -0.0179624 0.0150724 
-0.00441955 -0.0145433 0.0150724 
-0.00811273 -0.0121107 0.0125503 
-0.0112919 -0.00934655 0.0108562 
-0.0134987 -0.00597472 0.0107148 
-0.0147487 -0.00201671 0.0120924 
-0.0149844 0.00255101 0.0150724 
-0.0170976 0.00596985 0.0150724 
0.00338261 -0.0191562 0.014015 
0.00192893 -0.0153236 0.0150724 
-0.00361834 -0.0140682 0.00955685 
-0.00809936 -0.0121193 0.00576936 
-0.0112888 -0.00935023 0.00406083 
-0.0135008 -0.00597038 0.00391848 
-0.0147512 -0.00200138 0.00530854 
-0.0147927 0.00269559 0.00861625 
-0.0128432 0.00857819 0.0150724 
-0.0149537 0.0119927 0.0150724 
0.00557943 -0.017809 0.0107371 
0.00418058 -0.0139393 0.0118886 
-0.00358645 -0.0140766 0.00277917 
-0.00808592 -0.012128 -0.00104377 
-0.0112856 -0.00935392 -0.00276689 
-0.0135029 -0.00596601 -0.00291011 
-0.0147538 -0.00198597 -0.00150754 
-0.0147879 0.00272664 0.00183192 
-0.0123656 0.00890574 0.00907272 
-0.0107074 0.0145901 0.0150724 
0.0124726 -0.0134722 0.0150724 
0.0043006 -0.0139032 0.00524664 
-0.00355344 -0.0140844 -0.00402904 
-0.00807242 -0.0121366 -0.00788935 
-0.0112824 -0.00935764 -0.00962718 
-0.013505 -0.00596163 -0.00977129 
-0.0147563 -0.00197049 -0.00835608 
-0.0147831 0.00275783 -0.00498458 
-0.0123201 0.00897257 0.00235578 
-0.00647198 0.0171808 0.0150724 
0.0162095 -0.0111444 0.0143173 
0.0145709 -0.00744752 0.0150724 
-0.00352026 -0.0140922 -0.0108696 
-0.0126273 -0.014997 -0.0221663 
-0.0155701 -0.0120221 -0.0234568 
-0.0177827 -0.00859092 -0.0235644 
-0.0192708 -0.00471585 -0.0225046 
-0.0147783 0.00278917 -0.0118335 
-0.000144954 0.0163632 0.0150724 
-0.00224732 0.0197649 0.0150724 
-0.0193594 0.0142251 -0.00892727 
0.00830716 -0.0210226 -0.00892727 
0.0160254 -0.0113129 0.00716495 
0.0186983 -0.00487677 0.014966 
0.0166638 -0.00143825 0.0150724 
-0.0126151 -0.0150067 -0.0291072 
-0.015567 -0.012026 -0.0304088 
-0.017785 -0.00858654 -0.0305171 
-0.0192749 -0.00470106 -0.029448 
0.00616588 0.0155478 0.0150724 
0.00406627 0.0189451 0.0150724 
-0.00217343 0.0198597 0.0084164 
-0.0150881 0.0168317 -0.00892727 
0.012538 -0.0183747 -0.00892727 
0.015856 -0.0114724 1.15957e-06 
0.0185489 -0.0050111 0.00787298 
0.0194063 0.000256614 0.0127152 
0.0187514 0.00455573 0.0150724 
0.0166545 0.00794861 0.0150724 
0.0145576 0.0113415 0.0150724 
0.0124607 0.0147344 0.0150724 
0.0092195 0.0174319 0.0132193 
0.00527271 0.0197128 0.0102322 
-0.00238324 0.0197846 0.00127105 
-0.0108276 0.0194318 -0.00892727 
0.0167583 -0.0157334 -0.00892727 
0.0157032 -0.0116215 -0.00717088 
0.0184127 -0.00513732 0.000766353 
0.0192763 0.000146472 0.00564565 
0.01875 0.0045378 0.00823077 
0.0178631 0.0086924 0.0102168 
0.0158198 0.0121246 0.0103089 
0.0126216 0.0148498 0.00851999 
0.00906586 0.0173667 0.00615638 
0.00510404 0.0196505 0.0031426 
-0.00257661 0.0197196 -0.00588283 
-0.00657786 0.0220252 -0.00892727 
0.017508 -0.0153167 -0.0146564 
0.0188488 -0.00967048 -0.00892727 
0.0192731 -0.00463332 -0.00473161 
0.019159 4.41051e-05 -0.00143821 
0.0186334 0.0044479 0.0011665 
0.0177434 0.00861246 0.0031635 
0.0156954 0.0120537 0.00325698 
0.0133481 0.0153114 0.00286089 
0.00981701 0.0178516 0.00053483 
0.00494853 0.0195963 -0.00396053 
-0.000220103 0.0211836 -0.00892727 
-0.00331795 0.0240291 -0.010516 
0.017194 -0.0155821 -0.0221785 
0.0230505 -0.00704679 -0.00892727 
0.0209341 -0.00362293 -0.00892727 
0.0199564 0.000516428 -0.00704557 
0.0193898 0.00490283 -0.00449285 
0.0176359 0.00854012 -0.00390455 
0.0155832 0.0119903 -0.00380977 
0.0132276 0.0152547 -0.00421231 
0.00968808 0.0178018 -0.00655203 
0.00612158 0.0203443 -0.00892727 
0.00400566 0.0237684 -0.00892727 
-0.00342073 0.0240306 -0.017575 
0.0170412 -0.0157445 -0.0294702 
0.0234364 -0.00685333 -0.0152635 
0.0235066 -0.00203593 -0.0116219 
0.0230143 0.00240937 -0.00892727 
0.0209008 0.00582886 -0.00892727 
0.0187873 0.00924836 -0.00892727 
0.0166739 0.0126679 -0.00892727 
0.0145606 0.0160875 -0.00892727 
0.0124473 0.0195071 -0.00892727 
0.0103341 0.0229269 -0.00892727 
0.00417246 0.0239198 -0.0155563 
-0.00429745 0.0235716 -0.0259336 
0.0168791 -0.0159133 -0.0368145 
0.0220324 -0.00780008 -0.0246208 
0.023506 -0.002077 -0.0186115 
0.0235762 0.00273355 -0.0149616 
0.0236461 0.00752543 -0.011326 
0.0222201 0.0113713 -0.0101856 
0.0193527 0.0143236 -0.0114361 
0.0164814 0.0172799 -0.0126884 
0.0136063 0.0202401 -0.0139425 
0.0107274 0.0232044 -0.0151985 
0.00370111 0.0236889 -0.0232657 
-0.00445375 0.0235419 -0.0331547 
0.022006 -0.00786974 -0.0317196 
0.0233884 -0.0021923 -0.0258317 
0.0234418 0.00261994 -0.0221872 
0.0236459 0.00750788 -0.0183051 
0.0222236 0.0113677 -0.0171455 
0.0193492 0.0143273 -0.0184037 
0.0164627 0.0172857 -0.0196774 
0.0131407 0.019986 -0.0216676 
0.00899862 0.0222013 -0.0250056 
0.00363218 0.0236996 -0.030351 
0.0219795 -0.00793976 -0.0388542 
0.0233827 -0.002237 -0.0329002 
0.0234441 0.00259215 -0.0292199 
0.0226534 0.00687081 -0.02698 
0.021189 0.0107203 -0.0258748 
0.019122 0.0141932 -0.0257789 
0.0164519 0.0172965 -0.0266879 
0.0131182 0.0200013 -0.0286961 
0.00895857 0.0222177 -0.032067 
0.0035629 0.0237102 -0.037472 
0.0234464 0.00256421 -0.0362877 
0.0226575 0.00685578 -0.0340276 
0.0211912 0.0107158 -0.0329127 
0.0191191 0.0141972 -0.0328163 
0.016441 0.0173073 -0.0337332 
0.0130956 0.0200167 -0.0357597 
-0.0192472 6.84099e-05 0.0150724 
-0.0171313 0.00349158 0.0150724 
-0.0150156 0.00691476 0.0150724 
-0.0128999 0.010338 0.0150724 
-0.0107843 0.0137612 0.0150724 
-0.00866878 0.0171846 0.0150724 
-0.0170976 -0.00596985 0.0150724 
-0.0149844 -0.00255101 0.0150724 
-0.0148708 0.00209141 0.0118987 
-0.0138314 0.00617968 0.0101857 
-0.0118121 0.00966907 0.0100276 
-0.00883981 0.0125645 0.0113899 
-0.00468741 0.0147116 0.0146441 
-0.0023067 0.0179624 0.0150724 
-0.0158592 -0.0114496 0.0136377 
-0.0128432 -0.00857819 0.0150724 
-0.0145913 -0.00281802 0.0089365 
-0.0148724 0.00207552 0.00511554 
-0.0138332 0.00617517 0.00338789 
-0.0118092 0.00967291 0.00322879 
-0.00882731 0.0125737 0.00460332 
-0.00465789 0.0147213 0.00788865 
0.00186245 0.0153656 0.0149655 
0.00403913 0.0187383 0.0150724 
-0.0136985 -0.0127959 0.0103159 
-0.0108809 -0.0098023 0.0114381 
-0.0145843 -0.00285043 0.00215694 
-0.014874 0.00205955 -0.0016998 
-0.0138351 0.00617065 -0.00344225 
-0.0118062 0.00967676 -0.00360239 
-0.00881476 0.0125829 -0.0022155 
-0.00462824 0.0147311 0.00110124 
0.00194104 0.0153556 0.00827495 
0.00826126 0.0161019 0.0150724 
-0.00647198 -0.0171808 0.0150724 
-0.0107917 -0.00989548 0.00479967 
-0.0145772 -0.002883 -0.00465473 
-0.0148756 0.00204351 -0.00854758 
-0.013837 0.0061661 -0.010305 
