# .PCD v0.7 - Point Cloud Data file format
VERSION 0.7
FIELDS x y z rgba
SIZE 4 4 4 4
TYPE F F F U
COUNT 1 1 1 1
WIDTH 1063
HEIGHT 1
VIEWPOINT 0 0 0 1 0 0 0
POINTS 1063
DATA ascii
-0.020634895 0.14611857 0.66600001 4294967295
-0.019397264 0.1461176 0.66600001 4294967295
-0.018159665 0.14611657 0.66600001 4294967295
-0.016922109 0.14611548 0.66600001 4294967295
-0.015684592 0.14611438 0.66600001 4294967295
-0.014447114 0.14611322 0.66600001 4294967295
-0.013229512 0.1463314 0.667 4294967295
-0.011990255 0.14633015 0.667 4294967295
-0.010767162 0.14654826 0.66799998 4294967295
-0.0095831724 0.14742444 0.67199999 4294967295
-0.008359557 0.14786182 0.67400002 4294967295
-0.0071074618 0.14786039 0.67400002 4294967295
-0.005855409 0.14785892 0.67400002 4294967292
-0.0046033976 0.14785738 0.67400002 4294967295
-0.0033564009 0.14807519 0.67500001 4294967295
-0.0021057324 0.14829296 0.676 4294967295
-0.0008526491 0.14873002 0.67799997 4294967288
0.00040722065 0.1489477 0.67900002 4294967287
0.0016756756 0.14960402 0.68199998 4294967287
0.0029509161 0.15004094 0.68400002 4294966516
0.0042335405 0.15047781 0.68599999 4294966259
0.0055155205 0.15069525 0.68699998 4294966259
0.0067912848 0.15069331 0.68699998 4294966516
0.0080787474 0.15091068 0.68800002 4294900207
0.0093834763 0.15134731 0.69 4294900207
0.010664674 0.15134522 0.69 4294703342
0.011997767 0.15200111 0.69300002 4294045411
0.013341949 0.15265691 0.69599998 4294177000
0.014676202 0.15309334 0.69800001 4294177000
0.016017834 0.1535297 0.69999999 4294176739
0.017317368 0.15352736 0.69999999 4293913310
0.018643446 0.15374428 0.70099998 4293781460
0.020001644 0.15418048 0.70300001 4293057738
-0.1100953 0.15106584 0.68300003 4294967295
-0.10834569 0.1504042 0.68000001 4294967295
-0.10707971 0.15040608 0.68000001 4294967295
-0.10581376 0.15040793 0.68000001 4294967295
-0.10439407 0.15018852 0.67900002 4294967295
-0.10313005 0.15019028 0.67900002 4294967295
-0.101716 0.14997078 0.67799997 4294967295
-0.10015759 0.14953007 0.676 4294967295
-0.098752923 0.14931051 0.67500001 4294967295
-0.097496457 0.14931209 0.67500001 4294967295
-0.096240021 0.14931363 0.67500001 4294967295
-0.094842911 0.14909396 0.67400002 4294967295
-0.093310677 0.14865297 0.67199999 4294967295
-0.091922924 0.14843319 0.671 4294967295
-0.090538934 0.14821336 0.67000002 4294967295
-0.089291967 0.14821468 0.67000002 4294967295
-0.088045023 0.14821599 0.67000002 4294967295
-0.086798117 0.14821723 0.67000002 4294967295
-0.085168175 0.1475548 0.667 4294967295
-0.083926909 0.14755596 0.667 4294967295
-0.082685672 0.14755709 0.667 4294967295
-0.08156658 0.14777942 0.66799998 4294967295
-0.080083065 0.14733802 0.66600001 4294967295
-0.078607008 0.14689654 0.66399997 4294967295
-0.077371493 0.14689751 0.66399997 4294967295
-0.076136 0.14689845 0.66399997 4294967295
-0.074900545 0.14689933 0.66399997 4294967295
-0.073665112 0.14690016 0.66399997 4294967295
-0.072320633 0.14667973 0.66299999 4294967295
-0.071087137 0.14668049 0.66299999 4294967295
-0.069748305 0.14645998 0.662 4294967295
-0.068516731 0.14646067 0.662 4294967295
-0.067183539 0.14624006 0.66100001 4294967295
-0.065953888 0.14624065 0.66100001 4294967295
-0.064724267 0.1462412 0.66100001 4294967295
-0.063494682 0.14624172 0.66100001 4294967295
-0.062265128 0.1462422 0.66100001 4294967295
-0.061035603 0.14624262 0.66100001 4294967295
-0.059806112 0.14624301 0.66100001 4294967295
-0.058576662 0.14624336 0.66100001 4294967295
-0.057347238 0.14624368 0.66100001 4294967295
-0.056117855 0.14624394 0.66100001 4294967295
-0.054888494 0.14624415 0.66100001 4294967295
-0.053659178 0.14624436 0.66100001 4294967295
-0.052429888 0.1462445 0.66100001 4294967295
-0.051045716 0.1458021 0.65899998 4294967295
-0.049744617 0.1455809 0.65799999 4294967295
-0.048521016 0.14558092 0.65799999 4294967295
-0.04729744 0.1455809 0.65799999 4294967295
-0.04607391 0.14558081 0.65799999 4294967295
-0.044850409 0.14558074 0.65799999 4294967295
-0.043626938 0.14558057 0.65799999 4294967295
-0.042403512 0.1455804 0.65799999 4294967295
-0.0412427 0.14580138 0.65899998 4294967295
-0.040017482 0.14580113 0.65899998 4294967295
-0.038792301 0.14580081 0.65899998 4294967295
-0.037567154 0.14580046 0.65899998 4294967295
-0.036452338 0.14624254 0.66100001 4294967295
-0.035223547 0.1462421 0.66100001 4294967295
-0.034046214 0.14646286 0.662 4294967295
-0.032815639 0.14646234 0.662 4294967295
-0.031680517 0.14690423 0.66399997 4294967295
-0.030400449 0.1466824 0.66299999 4294967295
-0.02916812 0.14668173 0.66299999 4294967295
-0.027935833 0.14668103 0.66299999 4294967295
-0.026743861 0.14690152 0.66399997 4294967295
-0.02550979 0.14690073 0.66399997 4294967295
-0.024239199 0.14667869 0.66299999 4294967295
-0.023007061 0.14667781 0.66299999 4294967295
-0.021807812 0.14689814 0.66399997 4294967295
-0.020635866 0.14733964 0.66600001 4294967295
-0.019398274 0.14733864 0.66600001 4294967295
-0.018160718 0.1473376 0.66600001 4294967295
-0.016923204 0.14733651 0.66600001 4294967295
-0.015685728 0.14733538 0.66600001 4294967295
-0.014448294 0.1473342 0.66600001 4294967295
-0.013230737 0.1475542 0.667 4294967295
-0.011991522 0.14755295 0.667 4294967295
-0.010768473 0.14777286 0.66799998 4294967295
-0.0095845349 0.14865638 0.67199999 4294967295
-0.008360967 0.14909741 0.67400002 4294967295
-0.0071089147 0.14909595 0.67400002 4294967295
-0.0058569047 0.14909448 0.67400002 4294967295
-0.004604937 0.14909294 0.67400002 4294967295
-0.003357986 0.14931259 0.67500001 4294967295
-0.002107363 0.14953214 0.676 4294967295
-0.00085558812 0.15019409 0.67900002 4294967289
0.00040549567 0.15019237 0.67900002 4294967287
0.0016665363 0.15019059 0.67900002 4294967288
0.0029577133 0.15173711 0.68599999 4294967295
0.0042316662 0.15173525 0.68599999 4294966774
0.0055135996 0.15195452 0.68699998 4294966001
0.0067893197 0.15195255 0.68699998 4294966001
0.0080767339 0.15217173 0.68800002 4294834158
0.0093542216 0.15216967 0.68800002 4294637036
0.010662569 0.15260994 0.69 4294768365
0.011943677 0.15260778 0.69 4294307814
0.013339736 0.15393259 0.69599998 4294111203
0.014673937 0.15437266 0.69800001 4294111203
0.016015518 0.15481268 0.69999999 4294110943
0.017339742 0.15503147 0.70099998 4293847515
0.018694224 0.15547138 0.70300001 4293452498
0.019999184 0.15546893 0.70300001 4293320655
-0.11009338 0.15231889 0.68300003 4294967295
-0.10866246 0.15209779 0.68199998 4294967295
-0.10707787 0.15165363 0.68000001 4294967295
-0.10581195 0.15165545 0.68000001 4294967295
-0.10439232 0.15143421 0.67900002 4294967295
-0.10312833 0.15143594 0.67900002 4294967295
-0.10171434 0.15121461 0.67799997 4294967295
-0.10015594 0.15077022 0.676 4294967295
-0.098751336 0.1505488 0.67500001 4294967295
-0.097494908 0.15055037 0.67500001 4294967295
-0.096238516 0.15055192 0.67500001 4294967295
-0.094841443 0.15033036 0.67400002 4294967295
-0.093309253 0.1498857 0.67199999 4294967295
-0.091921538 0.14966407 0.671 4294967295
-0.090672724 0.14966545 0.671 4294967295
-0.089290656 0.14944372 0.67000002 4294967295
-0.088043757 0.149445 0.67000002 4294967295
-0.086796895 0.14944623 0.67000002 4294967295
-0.085167006 0.14877826 0.667 4294967295
-0.083925776 0.14877942 0.667 4294967295
-0.082684584 0.14878055 0.667 4294967295
-0.081565522 0.14900468 0.66799998 4294967295
-0.080082044 0.1485596 0.66600001 4294967295
-0.078606032 0.14811446 0.66399997 4294967295
-0.077370562 0.14811541 0.66399997 4294967295
-0.076135106 0.14811632 0.66399997 4294967295
-0.074899696 0.1481172 0.66399997 4294967295
-0.073553361 0.14789495 0.66299999 4294967295
-0.072319865 0.14789574 0.66299999 4294967295
-0.071086399 0.14789648 0.66299999 4294967295
-0.069747619 0.14767413 0.662 4294967295
-0.068516083 0.1476748 0.662 4294967295
-0.067182936 0.14745235 0.66100001 4294967295
-0.065953322 0.14745292 0.66100001 4294967295
-0.064723745 0.14745346 0.66100001 4294967295
-0.063494198 0.14745396 0.66100001 4294967295
-0.062264685 0.14745441 0.66100001 4294967295
-0.061035205 0.14745486 0.66100001 4294967295
-0.059805751 0.14745523 0.66100001 4294967295
-0.058576338 0.14745556 0.66100001 4294967295
-0.057346962 0.14745586 0.66100001 4294967295
-0.056117609 0.14745611 0.66100001 4294967295
-0.054888304 0.14745632 0.66100001 4294967295
-0.053659018 0.1474565 0.66100001 4294967295
-0.052271135 0.14701046 0.65899998 4294967295
-0.051045645 0.14701054 0.65899998 4294967295
-0.049744587 0.14678751 0.65799999 4294967295
-0.048447281 0.14656442 0.65700001 4294967295
-0.047225613 0.14656438 0.65700001 4294967295
-0.046074003 0.14678741 0.65799999 4294967295
-0.044850543 0.14678729 0.65799999 4294967295
-0.04356081 0.14656402 0.65700001 4294967295
-0.042339288 0.14656383 0.65700001 4294967295
-0.041242957 0.14700975 0.65899998 4294967295
-0.039896335 0.14656329 0.65700001 4294967295
-0.03867491 0.14656296 0.65700001 4294967295
-0.037453525 0.14656261 0.65700001 4294967295
-0.03623217 0.14656217 0.65700001 4294967295
-0.035224017 0.14745405 0.66100001 4294967295
-0.034046724 0.14767662 0.662 4294967295
-0.03281619 0.14767608 0.662 4294967295
-0.031681117 0.14812163 0.66399997 4294967295
-0.030401086 0.14789793 0.66299999 4294967295
-0.029168803 0.14789727 0.66299999 4294967295
-0.027936557 0.14789656 0.66299999 4294967295
-0.026744626 0.14811885 0.66399997 4294967295
-0.025510602 0.14811806 0.66399997 4294967295
-0.024240052 0.14789416 0.66299999 4294967295
-0.023007955 0.14789329 0.66299999 4294967295
-0.021808743 0.14811543 0.66399997 4294967295
-0.020636845 0.14856058 0.66600001 4294967295
-0.019399295 0.14855957 0.66600001 4294967295
-0.018161783 0.14855851 0.66600001 4294967295
-0.016924312 0.14855741 0.66600001 4294967295
-0.015686879 0.14855628 0.66600001 4294967295
-0.014471184 0.14877814 0.667 4294967295
-0.013251812 0.14899996 0.66799998 4294967295
-0.012010784 0.14899869 0.66799998 4294967295
-0.010802043 0.14944346 0.67000002 4294967295
-0.0095859123 0.14988819 0.67199999 4294967295
-0.0083375759 0.14988679 0.67199999 4294967294
-0.0071103824 0.15033142 0.67400002 4294967295
-0.0058584143 0.1503299 0.67400002 4294967295
-0.0046064905 0.15032837 0.67400002 4294967295
-0.0033595851 0.15054981 0.67500001 4294967292
-0.0021152475 0.15121727 0.67799997 4294967290
-0.00085602124 0.15121558 0.67799997 4294967287
0.00040316171 0.15121385 0.67799997 4294966772
0.0016647533 0.15143511 0.67900002 4294966257
0.0029429419 0.15232539 0.68300003 4294966516
0.0042112796 0.15232351 0.68300003 4294967029
0.00550364 0.15299062 0.68599999 4294965739
0.0067873397 0.15321168 0.68699998 4294899690
0.0080629699 0.15320966 0.68699998 4294833899
0.0093521494 0.15343061 0.68800002 4294373348
0.010629547 0.15342849 0.68800002 4294505447
0.011941511 0.15387234 0.69 4294110689
0.013222529 0.15387012 0.69 4294176737
0.014503501 0.15386789 0.69 4294176737
0.016081816 0.15676451 0.70300001 4293979355
0.017386828 0.15676212 0.70300001 4293716184
0.018691791 0.15675968 0.70300001 4293649620
-0.11185216 0.15424448 0.68599999 4294967295
-0.11025264 0.15379672 0.68400002 4294967295
-0.10881993 0.15357378 0.68300003 4294967295
-0.10707605 0.15290107 0.68000001 4294967295
-0.10581017 0.15290289 0.68000001 4294967295
-0.10454432 0.15290464 0.68000001 4294967295
-0.10312661 0.15268151 0.67900002 4294967295
-0.10171266 0.15245833 0.67799997 4294967295
-0.10015433 0.15201025 0.676 4294967295
-0.098749757 0.15178697 0.67500001 4294967295
-0.097493365 0.15178853 0.67500001 4294967295
-0.096237004 0.15179005 0.67500001 4294967295
-0.094839975 0.15156665 0.67400002 4294967295
-0.09330783 0.15111834 0.67199999 4294967295
-0.09192019 0.15089485 0.671 4294967295
-0.09067139 0.15089619 0.671 4294967295
-0.089289375 0.15067263 0.67000002 4294967295
-0.088042505 0.1506739 0.67000002 4294967295
-0.086795673 0.15067512 0.67000002 4294967295
-0.085293517 0.15022653 0.66799998 4294967295
-0.083924651 0.15000279 0.667 4294967295
-0.082683489 0.1500039 0.667 4294967295
-0.081442378 0.15000497 0.667 4294967295
-0.080081046 0.14978109 0.66600001 4294967295
-0.078605078 0.14933227 0.66399997 4294967295
-0.077369638 0.14933319 0.66399997 4294967295
-0.076134227 0.14933409 0.66399997 4294967295
-0.074786052 0.14911005 0.66299999 4294967295
-0.073552564 0.14911087 0.66299999 4294967295
-0.072319113 0.14911164 0.66299999 4294967295
-0.071085691 0.14911239 0.66299999 4294967295
-0.0698523 0.14911307 0.66299999 4294967295
-0.06851545 0.14888883 0.662 4294967295
-0.06718234 0.14866452 0.66100001 4294967295
-0.06595277 0.1486651 0.66100001 4294967295
-0.064723238 0.14866562 0.66100001 4294967295
-0.063493729 0.14866611 0.66100001 4294967295
-0.062264256 0.14866655 0.66100001 4294967295
-0.06103481 0.14866695 0.66100001 4294967295
-0.059805408 0.14866732 0.66100001 4294967295
-0.058576033 0.14866763 0.66100001 4294967295
-0.057346698 0.14866792 0.66100001 4294967295
-0.056117389 0.14866817 0.66100001 4294967295
-0.054888114 0.14866836 0.66100001 4294967295
-0.053496517 0.14821868 0.65899998 4294967295
-0.052271038 0.1482188 0.65899998 4294967295
-0.050890666 0.14776905 0.65700001 4294967295
-0.049668975 0.14776909 0.65700001 4294967295
-0.048447307 0.14776906 0.65700001 4294967295
-0.047225676 0.147769 0.65700001 4294967295
-0.046074107 0.14799385 0.65799999 4294967295
-0.044850688 0.14799371 0.65799999 4294967295
-0.043561004 0.14776863 0.65700001 4294967295
-0.042339515 0.14776841 0.65700001 4294967295
-0.041180648 0.14799306 0.65799999 4294967295
-0.039896645 0.14776784 0.65700001 4294967295
-0.038675264 0.1477675 0.65700001 4294967295
-0.037453923 0.14776713 0.65700001 4294967295
-0.036232613 0.14776671 0.65700001 4294967295
-0.035117913 0.14821605 0.65899998 4294967295
-0.033995822 0.14866535 0.66100001 4294967295
-0.032767188 0.1486648 0.66100001 4294967295
-0.031538587 0.14866422 0.66100001 4294967295
-0.030310031 0.14866358 0.66100001 4294967295
-0.029169494 0.14911269 0.66299999 4294967295
-0.027937291 0.14911197 0.66299999 4294967295
-0.026705127 0.14911121 0.66299999 4294967295
-0.025473002 0.14911041 0.66299999 4294967295
-0.024240911 0.14910953 0.66299999 4294967295
-0.023043564 0.14933354 0.66399997 4294967295
-0.021809695 0.14933261 0.66399997 4294967295
-0.020575864 0.14933161 0.66399997 4294967295
-0.019342074 0.14933059 0.66399997 4294967295
-0.018108319 0.14932953 0.66399997 4294967295
-0.016925434 0.1497782 0.66600001 4294967295
-0.015688045 0.14977704 0.66600001 4294967295
-0.014472393 0.15000074 0.667 4294967295
-0.013292747 0.15067415 0.67000002 4294967295
-0.012048045 0.15067287 0.67000002 4294967295
-0.010819512 0.1508964 0.671 4294967295
-0.0095873019 0.1511199 0.67199999 4294967295
-0.0083390102 0.15111846 0.67199999 4294967295
-0.0071118628 0.15156677 0.67400002 4294967295
-0.0058599398 0.15156524 0.67400002 4294967294
-0.0046080584 0.15156367 0.67400002 4294967293
-0.0033611988 0.15178695 0.67500001 4294967030
-0.0021169113 0.15245989 0.67799997 4294965744
-0.00085772882 0.15245819 0.67799997 4294965744
0.00040141068 0.15245643 0.67799997 4294965744
0.0016629561 0.15267952 0.67900002 4294965487
0.0029410901 0.15357712 0.68300003 4294965746
0.0042093839 0.15357521 0.68300003 4294833647
0.0055016922 0.15424781 0.68599999 4294767590
0.0067853448 0.15447068 0.68699998 4294964713
0.0080609322 0.15446866 0.68699998 4294767590
0.0093500633 0.15469141 0.68800002 4294570211
0.010627416 0.1546893 0.68800002 4294768106
0.01193933 0.15513678 0.69 4294307555
0.013220306 0.15513457 0.69 4294177252
0.014501232 0.15513229 0.69 4293979616
-0.11804257 0.1586702 0.69999999 4294967295
-0.11640579 0.15821896 0.69800001 4294967295
-0.11477645 0.15776764 0.69599998 4294967295
-0.11185022 0.15550283 0.68599999 4294967295
-0.11025076 0.15505141 0.68400002 4294967295
-0.10881808 0.15482661 0.68300003 4294967295
-0.10707423 0.15414837 0.68000001 4294967295
-0.10580839 0.15415016 0.68000001 4294967295
-0.10454258 0.15415192 0.68000001 4294967295
-0.10312492 0.15392694 0.67900002 4294967295
-0.10171102 0.15370192 0.67799997 4294967295
-0.10015272 0.15325014 0.676 4294967295
-0.098748192 0.15302502 0.67500001 4294967295
-0.097491845 0.15302657 0.67500001 4294967295
-0.096092962 0.15280138 0.67400002 4294967295
-0.094838537 0.15280284 0.67400002 4294967295
-0.09330643 0.15235081 0.67199999 4294967295
-0.091918826 0.15212549 0.671 4294967295
-0.090670086 0.15212682 0.671 4294967295
-0.089421369 0.15212813 0.671 4294967295
-0.088172682 0.15212938 0.671 4294967295
-0.086794488 0.15190387 0.67000002 4294967295
-0.085292362 0.1514516 0.66799998 4294967295
-0.083923534 0.15122601 0.667 4294967295
-0.082682423 0.1512271 0.667 4294967295
-0.08144135 0.15122816 0.667 4294967295
-0.080080055 0.15100244 0.66600001 4294967295
-0.078604139 0.15054993 0.66399997 4294967295
-0.077368736 0.15055086 0.66399997 4294967295
-0.076133363 0.15055175 0.66399997 4294967295
-0.074785233 0.15032585 0.66299999 4294967295
-0.073551774 0.15032665 0.66299999 4294967295
-0.072209291 0.15010069 0.662 4294967295
-0.07097777 0.15010141 0.662 4294967295
-0.069746278 0.15010208 0.662 4294967295
-0.068514824 0.15010273 0.662 4294967295
-0.067181766 0.14987658 0.66100001 4294967295
-0.065952227 0.14987713 0.66100001 4294967295
-0.064722732 0.14987764 0.66100001 4294967295
-0.063493267 0.14987811 0.66100001 4294967295
-0.062263843 0.14987855 0.66100001 4294967295
-0.061034437 0.14987893 0.66100001 4294967295
-0.059624113 0.14942579 0.65899998 4294967295
-0.0583985 0.1494261 0.65899998 4294967295
-0.057346445 0.14987986 0.66100001 4294967295
-0.056117181 0.1498801 0.66100001 4294967295
-0.054887947 0.14988028 0.66100001 4294967295
-0.053496391 0.14942691 0.65899998 4294967295
-0.052270949 0.14942703 0.65899998 4294967295
-0.050890621 0.14897358 0.65700001 4294967295
-0.049668964 0.14897361 0.65700001 4294967295
-0.048299864 0.14852008 0.65499997 4294967295
-0.047081992 0.14852001 0.65499997 4294967295
-0.046004202 0.14897342 0.65700001 4294967295
-0.044782691 0.14897329 0.65700001 4294967295
-0.043561205 0.14897309 0.65700001 4294967295
-0.042339757 0.14897285 0.65700001 4294967295
-0.041180931 0.14919934 0.65799999 4294967295
-0.039957695 0.14919901 0.65799999 4294967295
-0.038734499 0.14919865 0.65799999 4294967295
-0.037568342 0.149425 0.65899998 4294967295
-0.036343358 0.14942455 0.65899998 4294967295
-0.035118409 0.14942406 0.65899998 4294967295
-0.033893496 0.14942355 0.65899998 4294967295
-0.032767765 0.14987648 0.66100001 4294967295
-0.031539209 0.14987588 0.66100001 4294967295
-0.03031069 0.14987522 0.66100001 4294967295
-0.029082211 0.14987452 0.66100001 4294967295
-0.027895903 0.15010051 0.662 4294967295
-0.026705919 0.15032648 0.66299999 4294967295
-0.025473837 0.15032566 0.66299999 4294967295
-0.024241788 0.15032478 0.66299999 4294967295
-0.023044484 0.1505506 0.66399997 4294967295
-0.021810656 0.15054964 0.66399997 4294967295
-0.020576868 0.15054864 0.66399997 4294967295
-0.019343121 0.15054762 0.66399997 4294967295
-0.018109409 0.15054654 0.66399997 4294967295
-0.01692657 0.15099886 0.66600001 4294967295
-0.015712781 0.1512244 0.667 4294967295
-0.014473615 0.1512232 0.667 4294967295
-0.013294017 0.15190209 0.67000002 4294967295
-0.012049359 0.1519008 0.67000002 4294967295
-0.01082087 0.15212616 0.671 4294967293
-0.0095887072 0.15235147 0.67199999 4294967295
-0.0083404575 0.15235002 0.67199999 4294967295
-0.0071133585 0.15280196 0.67400002 4294967292
-0.0058614779 0.15280043 0.67400002 4294966772
-0.0046096402 0.15279886 0.67400002 4294967027
-0.0033578442 0.15279725 0.67400002 4294965485
-0.0021185896 0.15370236 0.67799997 4294965746
-0.00085945049 0.15370065 0.67799997 4294965746
0.00040023495 0.1539256 0.67900002 4294900207
0.0016611445 0.15392378 0.67900002 4294900207
0.0029349208 0.15460199 0.68199998 4294308336
0.0042013139 0.1546001 0.68199998 4294044907
0.0054997304 0.15550488 0.68599999 4294439143
0.0067734621 0.15550287 0.68599999 4294833645
0.0080588777 0.15572752 0.68699998 4294701795
0.0093479631 0.1559521 0.68800002 4294175451
0.010625271 0.15594995 0.68800002 4294373346
0.011937137 0.1564011 0.69 4294110173
0.013218064 0.15639886 0.69 4293913310
0.014583001 0.15730323 0.69400001 4293847517
-0.12081938 0.16017839 0.70099998 4294106535
-0.11934375 0.15995204 0.69999999 4294967295
-0.11804049 0.15995418 0.69999999 4294967295
-0.11640374 0.15949923 0.69800001 4294967295
-0.11477444 0.15904422 0.69599998 4294967295
-0.11184829 0.15676107 0.68599999 4294967295
-0.11024888 0.15630594 0.68400002 4294967295
-0.10881624 0.15607929 0.68300003 4294967295
-0.10738736 0.15585259 0.68199998 4294967295
-0.10580663 0.15539733 0.68000001 4294967295
-0.10438713 0.15517054 0.67900002 4294967295
-0.10312326 0.15517226 0.67900002 4294967295
-0.10170937 0.15494537 0.67799997 4294967295
-0.10015114 0.15448992 0.676 4294967295
-0.098746642 0.15426296 0.67500001 4294967295
-0.097490333 0.15426449 0.67500001 4294967295
-0.096091494 0.15403745 0.67400002 4294967295
-0.094837114 0.15403888 0.67400002 4294967295
-0.093305051 0.1535832 0.67199999 4294967295
-0.091917478 0.15335602 0.671 4294967295
-0.090668775 0.15335734 0.671 4294967295
-0.089420095 0.15335864 0.671 4294967295
-0.088171452 0.15335988 0.671 4294967295
-0.086793311 0.15313253 0.67000002 4294967295
-0.085291229 0.15267657 0.66799998 4294967295
-0.084048256 0.15267769 0.66799998 4294967295
-0.082805321 0.15267876 0.66799998 4294967295
-0.08144033 0.15245123 0.667 4294967295
-0.079838596 0.15176652 0.66399997 4294967295
-0.078603201 0.15176748 0.66399997 4294967295
-0.077367842 0.15176839 0.66399997 4294967295
-0.076132506 0.15176927 0.66399997 4294967295
-0.07478442 0.15154153 0.66299999 4294967295
-0.073551014 0.15154231 0.66299999 4294967295
-0.072208554 0.15131448 0.662 4294967295
-0.070977084 0.1513152 0.662 4294967295
-0.06974563 0.15131587 0.662 4294967295
-0.06851422 0.15131649 0.662 4294967295
-0.0671812 0.15108849 0.66100001 4294967295
-0.065951698 0.15108904 0.66100001 4294967295
-0.064722247 0.15108953 0.66100001 4294967295
-0.063492827 0.15109 0.66100001 4294967295
-0.06226344 0.15109043 0.66100001 4294967295
-0.061034076 0.15109082 0.66100001 4294967295
-0.059623789 0.15063398 0.65899998 4294967295
-0.058398224 0.15063427 0.65899998 4294967295
-0.057172686 0.15063453 0.65899998 4294967295
-0.05611698 0.15109192 0.66100001 4294967295
-0.054887787 0.15109207 0.66100001 4294967295
-0.053658631 0.1510922 0.66100001 4294967295
-0.052270874 0.15063512 0.65899998 4294967295
-0.050890591 0.15017802 0.65700001 4294967295
-0.049668968 0.15017802 0.65700001 4294967295
-0.048299912 0.14972082 0.65499997 4294967295
-0.047082085 0.14972074 0.65499997 4294967295
-0.046004336 0.15017779 0.65700001 4294967295
-0.044782862 0.15017764 0.65700001 4294967295
-0.043561418 0.15017743 0.65700001 4294967295
-0.042340014 0.15017718 0.65700001 4294967295
-0.041181222 0.15040547 0.65799999 4294967295
-0.04001876 0.15063372 0.65899998 4294967295
-0.038793746 0.15063335 0.65899998 4294967295
-0.037568767 0.15063293 0.65899998 4294967295
-0.03634382 0.1506325 0.65899998 4294967295
-0.035118915 0.15063199 0.65899998 4294967295
-0.033894043 0.15063146 0.65899998 4294967295
-0.032669209 0.15063089 0.65899998 4294967295
-0.031444412 0.15063025 0.65899998 4294967295
-0.030219652 0.15062958 0.65899998 4294967295
-0.02908293 0.15108603 0.66100001 4294967295
-0.027854528 0.15108529 0.66100001 4294967295
-0.026626164 0.15108448 0.66100001 4294967295
-0.025397835 0.15108365 0.66100001 4294967295
-0.024206113 0.15131135 0.662 4294967295
-0.023045419 0.15176755 0.66399997 4294967295
-0.021811632 0.15176657 0.66399997 4294967293
-0.020577887 0.15176557 0.66399997 4294967292
-0.019344181 0.15176451 0.66399997 4294967295
-0.018110512 0.15176341 0.66399997 4294967294
-0.016927721 0.1522194 0.66600001 4294967295
-0.015713975 0.15244678 0.667 4294967295
-0.014474853 0.15244554 0.667 4294967295
-0.013295304 0.15312994 0.67000002 4294967295
-0.01205069 0.15312859 0.67000002 4294967295
-0.010822244 0.15335579 0.671 4294967287
-0.0095901256 0.15358293 0.67199999 4294967288
-0.0083419196 0.15358147 0.67199999 4294967290
-0.0070937555 0.15357997 0.67199999 4294967285
-0.0058456329 0.15357843 0.67199999 4294967284
-0.0046386016 0.15494806 0.67799997 4294967032
-0.0033794206 0.1549464 0.67799997 4294965746
-0.002120282 0.15494472 0.67799997 4294965742
-0.00086118648 0.15494299 0.67799997 4294965485
0.00039786589 0.15494123 0.67799997 4294439654
0.0016593189 0.15516794 0.67900002 4294110689
0.0029244421 0.1553946 0.68000001 4294044896
0.0041993926 0.15584971 0.68199998 4294110689
0.0054977536 0.15676183 0.68599999 4294439143
0.0067714411 0.1567598 0.68599999 4294636265
0.0080450829 0.15675773 0.68599999 4294636517
0.0093458481 0.15721264 0.68800002 4294636517
0.010623112 0.1572105 0.68800002 4294636767
0.011934927 0.15766528 0.69 4294242009
0.013234964 0.15789153 0.69099998 4293782494
0.014580688 0.15857472 0.69400001 4293716701
-0.12064489 0.16123378 0.69999999 4292729050
-0.11934165 0.16123591 0.69999999 4294967295
-0.1180384 0.16123801 0.69999999 4294967295
-0.11606817 0.16031869 0.69599998 4294967295
-0.11444266 0.15986001 0.69400001 4294967295
-0.11184639 0.15801919 0.68599999 4294967295
-0.11024699 0.15756038 0.68400002 4294967295
-0.10881439 0.15733188 0.68300003 4294967295
-0.10738557 0.15710333 0.68199998 4294967295
-0.10580489 0.1566444 0.68000001 4294967295
-0.10438543 0.15641576 0.67900002 4294967295
-0.10312159 0.15641744 0.67900002 4294967295
-0.10170776 0.15618871 0.67799997 4294967295
-0.10014956 0.15572959 0.676 4294967295
-0.098745108 0.15550078 0.67500001 4294967295
-0.097344413 0.15527192 0.67400002 4294967295
-0.0958049 0.15481265 0.67199999 4294967295
-0.094554275 0.15481408 0.67199999 4294967295
-0.093164846 0.15458509 0.671 4294967295
-0.091916151 0.15458643 0.671 4294967295
-0.090667486 0.15458775 0.671 4294967295
-0.089418851 0.15458901 0.671 4294967295
-0.08817023 0.15459023 0.671 4294967295
-0.086792126 0.15436105 0.67000002 4294967295
-0.085290104 0.1539014 0.66799998 4294967295
-0.084047176 0.15390252 0.66799998 4294967295
-0.082804278 0.15390357 0.66799998 4294967295
-0.081439316 0.15367422 0.667 4294967295
-0.079837635 0.15298399 0.66399997 4294967295
-0.078602284 0.15298493 0.66399997 4294967295
-0.077366956 0.15298583 0.66399997 4294967295
-0.076017015 0.15275629 0.66299999 4294967295
-0.074783616 0.15275711 0.66299999 4294967295
-0.073550254 0.15275787 0.66299999 4294967295
-0.071880624 0.15183699 0.65899998 4294967295
-0.070654765 0.15183766 0.65899998 4294967295
-0.069639646 0.15229915 0.66100001 4294967295
-0.068513624 0.15253016 0.662 4294967295
-0.067180641 0.15230033 0.66100001 4294967295
-0.065951198 0.15230085 0.66100001 4294967295
-0.064721785 0.15230134 0.66100001 4294967295
-0.063492395 0.15230179 0.66100001 4294967295
-0.062263045 0.15230219 0.66100001 4294967295
-0.060849052 0.15184173 0.65899998 4294967295
-0.059623484 0.15184204 0.65899998 4294967295
-0.05839796 0.15184233 0.65899998 4294967295
-0.057172462 0.15184258 0.65899998 4294967295
-0.055947002 0.15184277 0.65899998 4294967295
-0.054721572 0.15184294 0.65899998 4294967295
-0.053496171 0.15184303 0.65899998 4294967295
-0.052270811 0.15184313 0.65899998 4294967295
-0.050890569 0.15138233 0.65700001 4294967295
-0.049668994 0.15138233 0.65700001 4294967295
-0.04844746 0.15138228 0.65700001 4294967295
-0.047225948 0.15138218 0.65700001 4294967295
-0.046004485 0.15138204 0.65700001 4294967295
-0.044851214 0.1516123 0.65799999 4294967295
-0.043627948 0.15161206 0.65799999 4294967295
-0.042404734 0.15161182 0.65799999 4294967295
-0.041181538 0.15161152 0.65799999 4294967295
-0.040019117 0.15184158 0.65899998 4294967295
-0.038794141 0.15184121 0.65899998 4294967295
-0.037569202 0.15184078 0.65899998 4294967295
-0.036344301 0.15184031 0.65899998 4294967295
-0.035119437 0.15183979 0.65899998 4294967295
-0.033894606 0.15183924 0.65899998 4294967295
-0.032669812 0.15183865 0.65899998 4294967295
-0.03144506 0.151838 0.65899998 4294967295
-0.030220343 0.15183733 0.65899998 4294967295
-0.028995657 0.15183663 0.65899998 4294967295
-0.027855301 0.15229666 0.66100001 4294967295
-0.026626978 0.15229587 0.66100001 4294967295
-0.025398696 0.15229501 0.66100001 4294967295
-0.024170449 0.15229413 0.66100001 4294967295
-0.022942239 0.15229319 0.66100001 4294967295
-0.021812623 0.1529834 0.66399997 4294967294
-0.020578921 0.15298237 0.66399997 4294967295
-0.019316124 0.15275091 0.66299999 4294967294
-0.018084355 0.15274979 0.66299999 4294967294
-0.016928881 0.15343982 0.66600001 4294967293
-0.015715182 0.15366901 0.667 4294967290
-0.014497807 0.15389815 0.66799998 4294967295
-0.013296601 0.15435764 0.67000002 4294967295
-0.01207002 0.15458669 0.671 4294967290
-0.010823632 0.1545853 0.671 4294967032
-0.0095772846 0.15458389 0.671 4294967287
-0.0083309803 0.15458243 0.671 4294967288
-0.0070847152 0.15458091 0.671 4294967027
-0.0058645969 0.15527046 0.67400002 4294768106
-0.0046128458 0.15526886 0.67400002 4294703090
-0.0033810835 0.15618867 0.67799997 4294505710
-0.0021219887 0.15618697 0.67799997 4294834149
-0.00086293678 0.15618521 0.67799997 4294899942
0.00039607205 0.15618342 0.67799997 4294571242
0.0016574787 0.15641196 0.67900002 4294110691
0.0029182578 0.1564101 0.67900002 4294175703
0.0041974564 0.15709922 0.68199998 4294702047
0.005495762 0.15801862 0.68599999 4294570472
0.0067694047 0.15801659 0.68599999 4294373350
0.0080430033 0.15801452 0.68599999 4294570722
0.0093437191 0.15847309 0.68800002 4294439393
0.010651812 0.15893157 0.69 4294308306
0.011932701 0.15892936 0.69 4294308306
0.013232693 0.15915741 0.69099998 4294110691
0.014578364 0.15984608 0.69400001 4293979105
-0.12064275 0.16251752 0.69999999 4292202955
-0.11933953 0.16251965 0.69999999 4294967295
-0.11803634 0.16252172 0.69999999 4294967295
-0.11439855 0.15927328 0.68599999 4294967295
-0.11312149 0.15927525 0.68599999 4294967295
-0.11184447 0.15927719 0.68599999 4294967295
-0.11024514 0.1588147 0.68400002 4294967295
-0.10881259 0.15858436 0.68300003 4294967295
-0.10738379 0.15835395 0.68199998 4294967295
-0.10580316 0.15789133 0.68000001 4294967295
-0.10438375 0.15766086 0.67900002 4294967295
-0.10311995 0.15766253 0.67900002 4294967295
-0.10170615 0.15743195 0.67799997 4294967295
-0.100148 0.15696913 0.676 4294967295
-0.09859731 0.15650627 0.67400002 4294967295
-0.097342931 0.15650778 0.67400002 4294967295
-0.095803455 0.15604481 0.67199999 4294967295
-0.094412185 0.15581402 0.671 4294967295
-0.09316349 0.15581539 0.671 4294967295
-0.091914825 0.15581673 0.671 4294967295
-0.090666212 0.15581803 0.671 4294967295
-0.089417607 0.15581928 0.671 4294967295
-0.088037655 0.15558827 0.67000002 4294967295
-0.086790979 0.15558946 0.67000002 4294967295
-0.085288994 0.15512612 0.66799998 4294967295
-0.084046103 0.15512723 0.66799998 4294967295
-0.082803242 0.15512827 0.66799998 4294967295
-0.08131624 0.15466483 0.66600001 4294967295
-0.079836704 0.15420133 0.66399997 4294967295
-0.078483 0.15397002 0.66299999 4294967295
-0.077133074 0.15373868 0.662 4294967295
-0.075901538 0.15373953 0.662 4294967295
-0.074557252 0.15350807 0.66100001 4294967295
-0.073327646 0.15350884 0.66100001 4294967295
-0.071879916 0.15304506 0.65899998 4294967295
-0.070654094 0.15304574 0.65899998 4294967295
-0.06963902 0.15351087 0.66100001 4294967295
-0.068513043 0.1537437 0.662 4294967295
-0.067281738 0.15374425 0.662 4294967295
-0.065950699 0.15351254 0.66100001 4294967295
-0.064721316 0.15351301 0.66100001 4294967295
-0.063491985 0.15351345 0.66100001 4294967295
-0.062262669 0.15351383 0.66100001 4294967295
-0.06084872 0.15304969 0.65899998 4294967295
-0.059623197 0.15305001 0.65899998 4294967295
-0.058397707 0.15305026 0.65899998 4294967295
-0.05717225 0.1530505 0.65899998 4294967295
-0.055946831 0.15305066 0.65899998 4294967295
-0.054721437 0.15305082 0.65899998 4294967295
-0.053496081 0.15305091 0.65899998 4294967295
-0.052270766 0.15305097 0.65899998 4294967295
-0.050890557 0.1525865 0.65700001 4294967295
-0.049669027 0.15258649 0.65700001 4294967295
-0.048447531 0.15258643 0.65700001 4294967295
-0.047226068 0.15258633 0.65700001 4294967295
-0.046004642 0.15258618 0.65700001 4294967295
-0.044851404 0.15281825 0.65799999 4294967295
-0.043628193 0.15281801 0.65799999 4294967295
-0.042405009 0.15281774 0.65799999 4294967295
-0.041181862 0.15281743 0.65799999 4294967295
-0.040019486 0.15304932 0.65899998 4294967295
-0.038794547 0.1530489 0.65899998 4294967295
-0.037569653 0.15304847 0.65899998 4294967295
-0.036344796 0.15304799 0.65899998 4294967295
-0.035119969 0.15304747 0.65899998 4294967295
-0.033895183 0.15304691 0.65899998 4294967295
-0.032670435 0.1530463 0.65899998 4294967295
-0.031397998 0.1528134 0.65799999 4294967295
-0.030175187 0.15281272 0.65799999 4294967295
-0.028952405 0.15281199 0.65799999 4294967295
-0.027771801 0.15304345 0.65899998 4294967295
-0.026547238 0.15304263 0.65899998 4294967295
-0.025399569 0.15350625 0.66100001 4294967295
-0.024171365 0.15350534 0.66100001 4294967295
-0.022943201 0.15350439 0.66100001 4294967295
-0.021780776 0.15396786 0.66299999 4294967294
-0.020548973 0.15396683 0.66299999 4294967295
-0.01931721 0.15396574 0.66299999 4294967295
-0.018085485 0.15396461 0.66299999 4294967295
-0.01693006 0.15466012 0.66600001 4294967294
-0.015716404 0.15489113 0.667 4294967295
-0.014499074 0.15512207 0.66799998 4294967295
-0.013297915 0.15558521 0.67000002 4294967295
-0.012053388 0.15558387 0.67000002 4294967288
-0.010825032 0.15581468 0.671 4294966773
-0.00957873 0.15581326 0.671 4294966769
-0.0083324676 0.15581177 0.671 4294967026
-0.0070862463 0.15581025 0.671 4294967029
-0.0058661788 0.15650532 0.67400002 4294768365
-0.0046144705 0.15650368 0.67400002 4294834158
-0.003362804 0.15650202 0.67400002 4294768365
-0.0021237098 0.15742907 0.67799997 4294834410
-0.00086470129 0.15742733 0.67799997 4294834410
0.00039426395 0.15742552 0.67799997 4294637038
0.0016556245 0.15765586 0.67900002 4294110693
0.0029163598 0.15765397 0.67900002 4294240213
0.0041955058 0.15834859 0.68199998 4294569177
0.0054937564 0.15927531 0.68599999 4294439141
0.0067673554 0.15927325 0.68599999 4294307555
0.0080526303 0.15950334 0.68699998 4294175453
0.0093415752 0.15973338 0.68800002 4294043611
0.010649619 0.16019551 0.69 4293847251
0.011947753 0.16042545 0.69099998 4294176216
0.013230407 0.16042316 0.69099998 4294045411
-0.12064062 0.16380113 0.69999999 4291872194
-0.11933745 0.16380325 0.69999999 4294967295
-0.11803432 0.16380532 0.69999999 4294967295
-0.11439658 0.16053119 0.68599999 4294967295
-0.11311957 0.16053315 0.68599999 4294967295
-0.11151653 0.16006704 0.68400002 4294967295
-0.11008212 0.15983488 0.68300003 4294967295
-0.10865145 0.15960266 0.68199998 4294967295
-0.10706713 0.1591364 0.68000001 4294967295
-0.10580144 0.15913814 0.68000001 4294967295
-0.10438207 0.15890582 0.67900002 4294967295
-0.10311829 0.15890747 0.67900002 4294967295
-0.10185457 0.15890908 0.67900002 4294967295
-0.10014646 0.15820855 0.676 4294967295
-0.098595798 0.15774202 0.67400002 4294967295
-0.09734147 0.1577435 0.67400002 4294967295
-0.095802031 0.15727685 0.67199999 4294967295
-0.094410799 0.15704423 0.671 4294967295
-0.093162157 0.15704557 0.671 4294967295
-0.091913536 0.1570469 0.671 4294967295
-0.090529837 0.15681414 0.67000002 4294967295
-0.089283131 0.15681538 0.67000002 4294967295
-0.08803647 0.15681656 0.67000002 4294967295
-0.086530767 0.1563496 0.66799998 4294967295
-0.085287891 0.15635073 0.66799998 4294967295
-0.083919235 0.15611775 0.667 4294967295
-0.082678281 0.15611878 0.667 4294967295
-0.081071071 0.15541759 0.66399997 4294967295
-0.079595298 0.15495043 0.662 4294967295
-0.078363746 0.15495132 0.662 4294967295
-0.077015713 0.15471813 0.66100001 4294967295
-0.075786084 0.15471895 0.66100001 4294967295
-0.074556485 0.15471974 0.66100001 4294967295
-0.073326923 0.15472049 0.66100001 4294967295
-0.07187923 0.15425304 0.65899998 4294967295
-0.070653453 0.15425369 0.65899998 4294967295
-0.069638416 0.15472248 0.66100001 4294967295
-0.068512477 0.15495713 0.662 4294967295
-0.067281209 0.15495767 0.662 4294967295
-0.065950207 0.15472409 0.66100001 4294967295
-0.064720869 0.15472455 0.66100001 4294967295
-0.063491575 0.15472497 0.66100001 4294967295
-0.062262304 0.15472534 0.66100001 4294967295
-0.0608484 0.15425752 0.65899998 4294967295
-0.059622914 0.15425782 0.65899998 4294967295
-0.058397464 0.15425807 0.65899998 4294967295
-0.057172049 0.15425828 0.65899998 4294967295
-0.05594667 0.15425846 0.65899998 4294967295
-0.054721326 0.15425859 0.65899998 4294967295
-0.053496003 0.15425868 0.65899998 4294967295
-0.052270733 0.15425874 0.65899998 4294967295
-0.051045481 0.15425873 0.65899998 4294967295
-0.049744677 0.15402462 0.65799999 4294967295
-0.048521359 0.15402456 0.65799999 4294967295
-0.047298077 0.15402442 0.65799999 4294967295
-0.046074841 0.15402427 0.65799999 4294967295
-0.044851627 0.15402408 0.65799999 4294967295
-0.043628447 0.15402381 0.65799999 4294967295
-0.042405307 0.15402354 0.65799999 4294967295
-0.041182201 0.15402322 0.65799999 4294967295
-0.040019859 0.15425692 0.65899998 4294967295
-0.038794972 0.15425652 0.65899998 4294967295
-0.037570119 0.15425606 0.65899998 4294967295
-0.036345303 0.15425557 0.65899998 4294967295
-0.035120517 0.15425502 0.65899998 4294967295
-0.033895772 0.15425445 0.65899998 4294967295
-0.032671064 0.15425383 0.65899998 4294967295
-0.031398673 0.15401909 0.65799999 4294967295
-0.030175902 0.15401839 0.65799999 4294967295
-0.028953159 0.15401764 0.65799999 4294967295
-0.027730457 0.15401685 0.65799999 4294967293
-0.02654808 0.15425009 0.65899998 4294967291
-0.025400454 0.15471736 0.66100001 4294967292
-0.024172293 0.15471643 0.66100001 4294967290
-0.022944171 0.15471548 0.66100001 4294967288
-0.021781793 0.15518259 0.66299999 4294967291
-0.020550031 0.15518153 0.66299999 4294967290
-0.019318311 0.15518044 0.66299999 4294967295
-0.018086627 0.15517932 0.66299999 4294967295
-0.016880408 0.15541218 0.66399997 4294967289
-0.015694076 0.15587907 0.66600001 4294967295
-0.014478647 0.15611185 0.667 4294967295
-0.013259542 0.15634458 0.66799998 4294967295
-0.012054757 0.15681133 0.67000002 4294967290
-0.010826449 0.15704396 0.671 4294966519
-0.0095801884 0.15704252 0.671 4294966505
-0.0083339689 0.157041 0.671 4294965735
-0.0070983549 0.1572735 0.67199999 4294637290
-0.0058677732 0.15774 0.67400002 4294505447
-0.0046161087 0.15773839 0.67400002 4294900196
-0.0033644859 0.15773669 0.67400002 4294965989
-0.0021191752 0.15820302 0.676 4294964965
-0.00086648006 0.15866931 0.67799997 4294570207
0.00039302045 0.15890151 0.67900002 4294570218
0.0016537558 0.15889965 0.67900002 4294109667
0.0029144471 0.15889774 0.67900002 4294109395
0.0041935416 0.15959781 0.68199998 4294043601
0.0054917363 0.16053188 0.68599999 4294240476
0.0067652911 0.16052981 0.68599999 4294306269
0.008050519 0.1607617 0.68699998 4293978590
0.0093394155 0.16099356 0.68800002 4293847004
0.01064741 0.16145934 0.69 4293913049
0.011945496 0.16169108 0.69099998 4294175964
0.013266394 0.16215679 0.69300002 4294175451
-0.11439463 0.16178897 0.68599999 4294967295
-0.11311766 0.16179091 0.68599999 4294967295
-0.11151465 0.16132112 0.68400002 4294967295
-0.10991912 0.16085127 0.68199998 4294967295
-0.10833106 0.16038136 0.68000001 4294967295
-0.10690795 0.16014728 0.67900002 4294967295
-0.10564415 0.16014899 0.67900002 4294967295
-0.10422668 0.15991479 0.67799997 4294967295
-0.1029648 0.15991643 0.67799997 4294967295
-0.10170298 0.15991803 0.67799997 4294967295
-0.09999676 0.15921199 0.67500001 4294967295
-0.098594315 0.15897764 0.67400002 4294967295
-0.097051166 0.15850736 0.67199999 4294967295
-0.095658071 0.15827292 0.671 4294967295
-0.094409421 0.15827431 0.671 4294967295
-0.093160823 0.15827565 0.671 4294967295
-0.091912247 0.15827695 0.671 4294967295
-0.090528578 0.15804233 0.67000002 4294967295
-0.089015409 0.15757179 0.66799998 4294967295
-0.087772503 0.15757297 0.66799998 4294967295
-0.086529642 0.1575741 0.66799998 4294967295
-0.08515913 0.15733932 0.667 4294967295
-0.083918177 0.15734039 0.667 4294967295
-0.08255332 0.15710552 0.66600001 4294967295
-0.080948018 0.15639879 0.66299999 4294967295
-0.079594381 0.15616384 0.662 4294967295
-0.078362867 0.15616474 0.662 4294967295
-0.077014878 0.1559297 0.66100001 4294967295
-0.075785287 0.15593049 0.66100001 4294967295
-0.074555732 0.15593128 0.66100001 4294967295
-0.0733262 0.15593199 0.66100001 4294967295
-0.071878567 0.15546089 0.65899998 4294967295
-0.070652828 0.15546153 0.65899998 4294967295
-0.06963782 0.15593395 0.66100001 4294967295
-0.06840843 0.15593453 0.66100001 4294967295
-0.067280702 0.15617096 0.662 4294967295
-0.065949738 0.15593554 0.66100001 4294967295
-0.064720452 0.15593597 0.66100001 4294967295
-0.063491188 0.15593639 0.66100001 4294967295
-0.06207357 0.15546492 0.65899998 4294967295
-0.060848091 0.15546526 0.65899998 4294967295
-0.059622649 0.15546554 0.65899998 4294967295
-0.058397245 0.15546577 0.65899998 4294967295
-0.057171866 0.15546598 0.65899998 4294967295
-0.055946525 0.15546614 0.65899998 4294967295
-0.054721221 0.15546626 0.65899998 4294967295
-0.053495944 0.15546632 0.65899998 4294967295
-0.05227071 0.15546635 0.65899998 4294967295
-0.051045503 0.15546635 0.65899998 4294967295
-0.049820337 0.15546632 0.65899998 4294967295
-0.048595201 0.15546621 0.65899998 4294967295
-0.047298223 0.15523016 0.65799999 4294967295
-0.04607502 0.15523 0.65799999 4294967295
-0.044851858 0.15522979 0.65799999 4294967295
-0.043628711 0.15522952 0.65799999 4294967295
-0.04240562 0.15522923 0.65799999 4294967295
-0.041182559 0.15522888 0.65799999 4294967295
-0.039959528 0.1552285 0.65799999 4294967295
-0.038795408 0.15546401 0.65899998 4294967295
-0.037570596 0.15546353 0.65899998 4294967295
-0.036345817 0.15546301 0.65899998 4294967295
-0.03512108 0.15546246 0.65899998 4294967295
-0.033896375 0.15546188 0.65899998 4294967295
-0.032671709 0.15546124 0.65899998 4294967295
-0.031399362 0.15522467 0.65799999 4294967294
-0.03017663 0.15522395 0.65799999 4294967293
-0.028953929 0.15522318 0.65799999 4294967293
-0.027731271 0.15522239 0.65799999 4294967293
-0.026548937 0.15545744 0.65899998 4294967294
-0.025401352 0.15592834 0.66100001 4294967294
-0.024173237 0.1559274 0.66100001 4294967295
-0.022945153 0.15592644 0.66100001 4294967293
-0.021815674 0.15663309 0.66399997 4294967294
-0.020644097 0.15710382 0.66600001 4294967288
-0.019319426 0.15639503 0.66299999 4294967291
-0.018087786 0.15639389 0.66299999 4294967033
-0.016881607 0.15662856 0.66399997 4294966513
-0.015695322 0.15709911 0.66600001 4294967027
-0.014479941 0.15733372 0.667 4294967290
-0.013260882 0.15756826 0.66799998 4294967289
-0.012056142 0.15803866 0.67000002 4294966257
-0.010811741 0.15803723 0.67000002 4294966515
-0.0095816599 0.15827163 0.671 4294966505
-0.0083479071 0.15850599 0.67199999 4294834149
-0.0070999158 0.15850443 0.67199999 4294702308
-0.0058519659 0.15850283 0.67199999 4294307807
-0.0046177609 0.15897293 0.67400002 4294372316
-0.0033711756 0.15920709 0.67500001 4294438109
-0.0021209195 0.15944123 0.676 4294175453
-0.00086571189 0.15943944 0.676 4294043611
0.00039060487 0.15990932 0.67799997 4293978590
0.0016543054 0.16037916 0.68000001 4293978590
0.0029168096 0.16037722 0.68000001 4294241498
0.0041915621 0.16084693 0.68199998 4294043863
0.0054897014 0.1617883 0.68599999 4294240476
0.0067632124 0.16178623 0.68599999 4294306269
0.0080483928 0.16201994 0.68699998 4293847515
0.0093643861 0.16272527 0.69 4293650392
0.010645187 0.16272305 0.69 4293584345
0.011943225 0.16295661 0.69099998 4293847517
0.013264069 0.16342595 0.69300002 4294043350
-0.11311576 0.16304857 0.68599999 4294967295
-0.1115128 0.1625751 0.68400002 4294967295
-0.10991731 0.16210155 0.68199998 4294967295
-0.1083293 0.16162798 0.68000001 4294967295
-0.10690622 0.16139202 0.67900002 4294967295
-0.10564248 0.16139375 0.67900002 4294967295
-0.10422504 0.1611577 0.67799997 4294967295
-0.10296321 0.16115934 0.67799997 4294967295
-0.10140141 0.16068551 0.676 4294967295
-0.099995255 0.16044937 0.67500001 4294967295
-0.098300263 0.15973774 0.67199999 4294967295
-0.096905306 0.15950149 0.671 4294967295
-0.095656686 0.15950289 0.671 4294967295
-0.09440808 0.15950426 0.671 4294967295
-0.093159504 0.15950559 0.671 4294967295
-0.091774002 0.15926918 0.67000002 4294967295
-0.090527348 0.15927045 0.67000002 4294967295
-0.089014225 0.15879621 0.66799998 4294967295
-0.087771371 0.15879737 0.66799998 4294967295
-0.086528525 0.1587985 0.66799998 4294967295
-0.085030384 0.15832414 0.66600001 4294967295
-0.083791345 0.1583252 0.66600001 4294967295
-0.082552336 0.15832621 0.66600001 4294967295
-0.080947079 0.15761396 0.66299999 4294967295
-0.07959348 0.15737715 0.662 4294967295
-0.078361996 0.15737803 0.662 4294967295
-0.077014051 0.15714115 0.66100001 4294967295
-0.075784504 0.15714197 0.66100001 4294967295
-0.074329399 0.15666722 0.65899998 4294967295
-0.073103637 0.15666795 0.65899998 4294967295
-0.071877904 0.15666862 0.65899998 4294967295
-0.070652209 0.15666927 0.65899998 4294967295
-0.069637246 0.15714534 0.66100001 4294967295
-0.068407893 0.15714589 0.66100001 4294967295
-0.06717857 0.15714641 0.66100001 4294967295
-0.065749735 0.15667139 0.65899998 4294967295
-0.064524204 0.15667182 0.65899998 4294967295
-0.063490808 0.15714771 0.66100001 4294967295
-0.062073238 0.15667255 0.65899998 4294967295
-0.060755465 0.15643513 0.65799999 4294967295
-0.059531923 0.1564354 0.65799999 4294967295
-0.058308419 0.15643562 0.65799999 4294967295
-0.057171699 0.15667357 0.65899998 4294967295
-0.055946402 0.1566737 0.65899998 4294967295
-0.054721128 0.15667379 0.65899998 4294967295
-0.053495899 0.15667388 0.65899998 4294967295
-0.05227071 0.15667388 0.65899998 4294967295
-0.051045537 0.15667388 0.65899998 4294967295
-0.049820412 0.15667379 0.65899998 4294967295
-0.04859532 0.15667368 0.65899998 4294967295
-0.047298387 0.15643582 0.65799999 4294967295
-0.046005201 0.15619788 0.65700001 4294967295
-0.044783935 0.15619765 0.65700001 4294967295
-0.043562692 0.15619737 0.65700001 4294967295
-0.042341504 0.15619707 0.65700001 4294967295
-0.041120332 0.15619673 0.65700001 4294967295
-0.039959934 0.15643406 0.65799999 4294967295
-0.038736984 0.15643363 0.65799999 4294967295
-0.037514076 0.15643314 0.65799999 4294967295
-0.036291201 0.15643261 0.65799999 4294967294
-0.035121653 0.15666978 0.65899998 4294967295
-0.033896994 0.15666918 0.65899998 4294967295
-0.032672368 0.15666854 0.65899998 4294967295
-0.031447779 0.15666786 0.65899998 4294967291
-0.030223232 0.15666711 0.65899998 4294967290
-0.028998716 0.15666634 0.65899998 4294967292
-0.027774243 0.15666552 0.65899998 4294967291
-0.026549807 0.15666465 0.65899998 4294967291
-0.025402268 0.15713923 0.66100001 4294967290
-0.024210766 0.15737601 0.662 4294967292
-0.023050295 0.15785046 0.66399997 4294967292
-0.021816723 0.15784943 0.66399997 4294967289
-0.020645186 0.15832381 0.66600001 4294967284
-0.019349694 0.15784723 0.66399997 4294966776
-0.018116239 0.15784605 0.66399997 4294966263
-0.016933676 0.15832029 0.66600001 4294966771
-0.015696585 0.15831903 0.66600001 4294835184
-0.014481246 0.15855546 0.667 4294637290
-0.013242378 0.15855411 0.667 4294571240
-0.01205754 0.15926585 0.67000002 4294505699
-0.010813183 0.15926443 0.67000002 4294834664
-0.0095831482 0.15950064 0.671 4294965735
-0.0083494391 0.15973683 0.67199999 4294768355
-0.0071014911 0.15973526 0.67199999 4294307807
-0.005853584 0.15973365 0.67199999 4294110171
-0.0046194275 0.16020739 0.67400002 4294175712
-0.0033728883 0.1604434 0.67500001 4294175712
-0.0021226781 0.16067931 0.676 4294109919
-0.000867514 0.16067751 0.676 4293781210
0.00038760726 0.16067567 0.676 4293781206
0.0016572652 0.16209988 0.68199998 4293978842
0.002923439 0.16209795 0.68199998 4294109658
0.0041957125 0.16233365 0.68300003 4293714900
0.005487652 0.16304462 0.68599999 4294043865
0.006770975 0.16328019 0.68699998 4293780693
0.0080462527 0.16327804 0.68699998 4293913049
0.009335055 0.16351356 0.68800002 4293913049
0.010642947 0.16398665 0.69 4293846490
0.011975501 0.16469733 0.69300002 4293583062
0.013280868 0.16493264 0.69400001 4293517257
0.014610896 0.16540557 0.69599998 4293648844
-0.11472428 0.16478324 0.68800002 4294967295
-0.11311388 0.16430612 0.68599999 4294967295
