# .PCD v0.7 - Point Cloud Data file format
VERSION 0.7
FIELDS x y z rgba
SIZE 4 4 4 4
TYPE F F F U
COUNT 1 1 1 1
WIDTH 1072
HEIGHT 1
VIEWPOINT 0 0 0 1 0 0 0
POINTS 1072
DATA ascii
0.015445909 0.14060171 0.73299998 4291084461
0.016807456 0.14059955 0.73299998 4291215534
0.018243311 0.14117277 0.736 4291412912
0.019610332 0.1411705 0.736 4291346865
0.0209773 0.14116818 0.736 4291017900
0.022647806 0.14308383 0.74599999 4290164131
0.024033243 0.14308137 0.74599999 4290361253
0.025452701 0.14327069 0.74699998 4290886316
0.026839888 0.14326812 0.74699998 4290886316
0.028302601 0.14364913 0.74900001 4290755496
0.02981233 0.14422183 0.75199997 4290689703
0.031291652 0.14460269 0.75400001 4290492088
0.032691624 0.14459994 0.75400001 4290031537
0.034091547 0.14459713 0.75400001 4290426015
0.035491414 0.14459427 0.75400001 4289702293
0.036940157 0.14478314 0.755 4289569425
-0.071505979 0.14702816 0.759 4291939786
-0.069908768 0.14664145 0.75700003 4290887889
-0.068319023 0.14625469 0.755 4290493387
-0.066825405 0.14606158 0.75400001 4289769105
-0.065248773 0.14567472 0.75199997 4288979589
-0.063849434 0.14567524 0.75199997 4290162316
-0.062284045 0.1452883 0.75 4290293902
-0.060807325 0.14509502 0.74900001 4290556318
-0.05925503 0.14470795 0.74699998 4291082662
-0.057787683 0.14451456 0.74599999 4291280548
-0.05624849 0.14412741 0.74400002 4291543463
-0.054716781 0.14374019 0.74199998 4291346615
-0.053336311 0.1437404 0.74199998 4291215286
-0.051885866 0.14354682 0.741 4291216062
-0.050507337 0.14354692 0.741 4291347649
-0.048929941 0.14296581 0.73799998 4291939014
-0.047557075 0.14296581 0.73799998 4292070856
-0.046059079 0.14257835 0.736 4291939268
-0.044690009 0.14257826 0.736 4291939268
-0.043203261 0.14219069 0.73400003 4292005063
-0.041780982 0.14199677 0.73299998 4292136649
-0.040417612 0.14199656 0.73299998 4292136136
-0.039054275 0.14199628 0.73299998 4292267465
-0.037588138 0.14160854 0.73100001 4292137164
-0.036228612 0.14160818 0.73100001 4292137164
-0.034821413 0.14141405 0.73000002 4292400841
-0.033372138 0.14102615 0.72799999 4292006083
-0.0320183 0.14102565 0.72799999 4292137412
-0.030664507 0.1410251 0.72799999 4291940290
-0.029310761 0.14102452 0.72799999 4292005061
-0.02795705 0.14102387 0.72799999 4292005061
-0.02667647 0.14141062 0.73000002 4291873995
-0.025319122 0.14140989 0.73000002 4291742153
-0.023896171 0.14102168 0.72799999 4291939006
-0.022542629 0.14102086 0.72799999 4291872957
-0.021247344 0.14140742 0.73000002 4292136134
-0.019890167 0.14140649 0.73000002 4292136134
-0.018533036 0.14140552 0.73000002 4291939254
-0.017175946 0.14140451 0.73000002 4291676339
-0.015818901 0.14140345 0.73000002 4291939256
-0.0144619 0.14140235 0.73000002 4292005050
-0.013158797 0.14198229 0.73299998 4291741862
-0.011812403 0.1421748 0.73400003 4291347104
-0.010448099 0.14217356 0.73400003 4291084979
-0.0090838391 0.14217225 0.73400003 4291282357
-0.0077196267 0.14217092 0.73400003 4291216562
-0.0063554593 0.14216952 0.73400003 4291085233
-0.0049845367 0.14197437 0.73299998 4290887348
-0.0036223189 0.1419729 0.73299998 4290887348
-0.0022539806 0.14158399 0.73100001 4291216051
-0.00089557248 0.14158243 0.73100001 4291478967
0.00046405563 0.14196816 0.73299998 4291478957
0.0018211046 0.14157914 0.73100001 4292005302
0.0031793725 0.14157741 0.73100001 4291478957
0.0045500081 0.14196302 0.73299998 4291347115
0.0059199631 0.14215487 0.73400003 4291347119
0.007283662 0.14215299 0.73400003 4291083948
0.0086473133 0.1421511 0.73400003 4291148970
0.010010917 0.14214914 0.73400003 4290886055
0.01137447 0.14214715 0.73400003 4291017639
0.012737976 0.1421451 0.73400003 4290951846
0.014101431 0.14214301 0.73400003 4290951846
0.015443766 0.14194721 0.73299998 4290820260
0.016805267 0.14194502 0.73299998 4291018402
0.018241068 0.14252374 0.736 4290952609
0.019608041 0.14252144 0.736 4290558889
0.021202948 0.14406824 0.74400002 4290492840
0.022584675 0.14406581 0.74400002 4290295208
0.024030777 0.14445065 0.74599999 4290295208
0.025450183 0.14464174 0.74699998 4290491810
0.026837325 0.14463918 0.74699998 4290491810
0.028299989 0.14502384 0.74900001 4290491556
0.029888941 0.14598927 0.75400001 4290162848
0.031330418 0.14618017 0.755 4289571251
0.032732204 0.14617737 0.755 4289373873
0.034133933 0.14617455 0.755 4289636753
-0.070092775 0.14842288 0.759 4294179327
-0.068499371 0.14803244 0.75700003 4291810791
-0.066913448 0.14764193 0.755 4289113499
-0.065508537 0.14764249 0.755 4288652948
-0.064018756 0.14744747 0.75400001 4289768342
-0.062283605 0.14666569 0.75 4289241742
-0.06080693 0.14647056 0.74900001 4289306767
-0.059254687 0.14607981 0.74699998 4290425504
-0.057787377 0.14588457 0.74599999 4290687645
-0.056248236 0.14549376 0.74400002 4291016610
-0.054864064 0.14549395 0.74400002 4291412147
-0.053336151 0.14510302 0.74199998 4291280561
-0.05188575 0.14490761 0.741 4291018164
-0.05037095 0.14451659 0.73900002 4291215799
-0.048929919 0.14432105 0.73799998 4291742402
-0.047428217 0.14392994 0.736 4291545280
-0.04605915 0.14392987 0.736 4291479487
-0.044690125 0.14392978 0.736 4291545280
-0.043203421 0.14353852 0.73400003 4291872961
-0.041781191 0.14334278 0.73299998 4291675583
-0.040417865 0.14334252 0.73299998 4291806655
-0.039054573 0.14334226 0.73299998 4291872448
-0.037588488 0.1429508 0.73100001 4292135616
-0.036228999 0.14295043 0.73100001 4292267202
-0.034821849 0.14275445 0.73000002 4292400839
-0.033372618 0.14236288 0.72799999 4292203459
-0.032018829 0.14236236 0.72799999 4292335048
-0.030665083 0.14236178 0.72799999 4291874497
-0.029311378 0.14236119 0.72799999 4291939268
-0.028034525 0.14275163 0.73000002 4291939268
-0.026677186 0.14275095 0.73000002 4291676096
-0.025319882 0.14275019 0.73000002 4291676096
-0.023896974 0.14235829 0.72799999 4292070854
-0.022543479 0.14235745 0.72799999 4291742145
-0.02124824 0.14274767 0.73000002 4292069055
-0.019891111 0.14274673 0.73000002 4292069055
-0.018534027 0.14274576 0.73000002 4291675315
-0.017176982 0.14274472 0.73000002 4291741108
-0.015841654 0.1429392 0.73100001 4291413944
-0.01448284 0.14293808 0.73100001 4291282357
-0.013159978 0.14332798 0.73299998 4291282346
-0.01181363 0.14352229 0.73400003 4291150504
-0.010449374 0.14352104 0.73400003 4291018154
-0.0090851625 0.14351973 0.73400003 4291149741
-0.0077209952 0.14351834 0.73400003 4291412912
-0.006356874 0.14351694 0.73400003 4291215534
-0.0049859965 0.14331995 0.73299998 4290690485
-0.0036238253 0.14331847 0.73299998 4290624691
-0.0022617003 0.14331691 0.73299998 4290821552
-0.0008996221 0.14331533 0.73299998 4290887346
0.00046304052 0.14350921 0.73400003 4291082664
0.0018268838 0.14350753 0.73400003 4291214250
0.0031906792 0.14350578 0.73400003 4291214250
0.0045544277 0.14350401 0.73400003 4291214250
0.005918128 0.14350218 0.73400003 4291477418
0.0072817807 0.1435003 0.73400003 4291214502
0.0086453855 0.14349838 0.73400003 4291148455
0.010008941 0.14349641 0.73400003 4291082662
0.011403436 0.14388537 0.736 4291148455
0.01277061 0.1438833 0.736 4291082662
0.014137733 0.14388119 0.736 4291082916
0.015504808 0.14387903 0.736 4291017123
0.016917681 0.14426778 0.73799998 4291282094
0.018486617 0.14582936 0.74599999 4290755750
0.019898754 0.14602253 0.74699998 4290164908
0.021200571 0.14543369 0.74400002 4290230701
0.02258225 0.1454313 0.74400002 4290361006
0.024028298 0.14581974 0.74599999 4290163627
0.025447654 0.14601268 0.74699998 4290425754
0.026834747 0.14601009 0.74699998 4290557340
0.028297354 0.14639838 0.74900001 4290491558
-0.068498753 0.14942263 0.75700003 4292269782
-0.067090139 0.14942323 0.75700003 4287795340
-0.065681539 0.14942376 0.75700003 4288124305
-0.064018287 0.14883208 0.75400001 4288781706
-0.062283173 0.14804298 0.75 4288913292
-0.060806539 0.147846 0.74900001 4289241503
-0.059254352 0.14745155 0.74699998 4289965483
-0.057787094 0.14725448 0.74599999 4290096798
-0.056399204 0.14725475 0.74599999 4290096798
-0.054863863 0.14686017 0.74400002 4290754213
-0.053336009 0.14646554 0.74199998 4290886055
-0.051885653 0.14626826 0.741 4290886055
-0.050370894 0.14587355 0.73900002 4290886055
-0.048929907 0.14567617 0.73799998 4290755246
-0.047428261 0.14528137 0.736 4290755246
-0.046059236 0.1452813 0.736 4291084211
-0.044690251 0.14528118 0.736 4291478969
-0.043203596 0.14488624 0.73400003 4291346613
-0.041838415 0.14488603 0.73400003 4291346613
-0.040473271 0.14488578 0.73400003 4291281342
-0.039108168 0.14488547 0.73400003 4291281342
-0.037691686 0.14468773 0.73299998 4291611057
-0.036328524 0.14468732 0.73299998 4291611057
-0.034870002 0.14429212 0.73100001 4291282607
-0.033464801 0.14409424 0.73000002 4291282607
-0.032107338 0.14409372 0.73000002 4291283641
-0.030665671 0.14369836 0.72799999 4291283641
-0.029312013 0.14369775 0.72799999 4291348930
-0.028073607 0.14428924 0.73100001 4291085758
-0.026714455 0.14428852 0.73100001 4291282094
-0.025320658 0.14409037 0.73000002 4291084459
-0.023963448 0.14408958 0.73000002 4291412408
-0.022606278 0.14408872 0.73000002 4291543995
-0.021249155 0.14408781 0.73000002 4291477172
-0.019919319 0.14428423 0.73100001 4291477172
-0.018560423 0.14428325 0.73100001 4291346100
-0.017201565 0.14428221 0.73100001 4291740858
-0.015886098 0.14467585 0.73299998 4291544497
-0.014523616 0.14467472 0.73299998 4290557601
-0.013161173 0.14467353 0.73299998 4290821802
-0.011814876 0.14486967 0.73400003 4290887852
-0.010450664 0.14486839 0.73400003 4291018154
-0.009086499 0.14486705 0.73400003 4291018154
-0.0077223782 0.14486569 0.73400003 4291215018
-0.0063583041 0.14486426 0.73400003 4291280811
-0.0049942755 0.1448628 0.73400003 4291149500
-0.0036302926 0.14486128 0.73400003 4290820791
-0.0022663563 0.14485972 0.73400003 4290886835
-0.00090246642 0.14485809 0.73400003 4291083957
0.00046137674 0.14485645 0.73400003 4291083696
0.0018251733 0.14485474 0.73400003 4290557351
0.0031889223 0.144853 0.73400003 4290754481
0.0045526242 0.14485118 0.73400003 4290951859
0.0059162774 0.14484935 0.73400003 4291017373
0.0072798836 0.14484745 0.73400003 4291017373
0.0086669941 0.14524019 0.736 4290950561
0.010034217 0.14523819 0.736 4290621852
0.011401393 0.14523615 0.736 4291017123
0.012768521 0.14523406 0.736 4291017123
0.014174009 0.14562657 0.73799998 4290688417
0.015544751 0.1456244 0.73799998 4290293916
0.017098811 0.14720073 0.74599999 4290361253
0.018484311 0.14719842 0.74599999 4290427047
0.01986976 0.14719607 0.74599999 4290164140
0.02125516 0.14719369 0.74599999 4290032554
0.022640506 0.14719124 0.74599999 4289967529
0.024058009 0.14738603 0.74699998 4289901736
0.025513235 0.14777809 0.74900001 4290098315
0.026903998 0.1477755 0.74900001 4289637765
0.028332483 0.14797014 0.75 4289373345
-0.0652472 0.14981766 0.75199997 4288773706
-0.062448844 0.14981855 0.75199997 4289700761
-0.060887359 0.1494205 0.75 4289375131
-0.059412677 0.14922161 0.74900001 4289506460
-0.05801921 0.14922193 0.74900001 4289441437
-0.05662578 0.14922215 0.74900001 4289573023
-0.055011172 0.14862467 0.74599999 4290163107
-0.053479642 0.14822637 0.74400002 4290228900
-0.051955588 0.147828 0.74199998 4290556066
-0.050507169 0.14762883 0.741 4290687908
-0.048797321 0.14663269 0.736 4291148459
-0.04742831 0.14663266 0.736 4291082666
-0.046184488 0.14703104 0.73799998 4291149741
-0.0446904 0.14663243 0.736 4291215534
-0.043203782 0.14623381 0.73400003 4291084463
-0.041838646 0.14623357 0.73400003 4291150256
-0.040473558 0.14623332 0.73400003 4290953402
-0.039108504 0.14623301 0.73400003 4290953402
-0.037743483 0.14623263 0.73400003 4291283128
-0.036378514 0.14623223 0.73400003 4291151285
-0.035013579 0.14623179 0.73400003 4290887852
-0.033511154 0.14563359 0.73100001 4291019438
-0.032107897 0.14543383 0.73000002 4291283128
-0.030666277 0.14503479 0.72799999 4291151285
-0.029312661 0.14503415 0.72799999 4290824124
-0.028074309 0.14563113 0.73100001 4290758330
-0.026715199 0.1456304 0.73100001 4291282607
-0.025321446 0.14543042 0.73000002 4291019436
-0.023964282 0.1454296 0.73000002 4291280561
-0.022607159 0.14542872 0.73000002 4291280561
-0.021250082 0.14542779 0.73000002 4291214512
-0.019920293 0.14562604 0.73100001 4291214512
-0.018612226 0.14602345 0.73299998 4291082160
-0.0172497 0.14602241 0.73299998 4291476918
-0.015887218 0.14602131 0.73299998 4291347119
-0.014524779 0.14602014 0.73299998 4290754983
-0.013180342 0.14621815 0.73400003 4290756530
-0.011816134 0.1462169 0.73400003 4290624943
-0.01045197 0.1462156 0.73400003 4290688938
-0.0090878513 0.14621425 0.73400003 4290623145
-0.007723778 0.14621288 0.73400003 4290950565
-0.0063597499 0.14621143 0.73400003 4291016358
-0.004995768 0.14620994 0.73400003 4291017137
-0.0036318321 0.14620841 0.73400003 4290753965
-0.0022679423 0.14620684 0.73400003 4290819245
-0.00090409897 0.1462052 0.73400003 4291214003
0.00045969756 0.14620353 0.73400003 4291149493
0.0018234473 0.14620182 0.73400003 4290688942
0.0031871498 0.14620006 0.73400003 4290689192
0.0045508048 0.14619823 0.73400003 4290689192
0.0059305271 0.14659473 0.736 4290689694
0.0072978018 0.14659281 0.736 4290689694
0.0086885737 0.14698918 0.73799998 4290753953
0.010059468 0.14698718 0.73799998 4290753953
0.0114458 0.1471843 0.73900002 4291148968
0.012801106 0.14698301 0.73799998 4290886053
0.014171852 0.14698085 0.73799998 4290557601
0.015626788 0.14777529 0.74199998 4290228893
0.017096534 0.14856966 0.74599999 4290294945
0.018481987 0.14856733 0.74599999 4290229152
0.01986739 0.14856496 0.74599999 4289769889
0.02125274 0.14856255 0.74599999 4289769889
0.02263804 0.14856008 0.74599999 4289573537
0.024055492 0.14875671 0.74699998 4289573537
0.025442544 0.14875415 0.74699998 4289836184
0.026829546 0.14875154 0.74699998 4289112204
-0.062448442 0.15119924 0.75199997 4290557865
-0.061049365 0.15119959 0.75199997 4290295188
-0.059650328 0.15119994 0.75199997 4289044864
-0.058251329 0.15120021 0.75199997 4289374358
-0.056625567 0.15059726 0.74900001 4289637787
-0.055084739 0.1501953 0.74699998 4289965985
-0.053623278 0.14999437 0.74599999 4289965985
-0.051955517 0.1491902 0.74199998 4290162596
-0.050507147 0.14898919 0.741 4290228389
-0.048797335 0.14798386 0.736 4290491556
-0.047428377 0.1479838 0.736 4290425763
-0.046184607 0.14838582 0.73799998 4290952357
-0.044811998 0.14838569 0.73799998 4291149993
-0.043203991 0.14758125 0.73400003 4291084461
-0.041838903 0.14758101 0.73400003 4291084461
-0.040473852 0.14758071 0.73400003 4290492592
-0.03910885 0.1475804 0.73400003 4290294956
-0.037743874 0.14758003 0.73400003 4290624432
-0.036626756 0.1485849 0.73900002 4290953141
-0.034966353 0.14737807 0.73299998 4290755761
-0.03360337 0.14737755 0.73299998 4290755761
-0.032240421 0.14737698 0.73299998 4290690986
-0.030793268 0.14697427 0.73100001 4290690986
-0.029434122 0.14697361 0.73100001 4290690986
-0.028075017 0.14697291 0.73100001 4290625193
-0.026715958 0.14697216 0.73100001 4291018666
-0.025322251 0.14677031 0.73000002 4291150508
-0.023965131 0.14676948 0.73000002 4291477161
-0.022608057 0.14676858 0.73000002 4290950561
-0.021251023 0.14676766 0.73000002 4291081901
-0.019921284 0.14696772 0.73100001 4291542452
-0.018613264 0.14736879 0.73299998 4291082162
-0.017250784 0.14736772 0.73299998 4290818991
-0.015888348 0.1473666 0.73299998 4291017119
-0.014545776 0.14756647 0.73400003 4290819997
-0.013181569 0.14756528 0.73400003 4290097330
-0.011817408 0.14756399 0.73400003 4290097330
-0.01045329 0.14756268 0.73400003 4290228398
-0.0090892194 0.14756133 0.73400003 4290228398
-0.0077251927 0.14755991 0.73400003 4290294695
-0.0063612103 0.14755847 0.73400003 4290426538
-0.0049972753 0.14755696 0.73400003 4290557351
-0.0036333862 0.14755541 0.73400003 4290557351
-0.0022695432 0.14755383 0.73400003 4290426286
-0.00090574689 0.14755218 0.73400003 4290426286
0.00045800293 0.14755049 0.73400003 4290491308
0.0018217057 0.14754876 0.73400003 4290293930
0.0031853616 0.14754698 0.73400003 4290491549
0.0045613647 0.14794716 0.736 4290557342
0.0059447503 0.14834729 0.73799998 4290164379
0.0073256069 0.1485464 0.73900002 4290098586
0.0086983601 0.1485444 0.73900002 4290294434
0.010071062 0.14854237 0.73900002 4290294434
0.011474688 0.14894229 0.741 4290556320
0.012851009 0.14894016 0.741 4290556320
0.014227279 0.148938 0.741 4290425502
0.015666671 0.14953874 0.74400002 4290293916
0.017094243 0.14993845 0.74599999 4290227868
0.018479649 0.14993608 0.74599999 4290096539
0.019865004 0.14993373 0.74599999 4289703830
0.021250308 0.14993128 0.74599999 4289506195
0.022635559 0.14992882 0.74599999 4289309847
0.024052961 0.15012725 0.74699998 4289244053
0.025439965 0.15012467 0.74699998 4289046161
0.026826916 0.15012205 0.74699998 4288848783
-0.059808683 0.15298624 0.75400001 4289175439
-0.058406014 0.15298651 0.75400001 4289175948
-0.056700967 0.15217513 0.75 4289307791
-0.055232082 0.15197238 0.74900001 4288979601
-0.053695053 0.15156668 0.74699998 4289440152
-0.05223554 0.15136388 0.74599999 4289769385
-0.050575297 0.15055232 0.74199998 4289769385
-0.048996277 0.14994361 0.73900002 4290032300
-0.047621783 0.14994353 0.73900002 4290032300
-0.046247318 0.14994341 0.73900002 4290164390
-0.044872895 0.14994325 0.73900002 4290230439
-0.043439656 0.14974014 0.73799998 4290164383
-0.041953173 0.1493341 0.736 4290427299
-0.040584449 0.14933379 0.736 4290754215
-0.039375618 0.14994214 0.73900002 4290688421
-0.038001392 0.14994174 0.73900002 4290557351
-0.036627214 0.14994131 0.73900002 4290754987
-0.035014559 0.14892635 0.73400003 4290294949
-0.03360391 0.1487229 0.73299998 4290228900
-0.032241009 0.14872232 0.73299998 4290361253
-0.0307939 0.14831592 0.73100001 4290558889
-0.029434802 0.14831527 0.73100001 4290690485
-0.028075745 0.14831454 0.73100001 4290295983
-0.026716728 0.14831378 0.73100001 4290687906
-0.025323065 0.14811006 0.73000002 4290951078
-0.023965994 0.14810923 0.73000002 4291410602
-0.022608966 0.14810833 0.73000002 4291147174
-0.02125198 0.14810738 0.73000002 4290818211
-0.019976795 0.14871503 0.73299998 4291278762
-0.018614318 0.14871398 0.73299998 4290950826
-0.017251885 0.14871292 0.73299998 4290819497
-0.015911175 0.14891465 0.73400003 4291082662
-0.014586609 0.14931922 0.736 4290819747
-0.013218732 0.14931799 0.736 4290228652
-0.011883104 0.14972246 0.73799998 4290228652
-0.010511599 0.14972112 0.73799998 4290754215
-0.0091153709 0.149314 0.736 4290425250
-0.0077476753 0.14931257 0.736 4290098338
-0.006380023 0.1493111 0.736 4290295460
-0.0050124191 0.14930958 0.736 4290360742
-0.0036448606 0.14930801 0.736 4290360742
-0.0022773484 0.14930639 0.736 4290754467
-0.00090988271 0.14930473 0.736 4290557088
0.00045753614 0.14930302 0.736 4290621611
0.0018249078 0.14930126 0.736 4290621611
0.0031922322 0.14929946 0.736 4290622113
0.0045718984 0.14970329 0.73799998 4290358942
0.0059508956 0.14990427 0.73900002 4289834648
0.0073236497 0.14990231 0.73900002 4289834648
0.0086963559 0.14990032 0.73900002 4289966246
0.010096261 0.15030393 0.741 4290097832
0.011472583 0.15030183 0.741 4289898908
0.012848858 0.1502997 0.741 4289898908
0.014225081 0.15029751 0.741 4290161301
0.015664415 0.15090375 0.74400002 4290161301
0.017091934 0.15130708 0.74599999 4290029459
0.018477293 0.15130474 0.74599999 4290358423
0.0198626 0.15130234 0.74599999 4289900443
0.021276338 0.15150271 0.74699998 4289637015
0.0226634 0.1515002 0.74699998 4289310101
0.024050409 0.15149765 0.74699998 4288849550
0.025505476 0.15190066 0.74900001 4288651401
-0.061211068 0.15436998 0.75400001 4290755509
-0.058405783 0.15437053 0.75400001 4288650638
-0.057003185 0.15437075 0.75400001 4289242775
-0.055453159 0.15396142 0.75199997 4289177234
-0.054054372 0.15396152 0.75199997 4289243027
-0.052655626 0.15396158 0.75199997 4289374629
-0.051256906 0.1539616 0.75199997 4289374629
-0.049128931 0.15170948 0.741 4289505447
-0.04775076 0.15170941 0.741 4289571240
-0.046372622 0.15170926 0.741 4289965733
-0.044873085 0.15129961 0.73900002 4290557613
-0.043498755 0.1512994 0.73900002 4290491806
-0.042124458 0.15129913 0.73900002 4290557855
-0.040750206 0.15129881 0.73900002 4290688419
-0.039375987 0.15129845 0.73900002 4290557090
-0.038001817 0.15129806 0.73900002 4290557349
-0.036578115 0.15109286 0.73799998 4290754985
-0.035015073 0.15027344 0.73400003 4290163359
-0.033650316 0.15027289 0.73400003 4289834394
-0.032285597 0.15027229 0.73400003 4290162594
-0.030878799 0.15006691 0.73299998 4290491558
-0.029516032 0.15006624 0.73299998 4290359988
-0.0281533 0.15006551 0.73299998 4290228402
-0.026717519 0.14965528 0.73100001 4290294184
-0.025323899 0.14944972 0.73000002 4290557100
-0.023966875 0.14944886 0.73000002 4290950565
-0.022609891 0.14944793 0.73000002 4291016358
-0.021252953 0.14944699 0.73000002 4290753447
-0.020005075 0.15026487 0.73400003 4291016619
-0.018640785 0.1502638 0.73400003 4290688158
-0.017323615 0.15067212 0.736 4290293400
-0.015955696 0.15067096 0.736 4290490273
-0.014627462 0.15107916 0.73799998 4290622115
-0.013255916 0.15107794 0.73799998 4290424998
-0.011900519 0.15128134 0.73900002 4290424998
-0.010512957 0.15107527 0.73799998 4290491799
-0.0091167726 0.15066446 0.736 4290426006
-0.007749123 0.15066302 0.736 4290294686
-0.0063815191 0.15066154 0.736 4290491808
-0.0050139613 0.15066001 0.736 4290098338
-0.0036464497 0.15065841 0.736 4289834909
-0.0022851776 0.1510662 0.73799998 4290162566
-0.00091404293 0.1510645 0.73799998 4290030980
0.00045580589 0.15065338 0.736 4289900201
0.0018231306 0.15065163 0.736 4289834407
0.0031990774 0.15105917 0.73799998 4290228639
0.0045762155 0.151262 0.73900002 4290097052
0.0059489706 0.15126006 0.73900002 4289703326
0.0073414911 0.15166745 0.741 4289834911
0.0087178657 0.15166543 0.741 4289966509
0.010094189 0.15166336 0.741 4290098095
0.011470462 0.15166125 0.741 4289702308
0.01284669 0.15165909 0.741 4289504930
0.01424206 0.15186155 0.74199998 4289833353
0.015662147 0.15226862 0.74400002 4289833353
0.017089611 0.15267561 0.74599999 4289438353
0.01847492 0.15267323 0.74599999 4289109644
0.01986018 0.15267082 0.74599999 4289176462
0.021273866 0.15287299 0.74699998 4289242255
0.022660881 0.15287049 0.74699998 4289046400
-0.057003018 0.15575461 0.75400001 4289177734
-0.055600528 0.15575477 0.75400001 4289177749
-0.054198056 0.15575485 0.75400001 4289111700
-0.052795634 0.15575488 0.75400001 4289439650
-0.051256929 0.15534174 0.75199997 4289439650
-0.049858302 0.1553417 0.75199997 4289505193
-0.048137512 0.15430874 0.74699998 4289570986
-0.046435356 0.15327576 0.74199998 4289833111
-0.044994731 0.15306899 0.741 4290293662
-0.043616727 0.15306875 0.741 4290426017
-0.042124752 0.15265532 0.73900002 4290426017
-0.040750548 0.15265501 0.73900002 4290557351
-0.039376382 0.15265463 0.73900002 4290228387
-0.038002249 0.15265419 0.73900002 4289834144
-0.036578599 0.15244715 0.73799998 4289899937
-0.035206418 0.15244664 0.73799998 4290163109
-0.033742577 0.15203296 0.736 4289899937
-0.032374188 0.15203233 0.736 4290096287
-0.031005846 0.15203167 0.736 4290227617
-0.029637549 0.15203097 0.736 4289964197
-0.028192472 0.15161711 0.73400003 4289964197
-0.026827972 0.15161632 0.73400003 4290359205
-0.02542882 0.15140891 0.73299998 4290293412
-0.024066266 0.15140803 0.73299998 4290359459
-0.022703752 0.15140709 0.73299998 4290425252
-0.021341283 0.15140609 0.73299998 4290294182
-0.020060625 0.15202475 0.736 4290162596
-0.018692665 0.15202369 0.736 4290162846
-0.017324749 0.15202256 0.736 4290097052
-0.015956879 0.15202138 0.736 4290293150
-0.014628695 0.15243323 0.73799998 4290293150
-0.013257195 0.15243196 0.73799998 4290095519
-0.011901849 0.15263721 0.73900002 4290292899
-0.010514331 0.15242928 0.73799998 4290491808
-0.00911819 0.15201479 0.736 4290294686
-0.0077505871 0.15201333 0.736 4289702806
-0.0063830297 0.15201184 0.736 4289900441
-0.0050155194 0.15201028 0.736 4290031259
-0.0036480548 0.1520087 0.736 4290031259
-0.0022868335 0.15242009 0.73799998 4289900689
-0.0009157465 0.1524184 0.73799998 4289703310
0.00045529392 0.15241665 0.73799998 4289703326
0.001826287 0.15241487 0.73799998 4289703326
0.0032015655 0.15261957 0.73900002 4290098084
0.0045743212 0.15261768 0.73900002 4289900705
0.0059470288 0.15261574 0.73900002 4289638048
0.0073394976 0.15302679 0.741 4289703841
0.0087158233 0.15302475 0.741 4289573035
0.01010572 0.15322918 0.74199998 4289441448
0.011468328 0.15302052 0.741 4288784286
0.012844508 0.15301834 0.741 4288981666
0.014278209 0.15363561 0.74400002 4289374862
0.015723001 0.15425281 0.74699998 4289243277
0.017110173 0.15425046 0.74699998 4289045386
0.018497294 0.15424807 0.74699998 4288716165
0.019884363 0.15424564 0.74699998 4288847240
0.021271382 0.15424317 0.74699998 4288847240
0.022658348 0.15424064 0.74699998 4288781704
-0.054197997 0.15713857 0.75400001 4288912263
-0.05279563 0.15713857 0.75400001 4289175185
-0.051256955 0.15672174 0.75199997 4289635736
-0.049858376 0.15672168 0.75199997 4289636011
-0.048137639 0.15567954 0.74699998 4289701804
-0.046560694 0.15505418 0.74400002 4289767308
-0.045055669 0.15463714 0.74199998 4289767308
-0.043675851 0.15463689 0.74199998 4289767836
-0.04223907 0.1544282 0.741 4289899421
-0.040861189 0.15442784 0.741 4290030242
-0.03948335 0.15442747 0.741 4290030242
-0.038105551 0.15442702 0.741 4289637285
-0.03672779 0.15442653 0.741 4289571492
-0.035350077 0.15442601 0.741 4289702308
-0.033880707 0.15400863 0.73900002 4289702308
-0.032506794 0.154008 0.73900002 4290227617
-0.031090789 0.15379891 0.73799998 4290293410
-0.029718814 0.15379819 0.73799998 4289964449
-0.028270064 0.15338065 0.736 4289569691
-0.026901895 0.15337983 0.736 4290162596
-0.025533766 0.15337896 0.736 4290162596
-0.024165679 0.15337807 0.736 4289898917
-0.022735687 0.15296032 0.73400003 4289898917
-0.021371407 0.15295935 0.73400003 4289767840
-0.020061683 0.15337506 0.736 4289570204
-0.018744567 0.15379074 0.73799998 4290031007
-0.017396525 0.15399799 0.73900002 4290228387
-0.016023122 0.1539968 0.73900002 4290293148
-0.014629944 0.15378718 0.73799998 4290161562
-0.013258492 0.15378587 0.73799998 4289964447
-0.011903191 0.15399295 0.73900002 4290030496
-0.010515721 0.15378317 0.73799998 4290426015
-0.0091196215 0.15336499 0.736 4290294686
-0.007752066 0.15336353 0.736 4289899671
-0.0063845566 0.15336201 0.736 4289965464
-0.0050170925 0.15336043 0.736 4289965464
-0.0036496748 0.15335882 0.736 4289899671
-0.0022885057 0.15377389 0.73799998 4289769105
-0.00091746525 0.15377218 0.73799998 4289440140
0.00045414243 0.15397878 0.73900002 4289637265
0.0018269464 0.15397698 0.73900002 4289768851
0.0031997024 0.15397511 0.73900002 4289177247
0.0045847851 0.15438992 0.741 4288914076
0.0059611602 0.15438795 0.741 4289111200
0.0073473901 0.1545943 0.74199998 4289242786
0.0087255249 0.15459223 0.74199998 4289046427
0.010103612 0.15459013 0.74199998 4288914841
0.01148165 0.154588 0.74199998 4289176982
0.012980956 0.15604416 0.74900001 4289440154
0.014371893 0.15604188 0.74900001 4289440140
0.015762782 0.15603958 0.74900001 4288913796
0.017153619 0.15603721 0.74900001 4288913798
0.018544406 0.1560348 0.74900001 4288255612
0.01993514 0.15603234 0.74900001 4288255110
0.021325825 0.15602982 0.74900001 4287663230
0.022716455 0.15602727 0.74900001 4287007877
-0.054269824 0.15873237 0.755 4288580470
-0.052865639 0.15873238 0.755 4289501320
-0.05139333 0.15852211 0.75400001 4289961871
-0.049991079 0.15852204 0.75400001 4289439386
-0.048331104 0.15768094 0.75 4289636765
-0.046748631 0.15705004 0.74699998 4289505681
-0.045298796 0.15683958 0.74599999 4289505681
-0.043793857 0.15641885 0.74400002 4289832859
-0.042296402 0.15599804 0.74199998 4289964701
-0.040916704 0.15599768 0.74199998 4290161058
-0.039537057 0.15599728 0.74199998 4290161058
-0.038157441 0.15599681 0.74199998 4289964197
-0.036728308 0.15578608 0.741 4289964197
-0.035350639 0.15578553 0.741 4289898404
-0.034018856 0.15599518 0.74199998 4289964197
-0.032595418 0.15578429 0.741 4290425000
-0.031217879 0.15578361 0.741 4290293414
-0.029759832 0.1553624 0.73900002 4290162342
-0.02838609 0.15536161 0.73900002 4289899169
-0.027012389 0.15536079 0.73900002 4290031005
-0.025638733 0.15535991 0.73900002 4289965212
-0.024265114 0.15535899 0.73900002 4289176464
-0.022798615 0.15472732 0.736 4289242257
-0.021430664 0.15472633 0.736 4289832861
-0.02011727 0.1551457 0.73799998 4289767068
-0.018821893 0.15577526 0.741 4290030746
-0.017468318 0.15598431 0.74199998 4290030746
-0.016089391 0.15598311 0.74199998 4290030746
-0.014651034 0.15535121 0.73900002 4289964953
-0.013277769 0.15534991 0.73900002 4289439638
-0.011936768 0.15576898 0.741 4289505432
-0.010517125 0.15513691 0.73799998 4289439640
-0.009145855 0.15513548 0.73799998 4289439640
-0.0077746296 0.15513398 0.73799998 4289636499
-0.0064034509 0.15513244 0.73799998 4289636499
-0.0050323191 0.15513086 0.73799998 4289570706
-0.0036612325 0.15512922 0.73799998 4289702293
-0.002290193 0.15512756 0.73799998 4289637015
-0.00091919978 0.15512583 0.73799998 4289373843
0.00045235839 0.15533425 0.73900002 4289373843
0.0018300543 0.15575281 0.741 4289373843
0.0032064782 0.15575093 0.741 4289045394
0.0045828545 0.15574899 0.741 4289045394
0.005959182 0.15574703 0.741 4289111189
0.0073453612 0.15595518 0.74199998 4289045396
0.0087234499 0.15595311 0.74199998 4288979855
0.01010149 0.15595099 0.74199998 4288979855
0.013082685 0.15867883 0.755 4288979341
0.014484717 0.15867653 0.755 4288979341
0.015823571 0.15804368 0.75199997 4288913292
0.017219933 0.1580413 0.75199997 4288847749
0.018616242 0.15803885 0.75199997 4288584833
-0.054701075 0.16139008 0.76099998 4285227864
-0.053005703 0.16054179 0.75700003 4287199580
-0.051461559 0.16011758 0.755 4288449904
-0.049991194 0.15990542 0.75400001 4289240699
-0.048460152 0.15948112 0.75199997 4289701250
-0.046936586 0.1590568 0.75 4289768340
-0.045481216 0.15884447 0.74900001 4289702547
-0.043970741 0.15842003 0.74699998 4289636499
-0.042524755 0.15820764 0.74599999 4289241742
-0.041027386 0.15778312 0.74400002 4289504161
-0.039644063 0.15778269 0.74400002 4289438368
-0.038260777 0.15778221 0.74400002 4289636002
-0.036877539 0.15778171 0.74400002 4289767588
-0.035589747 0.15820527 0.74599999 4289569954
-0.034202874 0.15820466 0.74599999 4289438368
-0.032991998 0.15905228 0.75 4289175712
-0.031471375 0.15841535 0.74699998 4288715161
-0.029961951 0.1577784 0.74400002 4289307798
-0.028578961 0.15777761 0.74400002 4289307798
-0.027122907 0.1573526 0.74199998 4289570956
-0.025743714 0.1573517 0.74199998 4289702799
-0.024331739 0.15713872 0.741 4288978567
-0.022954496 0.15713769 0.741 4288781445
-0.021577299 0.15713668 0.741 4289307285
-0.020281926 0.15777178 0.74400002 4289241492
-0.018899241 0.15777063 0.74400002 4289504913
-0.017516598 0.15776946 0.74400002 4289439120
-0.016134001 0.15776823 0.74400002 4289702295
-0.014711794 0.15734285 0.74199998 4289702295
-0.013333001 0.1573415 0.74199998 4289637015
-0.011938144 0.1571281 0.741 4289834394
-0.010561304 0.15712668 0.741 4289374360
-0.0091845058 0.1571252 0.741 4289374360
-0.0077761444 0.15648757 0.73799998 4289504915
-0.0064050131 0.156486 0.73799998 4289504915
-0.005040749 0.15669645 0.73900002 4289636499
-0.0036678514 0.1566948 0.73900002 4289570706
-0.0023012122 0.15711717 0.741 4289372308
-0.00092469354 0.15711541 0.741 4289372308
0.00045177815 0.15711361 0.741 4289307285
0.0018306697 0.15732379 0.74199998 4289504663
0.0032089036 0.1573219 0.74199998 4289176464
0.0045994543 0.15774401 0.74400002 4289176464
0.0059813061 0.15774201 0.74400002 4289176464
0.0073631103 0.15773997 0.74400002 4289045135
0.0087448666 0.15773788 0.74400002 4288979337
0.010126572 0.15773574 0.74400002 4288913544
0.012823014 0.17575419 0.829 4288452745
0.013080413 0.16006334 0.755 4288452745
0.014482395 0.16006103 0.755 4288386446
0.015863292 0.15984668 0.75400001 4287597186
0.017263317 0.15984426 0.75400001 4288256895
0.018663291 0.15984179 0.75400001 4290164892
-0.054557297 0.1623584 0.759 4283650887
-0.053145774 0.16235837 0.759 4285159500
-0.05173428 0.16235833 0.759 4286935911
-0.050057616 0.16150257 0.755 4287923567
-0.048460316 0.16086069 0.75199997 4289305220
-0.046936795 0.16043267 0.75 4288979855
-0.045542203 0.16043243 0.75 4289111441
-0.043971054 0.15979038 0.74699998 4289438868
-0.042582117 0.15979002 0.74699998 4289241746
-0.041138079 0.15957573 0.74599999 4289045396
-0.039751083 0.15957528 0.74599999 4288979603
-0.038364131 0.15957481 0.74599999 4289044883
-0.036977217 0.15957429 0.74599999 4289176212
-0.035876591 0.16085713 0.75199997 4288913303
-0.034478609 0.16085649 0.75199997 4288913303
-0.032992687 0.16042799 0.75 4288979353
-0.031472109 0.15978555 0.74699998 4289045146
-0.030043276 0.15957089 0.74599999 4289307798
-0.028579796 0.15914227 0.74400002 4289242005
-0.027196893 0.15914142 0.74400002 4289307789
-0.025814034 0.1591405 0.74400002 4289504911
-0.024431221 0.15913953 0.74400002 4289174917
-0.02298649 0.15871072 0.74199998 4289372296
-0.021607481 0.15870968 0.74199998 4289570204
-0.020337563 0.15956415 0.74599999 4289438618
-0.018951207 0.15956299 0.74599999 4289373845
-0.017564896 0.15956178 0.74599999 4289373845
-0.016135259 0.15913275 0.74400002 4289636765
-0.014752752 0.15913147 0.74400002 4289636765
-0.013370291 0.15913013 0.74400002 4289506199
-0.011955652 0.15870096 0.74199998 4289506199
-0.010562744 0.15848565 0.741 4289045394
-0.009185994 0.15848418 0.741 4288979601
-0.0078092907 0.15848264 0.741 4288846467
-0.0064326329 0.15848106 0.741 4289570447
-0.0050560208 0.15847945 0.741 4289767567
-0.0036794557 0.15847777 0.741 4289504652
-0.0023029374 0.15847605 0.741 4289372300
-0.00092646608 0.1584743 0.741 4289438094
0.00045056533 0.15868634 0.74199998 4289437842
0.0018337291 0.1591122 0.74400002 4289437842
0.0032156308 0.15911028 0.74400002 4289111187
0.0045974841 0.15910831 0.74400002 4289045394
0.0059792888 0.1591063 0.74400002 4288847501
0.0073610456 0.15910424 0.74400002 4288518536
0.0087427534 0.15910211 0.74400002 4288517505
0.011281098 0.1772767 0.829 4288517505
0.012820553 0.17727426 0.829 4288320903
0.014359952 0.17727174 0.829 4288386696
0.015899295 0.17726919 0.829 4288124296
0.016113335 0.16379516 0.76599997 4287926660
0.017535593 0.1637927 0.76599997 4287993989
0.018957799 0.16379017 0.76599997 4292073155
-0.054701056 0.16418223 0.76099998 4282796875
-0.053285863 0.16418219 0.76099998 4283385681
-0.051734366 0.16375063 0.759 4283254094
-0.050057758 0.16288753 0.755 4283716431
-0.048589393 0.1626716 0.75400001 4285098084
-0.0470622 0.16223989 0.75199997 4286018402
-0.045542482 0.16180813 0.75 4287531641
-0.044089112 0.16159208 0.74900001 4288845704
-0.042696502 0.16159171 0.74900001 4289569171
-0.04130394 0.16159132 0.74900001 4289372296
-0.039911415 0.16159086 0.74900001 4289240710
-0.038930345 0.16331629 0.75700003 4289175435
-0.037523031 0.16331573 0.75700003 4289175435
-0.035877205 0.16223641 0.75199997 4288979087
-0.034479272 0.16223577 0.75199997 4288847501
-0.032949407 0.16158786 0.74900001 4288979089
-0.031472862 0.16115564 0.74699998 4289768349
-0.030044077 0.16093911 0.74599999 4289504661
-0.028657464 0.16093828 0.74599999 4289438868
-0.027270896 0.16093738 0.74599999 4289504915
-0.025884368 0.16093646 0.74599999 4289504915
-0.024497885 0.16093549 0.74599999 4289241996
-0.023049483 0.16050301 0.74400002 4289636753
-0.021666806 0.16050194 0.74400002 4289439138
-0.020338695 0.16093226 0.74599999 4289307296
-0.01895239 0.16093108 0.74599999 4289044892
-0.017566126 0.16092987 0.74599999 4288913305
-0.016179906 0.16092861 0.74599999 4289374106
-0.014754072 0.16049588 0.74400002 4289374106
-0.013371659 0.16049449 0.74400002 4289243792
-0.011957062 0.16006164 0.74199998 4289309585
-0.010578456 0.16006018 0.74199998 4289177232
-0.0091998959 0.16005869 0.74199998 4288979852
-0.007821383 0.16005717 0.74199998 4288781454
-0.0064429133 0.16005556 0.74199998 4289439640
-0.0050644921 0.16005392 0.74199998 4289505667
-0.0036861168 0.16005222 0.74199998 4288979323
-0.0023077885 0.1600505 0.74199998 4289044362
-0.00092950702 0.16004871 0.74199998 4289110155
0.00044993669 0.16047828 0.74400002 4289110157
0.0018318383 0.16047639 0.74400002 4288583813
0.0032136922 0.16047448 0.74400002 4288714634
0.0046078512 0.16090386 0.74599999 4288714634
0.0059933225 0.16090181 0.74599999 4288845704
0.0073787454 0.16089973 0.74599999 4288516740
0.0097392173 0.17879909 0.829 4288516488
0.011278673 0.17879666 0.829 4288779659
0.01278715 0.17836285 0.82700002 4288452239
0.014322785 0.17836033 0.82700002 4288320653
0.014707814 0.16541763 0.76700002 4288781454
0.016110901 0.16519955 0.76599997 4289702556
0.01753311 0.16519706 0.76599997 4289440935
-0.049859002 0.16361959 0.75199997 4283126086
-0.048460715 0.16361941 0.75199997 4283784272
-0.047062449 0.16361918 0.75199997 4284901970
-0.045664225 0.16361889 0.75199997 4286217830
-0.044148318 0.16318342 0.75 4287922802
-0.042753905 0.16318303 0.75 4289567626
-0.041359518 0.16318262 0.75 4289175439
-0.040338196 0.16470519 0.75700003 4289043597
-0.038930882 0.16470465 0.75700003 4288977543
-0.037523616 0.16470408 0.75700003 4289174665
-0.036116391 0.16470346 0.75700003 4289043849
-0.034709208 0.16470279 0.75700003 4289043849
-0.032950126 0.16296148 0.74900001 4289044112
-0.031473633 0.16252559 0.74699998 4288978319
-0.030044891 0.16230722 0.74599999 4289108107
-0.028658327 0.16230637 0.74599999 4289173900
-0.027271807 0.16230547 0.74599999 4288977795
-0.025885323 0.16230451 0.74599999 4288977795
-0.024498889 0.16230352 0.74599999 4288716163
-0.023112496 0.16230248 0.74599999 4288979591
-0.02172615 0.16230139 0.74599999 4289176214
-0.02036711 0.16251782 0.74699998 4289176214
-0.018978991 0.16251661 0.74699998 4289044379
-0.017590918 0.16251539 0.74699998 4289044379
-0.016202888 0.16251411 0.74699998 4288980886
-0.014814904 0.16251278 0.74699998 4288915093
-0.013426965 0.16251139 0.74699998 4288520846
-0.012022954 0.16229242 0.74599999 4288915604
-0.010636965 0.16229093 0.74599999 4289046677
-0.0092510208 0.16228941 0.74599999 4288586126
-0.0078440374 0.16185278 0.74400002 4288584584
-0.0064445306 0.16141607 0.74199998 4288847499
-0.0050661555 0.16141441 0.74199998 4288717700
-0.0036878281 0.1614127 0.74199998 4288585858
-0.0023095473 0.16141096 0.74199998 4288454279
-0.00093382352 0.16184422 0.74400002 4288651401
0.00044928241 0.16227742 0.74599999 4288979089
0.0018348511 0.16227551 0.74599999 4288386696
0.0032246883 0.16249108 0.74699998 4288319108
0.0046243663 0.16292414 0.74900001 4288516488
0.0060153618 0.16292207 0.74900001 4289304970
0.0074557494 0.16400756 0.75400001 4288976005
0.0097368285 0.18031892 0.829 4288909960
0.011249026 0.17988145 0.82700002 4288844167
0.012784659 0.17987897 0.82700002 4288452241
0.01432024 0.17987643 0.82700002 4288846999
0.014705408 0.16682374 0.76700002 4289176734
0.016129475 0.1668213 0.76700002 4289834407
0.017553493 0.1668188 0.76700002 4289900453
0.020462006 0.17986575 0.82700002 4293190103
0.021997306 0.17986293 0.82700002 4294573050
-0.046937548 0.1645595 0.75 4283520842
-0.04554309 0.1645592 0.75 4283586891
-0.044148676 0.16455886 0.75 4284109642
-0.042754307 0.16455847 0.75 4285293659
-0.041359976 0.16455802 0.75 4286212213
-0.040338702 0.16609341 0.75700003 4287659659
-0.038931433 0.16609287 0.75700003 4288188022
-0.03752422 0.16609228 0.75700003 4288714366
-0.03611704 0.16609165 0.75700003 4289109372
-0.034709904 0.16609095 0.75700003 4289175421
-0.033214826 0.16565141 0.755 4289174667
-0.031474415 0.1638954 0.74699998 4288779909
-0.030085994 0.16389456 0.74699998 4288648841
-0.028697621 0.16389368 0.74699998 4288911757
-0.027309285 0.16389279 0.74699998 4288912249
-0.025920996 0.16389182 0.74699998 4288912249
-0.02453275 0.16389081 0.74699998 4288716165
-0.023144545 0.16388974 0.74699998 4288847751
-0.02175639 0.16388865 0.74699998 4288913805
-0.020368272 0.1638875 0.74699998 4288716683
-0.018980203 0.16388628 0.74699998 4289044885
-0.017639278 0.16432384 0.74900001 4289176214
-0.01624758 0.16432253 0.74900001 4289504911
-0.014855929 0.16432117 0.74900001 4289504911
-0.01346432 0.16431977 0.74900001 4288453779
-0.012072762 0.16431832 0.74900001 4288321936
-0.010681245 0.16431683 0.74900001 4288519052
-0.0092649683 0.16387653 0.74699998 4288519052
-0.0078772604 0.16387494 0.74699998 4288912009
-0.0064809122 0.16365393 0.74599999 4288846216
-0.0050814953 0.16321349 0.74400002 4288716933
-0.0036994996 0.16321178 0.74400002 4288716933
-0.0023175518 0.16321 0.74400002 4288388997
-0.00093565037 0.16320819 0.74400002 4288126081
0.00044800265 0.16386439 0.74699998 4288650388
0.0018353808 0.16386247 0.74699998 4288255630
0.0032313394 0.16429922 0.74900001 4288385163
0.0046285065 0.16451655 0.75 4288385163
0.0060534244 0.16539188 0.75400001 4288647808
0.0074536083 0.16538975 0.75400001 4288713601
0.0088537429 0.16538756 0.75400001 4288713351
0.011246573 0.18139744 0.82700002 4288713351
0.012782154 0.18139493 0.82700002 4288320401
0.014317682 0.18139239 0.82700002 4289702054
0.015853152 0.18138976 0.82700002 4290162859
0.017430618 0.18182576 0.829 4291017912
0.018923927 0.18138438 0.82700002 4290821555
0.018826451 0.16690618 0.76099998 4293255896
0.020239176 0.16690357 0.76099998 4294112738
-0.043153774 0.16748248 0.75700003 4283256895
-0.041746479 0.16748202 0.75700003 4284044108
-0.04033922 0.1674815 0.75700003 4285294432
-0.038932003 0.16748095 0.75700003 4286871912
-0.037524834 0.16748035 0.75700003 4288056187
-0.036117703 0.16747969 0.75700003 4287927162
-0.03471062 0.16747901 0.75700003 4288453506
-0.03330357 0.16747823 0.75700003 4288976791
-0.031559486 0.16570753 0.74900001 4288779155
-0.030086843 0.16526422 0.74699998 4288254860
-0.028698513 0.16526332 0.74699998 4288584082
-0.02731023 0.16526242 0.74699998 4288716683
-0.025921984 0.16526142 0.74699998 4288650890
-0.024533788 0.1652604 0.74699998 4288715911
-0.023145631 0.16525932 0.74699998 4288847753
-0.021757523 0.1652582 0.74699998 4288520335
-0.020451259 0.16592072 0.75 4288322700
-0.019057661 0.1659195 0.75 4288584847
-0.017664108 0.16591822 0.75 4288979349
-0.016248908 0.16569568 0.74900001 4289175439
-0.014857304 0.16569431 0.74900001 4288977804
-0.01348372 0.1659141 0.75 4288452491
-0.012090351 0.16591266 0.75 4288386698
-0.010697026 0.16591114 0.75 4288518538
-0.0093037467 0.16590959 0.75 4288584332
-0.0079105133 0.16590796 0.75 4289307539
-0.0065173274 0.16590631 0.75 4288846988
-0.0051378524 0.16634701 0.75199997 4288453254
-0.0037261208 0.16568166 0.74900001 4288387461
-0.0023286983 0.16523743 0.74699998 4287929481
-0.00094127288 0.16523561 0.74699998 4287929481
0.00044729933 0.1656761 0.74900001 4288453779
0.0018407984 0.16589536 0.75 4287993228
0.0032422745 0.16633572 0.75199997 4288385415
0.0046511316 0.16677606 0.75400001 4288188292
0.0060513164 0.16677396 0.75400001 4287990907
0.0074613341 0.16699299 0.755 4287925114
0.0088632759 0.16699079 0.755 4288055941
0.011244101 0.18291326 0.82700002 4288713614
0.01277963 0.18291076 0.82700002 4288254860
0.014315103 0.18290816 0.82700002 4289768099
0.015850522 0.18290554 0.82700002 4289966511
0.017427927 0.18334518 0.829 4290690235
0.018875431 0.18245779 0.82499999 4291018668
0.018823884 0.16830093 0.76099998 4292663493
0.020236563 0.16829832 0.76099998 4293125341
-0.041857257 0.16931613 0.759 4283322438
-0.040446334 0.16931561 0.759 4283124802
-0.039035447 0.16931504 0.759 4283322186
-0.037624605 0.16931441 0.759 4283387979
-0.036213808 0.16931373 0.759 4284046143
-0.034803055 0.16931303 0.759 4285098831
-0.033304352 0.16886613 0.75700003 4285624189
-0.031560306 0.16708073 0.74900001 4285952898
-0.030168263 0.16707987 0.74900001 4286018691
-0.028776268 0.16707897 0.74900001 4286939793
-0.027384313 0.16707802 0.74900001 4286874756
-0.025992397 0.16707703 0.74900001 4287795858
-0.024600526 0.16707599 0.74900001 4287795844
-0.023146732 0.16662875 0.74699998 4287795844
-0.021758668 0.16662763 0.74699998 4288322952
-0.020452458 0.1672956 0.75 4288191622
-0.019058909 0.16729437 0.75 4288453258
-0.017665405 0.1672931 0.75 4288584845
-0.016271945 0.16729176 0.75 4288779657
-0.014878532 0.16729039 0.75 4288516742
-0.013485162 0.16728896 0.75 4288320653
-0.012124083 0.16773355 0.75199997 4288254860
-0.010727092 0.16773203 0.75199997 4288519304
-0.0093301442 0.16773045 0.75199997 4288387461
-0.007933245 0.16772883 0.75199997 4288058501
-0.0065363906 0.16772713 0.75199997 4287926658
-0.0051395856 0.1677254 0.75199997 4287597700
-0.0037428264 0.16772363 0.75199997 4287531650
-0.0023461152 0.16772181 0.75199997 4287335554
-0.00095197652 0.16816601 0.75400001 4287006590
0.00044835391 0.16816409 0.75400001 4286874490
0.0018486362 0.16816211 0.75400001 4286479732
0.0032488699 0.1681601 0.75400001 4286676084
0.0046490552 0.16815801 0.75400001 4287070842
0.0060491906 0.16815588 0.75400001 4287005558
0.0081507349 0.18398784 0.82499999 4287334780
0.0096591339 0.18353938 0.82300001 4287729034
0.011187237 0.1835369 0.82300001 4289110687
0.012746186 0.18398039 0.82499999 4289045405
0.014312508 0.1844238 0.82700002 4290032300
0.015847871 0.18442115 0.82700002 4289901234
0.017383182 0.18441847 0.82700002 4290427578
0.018872684 0.18396972 0.82499999 4290756013
0.020404171 0.18396692 0.82499999 4291545530
0.021988779 0.18441004 0.82700002 4292928482
0.023523863 0.18440713 0.82700002 4294770686
-0.041857768 0.17070766 0.759 4283125834
-0.040446885 0.17070711 0.759 4282862918
-0.03903605 0.1707065 0.759 4282665283
-0.037625257 0.17070587 0.759 4282665283
-0.036214504 0.1707052 0.759 4282994990
-0.0348038 0.17070448 0.759 4283455541
-0.033393133 0.17070368 0.759 4284112479
-0.031898234 0.17025304 0.75700003 4284112479
-0.030169142 0.16845295 0.74900001 4285755505
-0.028777193 0.16845202 0.74900001 4285755505
-0.027385283 0.16845104 0.74900001 4286282601
-0.02599342 0.16845004 0.74900001 4288124805
-0.024601601 0.168449 0.74900001 4287667338
-0.023147848 0.16799808 0.74699998 4288259475
-0.021759832 0.16799691 0.74699998 4288849831
-0.020453675 0.16867042 0.75 4288389280
-0.019060172 0.16866915 0.75 4287532677
-0.017713826 0.1691176 0.75199997 4287927179
-0.016316701 0.16911626 0.75199997 4288517001
-0.014919619 0.16911486 0.75199997 4288517001
-0.013522581 0.16911341 0.75199997 4288254860
-0.012125593 0.16911191 0.75199997 4288254860
-0.010728647 0.16911036 0.75199997 4288848787
-0.0093317488 0.16910875 0.75199997 4288190600
-0.007956 0.16955689 0.75400001 4287795592
-0.0065554813 0.16955517 0.75400001 4287532677
-0.0051618456 0.1697783 0.755 4287203707
-0.003759563 0.16977651 0.755 4287335293
-0.0025696433 0.18506563 0.82300001 4287794309
-0.0010411665 0.18506356 0.82300001 4287004793
0.00048725813 0.18506144 0.82300001 4286939000
0.0020156302 0.18505926 0.82300001 4286676084
0.003543949 0.18505704 0.82300001 4286348135
0.0050722146 0.18505475 0.82300001 4286742893
0.0066164667 0.18550211 0.82499999 4286414441
0.0081285862 0.18505004 0.82300001 4287269750
0.0096566919 0.18504761 0.82300001 4287992976
0.011184742 0.18504511 0.82300001 4289505958
0.01274363 0.18549225 0.82499999 4289179296
0.014309893 0.18593931 0.82700002 4289376675
0.015845207 0.18593666 0.82700002 4289442217
0.017380461 0.18593392 0.82700002 4290560697
0.018915664 0.18593116 0.82700002 4291085756
0.020450812 0.18592834 0.82700002 4291414977
0.0219859 0.18592548 0.82700002 4292796893
-0.039036665 0.17209785 0.759 4283191883
-0.03762592 0.17209719 0.759 4282928712
-0.03621522 0.17209651 0.759 4283126340
-0.03480456 0.17209575 0.759 4283520842
-0.033393946 0.17209496 0.759 4283389263
-0.031983368 0.17209409 0.759 4283784020
-0.030170035 0.16982584 0.74900001 4283916633
-0.028778138 0.16982491 0.74900001 4283258960
-0.027422838 0.17005065 0.75 4284509790
-0.026029162 0.17004962 0.75 4288917921
-0.024602683 0.16982181 0.74900001 4291678386
-0.023210956 0.16982068 0.74900001 4292467901
-0.021819275 0.16981953 0.74900001 4292203978
-0.020509452 0.17049849 0.75199997 4288716692
-0.019112282 0.17049721 0.75199997 4287203203
-0.017762274 0.17094934 0.75400001 4286940288
-0.016361479 0.17094797 0.75400001 4287202688
-0.01496073 0.17094654 0.75400001 4287268737
-0.013560025 0.17094508 0.75400001 4287203203
-0.012159369 0.17094356 0.75400001 4287203203
-0.010758758 0.17094198 0.75400001 4286874742
-0.0093581919 0.17094035 0.75400001 4286743156
-0.0079682274 0.17116541 0.755 4286874238
-0.0065658982 0.17116368 0.755 4287268996
-0.005628685 0.18657784 0.82300001 4287202677
