# .PCD v0.7 - Point Cloud Data file format
VERSION 0.7
FIELDS x y z rgba
SIZE 4 4 4 4
TYPE F F F U
COUNT 1 1 1 1
WIDTH 1101
HEIGHT 1
VIEWPOINT 0 0 0 1 0 0 0
POINTS 1101
DATA ascii
-0.14118049 0.17361583 0.81900001 4293387734
-0.14033729 0.17446645 0.82300001 4293519063
-0.13947925 0.17531708 0.82700002 4293650906
-0.13827275 0.17574365 0.829 4293256138
-0.13705882 0.17617022 0.83099997 4292466366
-0.1358375 0.17659673 0.833 4292270534
-0.13493118 0.17744723 0.83700001 4291546810
-0.13401 0.1782977 0.84100002 4293124839
-0.13275899 0.17872411 0.84299999 4294967295
-0.13118933 0.17872648 0.84299999 4293583103
-0.26917472 0.17260167 0.80900002 4294967295
-0.26766419 0.17260757 0.80900002 4294967295
-0.2641798 0.17133328 0.80299997 4294967295
-0.26235348 0.17112572 0.80199999 4294967295
-0.26020572 0.17070475 0.80000001 4294967295
-0.25806543 0.1702837 0.79799998 4294967295
-0.25593272 0.16986263 0.796 4294967295
-0.25444686 0.16986826 0.796 4294967295
-0.25168985 0.16902024 0.792 4294967295
-0.24957974 0.16859896 0.79000002 4294967295
-0.24810524 0.16860451 0.79000002 4294967295
-0.24631858 0.16839655 0.78899997 4294967295
-0.24484606 0.16840199 0.78899997 4294967295
-0.24275663 0.16798052 0.787 4294967295
-0.24128801 0.1679859 0.787 4294967295
-0.23920992 0.16756433 0.78500003 4294967295
-0.23774511 0.16756961 0.78500003 4294967295
-0.2356783 0.16714793 0.78299999 4294967295
-0.23421729 0.16715316 0.78299999 4294967295
-0.23275636 0.16715834 0.78299999 4294967295
-0.23070468 0.16673651 0.78100002 4294967295
-0.228954 0.16652812 0.77999997 4294967295
-0.22749884 0.16653319 0.77999997 4294967295
-0.2260437 0.16653822 0.77999997 4294967295
-0.2245886 0.16654323 0.77999997 4294967295
-0.22256143 0.16612116 0.778 4294967295
-0.22111017 0.16612607 0.778 4294967295
-0.21965894 0.16613096 0.778 4294967295
-0.21820776 0.1661358 0.778 4294967295
-0.21675664 0.16614063 0.778 4294967295
-0.21530557 0.16614541 0.778 4294967295
-0.21385455 0.16615018 0.778 4294967295
-0.21240354 0.16615488 0.778 4294967295
-0.21095261 0.16615957 0.778 4294967295
-0.20896317 0.16573706 0.77600002 4294967295
-0.20751604 0.16574167 0.77600002 4294967295
-0.20606898 0.16574624 0.77600002 4294967295
-0.20462194 0.16575076 0.77600002 4294967295
-0.20317493 0.16575523 0.77600002 4294967295
-0.20172802 0.1657597 0.77600002 4294967295
-0.2002811 0.16576412 0.77600002 4294967295
-0.19883423 0.16576849 0.77600002 4294967295
-0.19789615 0.1662001 0.778 4294967295
-0.19695064 0.16663164 0.77999997 4294967295
-0.19549645 0.16663596 0.77999997 4294967295
-0.19404231 0.16664021 0.77999997 4294967295
-0.1925882 0.16664442 0.77999997 4294967295
-0.19113414 0.1666486 0.77999997 4294967295
-0.18992329 0.16686642 0.78100002 4294967295
-0.18846744 0.16687052 0.78100002 4294967295
-0.18701163 0.1668746 0.78100002 4294967295
-0.18555586 0.16687863 0.78100002 4294967295
-0.18410011 0.16688262 0.78100002 4294967295
-0.18264441 0.16688657 0.78100002 4294967295
-0.18118879 0.1668905 0.78100002 4294967295
-0.17973317 0.16689438 0.78100002 4294967295
-0.17873414 0.1673256 0.78299999 4294967295
-0.17727484 0.1673294 0.78299999 4294967295
-0.17581561 0.16733316 0.78299999 4294967295
-0.17480181 0.16776434 0.78500003 4294967295
-0.17333892 0.16776802 0.78500003 4294967295
-0.17231397 0.16819909 0.787 4294967295
-0.17128162 0.16863017 0.78899997 4294967295
-0.16981138 0.16863377 0.78899997 4294967295
-0.16855459 0.16885106 0.79000002 4294967295
-0.16708258 0.16885458 0.79000002 4294967295
-0.16602987 0.16928554 0.792 4294967295
-0.16455421 0.16928896 0.792 4294967295
-0.16307858 0.16929236 0.792 4294967295
-0.161603 0.1692957 0.792 4294967295
-0.16012745 0.16929902 0.792 4294967295
-0.15905258 0.16972983 0.79400003 4294967295
-0.15757337 0.16973306 0.79400003 4294967295
-0.15648739 0.1701638 0.796 4294967295
-0.15578347 0.17102207 0.80000001 4294967290
-0.15467891 0.17145275 0.80199999 4294967291
-0.15337597 0.17166962 0.80299997 4294834932
-0.15188017 0.17167266 0.80299997 4294966261
-0.15038443 0.17167567 0.80299997 4294374381
-0.14925955 0.17210624 0.80500001 4294571758
-0.14812726 0.17253675 0.80699998 4294177000
-0.14662416 0.17253965 0.80699998 4293914593
-0.14548077 0.1729701 0.80900002 4293783007
-0.14468589 0.17382815 0.81300002 4293848285
-0.14352395 0.17425853 0.815 4293716699
-0.14235456 0.17468892 0.81699997 4293716701
-0.1411778 0.17511925 0.81900001 4293387736
-0.14033465 0.1759772 0.82300001 4293322456
-0.13913932 0.17640747 0.82499999 4293322456
-0.13827018 0.17726539 0.829 4293059535
-0.13705631 0.17769557 0.83099997 4292598984
-0.13583502 0.17812575 0.833 4292795597
-0.13460632 0.17855588 0.83499998 4292861390
-0.1336889 0.17941369 0.83899999 4293649118
-0.13244167 0.17984377 0.84100002 4293978340
-0.1308758 0.17984611 0.84100002 4292401886
-0.26916879 0.17408821 0.80900002 4294967295
-0.26699662 0.17366369 0.80699998 4294967295
-0.26417398 0.17280874 0.80299997 4294967295
-0.2623477 0.17259933 0.80199999 4294967295
-0.26019999 0.17217466 0.80000001 4294967295
-0.25805977 0.17174992 0.79799998 4294967295
-0.25592709 0.17132512 0.796 4294967295
-0.25380197 0.1709003 0.79400003 4294967295
-0.25168431 0.17047536 0.792 4294967295
-0.24957424 0.1700504 0.79000002 4294967295
-0.24809976 0.1700559 0.79000002 4294967295
-0.24631315 0.16984609 0.78899997 4294967295
-0.24422005 0.16942097 0.787 4294967295
-0.24275133 0.16942637 0.787 4294967295
-0.24066952 0.16900113 0.78500003 4294967295
-0.23920466 0.16900644 0.78500003 4294967295
-0.23713414 0.16858111 0.78299999 4294967295
-0.23507118 0.16815573 0.78100002 4294967295
-0.23361389 0.16816092 0.78100002 4294967295
-0.23215672 0.16816607 0.78100002 4294967295
-0.23040415 0.16795585 0.77999997 4294967295
-0.228949 0.16796091 0.77999997 4294967295
-0.22749382 0.16796596 0.77999997 4294967295
-0.22545913 0.1675403 0.778 4294967295
-0.22400779 0.16754527 0.778 4294967295
-0.22255649 0.16755019 0.778 4294967295
-0.22110529 0.16755511 0.778 4294967295
-0.21965411 0.16755998 0.778 4294967295
-0.21820293 0.16756479 0.778 4294967295
-0.21675189 0.16756961 0.778 4294967295
-0.21474737 0.1671436 0.77600002 4294967295
-0.21330011 0.16714832 0.77600002 4294967295
-0.21185291 0.167153 0.77600002 4294967295
-0.21040572 0.16715765 0.77600002 4294967295
-0.2089586 0.16716227 0.77600002 4294967295
-0.2075115 0.16716684 0.77600002 4294967295
-0.20606446 0.16717139 0.77600002 4294967295
-0.2046175 0.1671759 0.77600002 4294967295
-0.20317049 0.16718037 0.77600002 4294967295
-0.20172359 0.16718483 0.77600002 4294967295
-0.2002767 0.1671892 0.77600002 4294967295
-0.1988299 0.16719358 0.77600002 4294967295
-0.19738315 0.1671979 0.77600002 4294967295
-0.19644138 0.16763313 0.778 4294967295
-0.19499096 0.16763739 0.778 4294967295
-0.19354057 0.16764162 0.778 4294967295
-0.19209023 0.1676458 0.778 4294967295
-0.19113 0.16808094 0.77999997 4294967295
-0.189676 0.16808505 0.77999997 4294967295
-0.18822207 0.16808914 0.77999997 4294967295
-0.18676816 0.16809319 0.77999997 4294967295
-0.1853143 0.16809721 0.77999997 4294967295
-0.18386045 0.16810118 0.77999997 4294967295
-0.18240665 0.1681051 0.77999997 4294967295
-0.18095291 0.16810898 0.77999997 4294967295
-0.17949921 0.16811284 0.77999997 4294967295
-0.17827378 0.1683322 0.78100002 4294967295
-0.1768183 0.16833597 0.78100002 4294967295
-0.17536284 0.16833973 0.78100002 4294967295
-0.17479812 0.16920562 0.78500003 4294967295
-0.17333528 0.16920929 0.78500003 4294967295
-0.17231037 0.16964403 0.787 4294967295
-0.17084385 0.16964763 0.787 4294967295
-0.16980784 0.17008235 0.78899997 4294967295
-0.16833772 0.17008586 0.78899997 4294967295
-0.16707911 0.17030494 0.79000002 4294967295
-0.16560718 0.1703084 0.79000002 4294967295
-0.16413529 0.17031182 0.79000002 4294967295
-0.16266343 0.17031518 0.79000002 4294967294
-0.16159971 0.17074969 0.792 4294967295
-0.16012421 0.17075299 0.792 4294967295
-0.15864873 0.17075622 0.792 4294967295
-0.1575702 0.17119068 0.79400003 4294967295
-0.15648423 0.17162503 0.796 4294967285
-0.15539089 0.1720594 0.79799998 4294835180
-0.15429011 0.17249376 0.80000001 4294966771
-0.15318193 0.17292807 0.80199999 4294703342
-0.15168804 0.17293108 0.80199999 4294637297
-0.15038146 0.1731497 0.80299997 4294045159
-0.14925665 0.17358392 0.80500001 4294177000
-0.14812437 0.17401809 0.80699998 4294111207
-0.14662132 0.17402096 0.80699998 4293782744
-0.14547797 0.17445509 0.80900002 4293716951
-0.14468311 0.17532046 0.81300002 4293848539
-0.14316902 0.1753232 0.81300002 4293585110
-0.1420034 0.17575721 0.815 4293454044
-0.14117515 0.17662252 0.81900001 4293256409
-0.139991 0.17705646 0.82099998 4293191386
-0.13879944 0.1774904 0.82300001 4292599249
-0.13793406 0.17835562 0.82700002 4292795849
-0.13705379 0.1792208 0.83099997 4292598213
-0.13550642 0.17922328 0.83099997 4292467145
-0.13428149 0.17965707 0.833 4291546043
-0.13336782 0.18052219 0.83700001 4290032552
-0.13212436 0.1809559 0.83899999 4287401088
-0.13056225 0.18095823 0.83899999 4286550910
-0.27420276 0.17686488 0.815 4294967295
-0.27201182 0.17643681 0.81300002 4294967295
-0.26916295 0.17557465 0.80900002 4294967295
-0.26699081 0.17514645 0.80699998 4294967295
-0.2641682 0.1742841 0.80299997 4294967295
-0.26234198 0.17407283 0.80199999 4294967295
-0.25954381 0.17321034 0.79799998 4294967295
-0.25740737 0.1727819 0.796 4294967295
-0.2552785 0.1723534 0.79400003 4294967295
-0.25315711 0.17192483 0.792 4294967295
-0.25104329 0.17149623 0.79000002 4294967295
-0.24956875 0.17150171 0.79000002 4294967295
-0.24809432 0.17150719 0.79000002 4294967295
-0.24630776 0.17129552 0.78899997 4294967295
-0.24421468 0.17086671 0.787 4294967295
-0.24212913 0.17043784 0.78500003 4294967295
-0.24066424 0.17044315 0.78500003 4294967295
-0.23919937 0.17044844 0.78500003 4294967295
-0.23712894 0.17001942 0.78299999 4294967295
-0.23506597 0.16959034 0.78100002 4294967295
-0.23360878 0.16959551 0.78100002 4294967295
-0.23185436 0.16938345 0.77999997 4294967295
-0.23039913 0.16938856 0.77999997 4294967295
-0.22835696 0.16895927 0.778 4294967295
-0.22690552 0.1689643 0.778 4294967295
-0.22545418 0.16896927 0.778 4294967295
-0.2240029 0.16897424 0.778 4294967295
-0.22255163 0.16897914 0.778 4294967295
-0.22053207 0.16854961 0.77600002 4294967295
-0.21908467 0.16855447 0.77600002 4294967295
-0.21819815 0.16899368 0.778 4294967295
-0.21618995 0.16856404 0.77600002 4294967295
-0.21474265 0.16856878 0.77600002 4294967295
-0.21329543 0.16857347 0.77600002 4294967295
-0.21184826 0.16857815 0.77600002 4294967295
-0.21040112 0.16858275 0.77600002 4294967295
-0.20841549 0.16815287 0.77399999 4294967295
-0.20697214 0.16815741 0.77399999 4294967295
-0.20552886 0.16816191 0.77399999 4294967295
-0.20408568 0.16816638 0.77399999 4294967295
-0.2031661 0.16860539 0.77600002 4294967295
-0.20171922 0.16860981 0.77600002 4294967295
-0.20027238 0.16861419 0.77600002 4294967295
-0.19882558 0.16861856 0.77600002 4294967295
-0.19737887 0.16862284 0.77600002 4294967295
-0.19643714 0.16906174 0.778 4294967295
-0.19498675 0.16906597 0.778 4294967295
-0.19353639 0.16907017 0.778 4294967295
-0.1920861 0.16907436 0.778 4294967295
-0.19112587 0.16951312 0.77999997 4294967295
-0.18967192 0.16951723 0.77999997 4294967295
-0.18821804 0.1695213 0.77999997 4294967295
-0.18676414 0.16952534 0.77999997 4294967295
-0.18531033 0.16952932 0.77999997 4294967295
-0.18385653 0.16953328 0.77999997 4294967295
-0.18240279 0.1695372 0.77999997 4294967295
-0.18094908 0.16954106 0.77999997 4294967295
-0.17949539 0.16954491 0.77999997 4294967295
-0.17827003 0.16976607 0.78100002 4294967295
-0.17681457 0.16976985 0.78100002 4294967295
-0.17535914 0.16977356 0.78100002 4294967295
-0.17479445 0.17064679 0.78500003 4294967295
-0.17333165 0.17065044 0.78500003 4294967295
-0.17230678 0.17108884 0.787 4294967295
-0.17084032 0.17109244 0.787 4294967295
-0.1698043 0.17153077 0.78899997 4294967295
-0.16833425 0.17153431 0.78899997 4294967295
-0.16707566 0.17175518 0.79000002 4294967295
-0.16560377 0.17175862 0.79000002 4294967295
-0.16413192 0.17176202 0.79000002 4294967295
-0.16266011 0.17176539 0.79000002 4294967295
-0.16159642 0.17220356 0.792 4294967295
-0.16012095 0.17220682 0.792 4294967295
-0.1586455 0.17221005 0.792 4294967294
-0.15756704 0.17264815 0.79400003 4294967295
-0.1564811 0.17308618 0.796 4294967287
-0.15538777 0.1735242 0.79799998 4294966511
-0.15428704 0.17396221 0.80000001 4294967285
-0.15317889 0.17440015 0.80199999 4294440940
-0.15168506 0.17440318 0.80199999 4294505449
-0.15019125 0.17440613 0.80199999 4294307814
-0.1488829 0.17462653 0.80299997 4294307814
-0.14775442 0.17506437 0.80500001 4294176485
-0.14625514 0.1750672 0.80500001 4293651935
-0.14547519 0.17593993 0.80900002 4293783777
-0.14432444 0.17637765 0.81099999 4294046434
-0.1431663 0.17681536 0.81300002 4293585883
-0.14165229 0.17681806 0.81300002 4293322972
-0.14117251 0.17812565 0.81900001 4293125593
-0.13998838 0.17856325 0.82099998 4293322972
-0.13879688 0.17900084 0.82300001 4292796628
-0.13793153 0.17987338 0.82700002 4293058764
-0.1370513 0.18074588 0.83099997 4292664006
-0.13550399 0.18074836 0.83099997 4292729804
-0.13427909 0.18118581 0.833 4291545530
-0.13304679 0.18162322 0.83499998 4288459909
-0.1318071 0.18206057 0.83700001 4288722825
-0.13024876 0.18206288 0.83700001 4290037201
-0.27352399 0.17792454 0.81300002 4294967295
-0.27066764 0.17705506 0.80900002 4294967295
-0.26849169 0.17662321 0.80699998 4294967295
-0.26632336 0.17619132 0.80500001 4294967295
-0.26416245 0.17575933 0.80299997 4294967295
-0.26168206 0.17510842 0.80000001 4294967295
-0.25953814 0.17467633 0.79799998 4294967295
-0.25740176 0.17424421 0.796 4294967295
-0.25527292 0.173812 0.79400003 4294967295
-0.2531516 0.17337972 0.792 4294967295
-0.25103778 0.17294741 0.79000002 4294967295
-0.24924742 0.17273398 0.78899997 4294967295
-0.24777482 0.17273942 0.78899997 4294967295
-0.24567802 0.17230694 0.787 4294967295
-0.24420935 0.17231232 0.787 4294967295
-0.24212381 0.17187975 0.78500003 4294967295
-0.24004585 0.17144711 0.78299999 4294967295
-0.23858476 0.17145236 0.78299999 4294967295
-0.23651807 0.17101964 0.78100002 4294967295
-0.23475987 0.17080583 0.77999997 4294967295
-0.23330453 0.17081095 0.77999997 4294967295
-0.2318493 0.17081606 0.77999997 4294967295
-0.22980332 0.17038313 0.778 4294967295
-0.22776492 0.16995016 0.77600002 4294967295
-0.2263173 0.16995512 0.77600002 4294967295
-0.2248697 0.16996008 0.77600002 4294967295
-0.22342218 0.16996498 0.77600002 4294967295
-0.22197469 0.16996987 0.77600002 4294967295
-0.22052726 0.16997474 0.77600002 4294967295
-0.21907988 0.16997954 0.77600002 4294967295
-0.21763253 0.16998433 0.77600002 4294967295
-0.21618521 0.16998908 0.77600002 4294967295
-0.21473798 0.16999379 0.77600002 4294967295
-0.21329081 0.16999848 0.77600002 4294967295
-0.21184364 0.17000312 0.77600002 4294967295
-0.21039651 0.17000774 0.77600002 4294967295
-0.20841092 0.16957414 0.77399999 4294967295
-0.20696764 0.16957866 0.77399999 4294967295
-0.20552441 0.16958316 0.77399999 4294967295
-0.20408124 0.16958763 0.77399999 4294967295
-0.20316167 0.17003028 0.77600002 4294967295
-0.20119496 0.16959643 0.77399999 4294967295
-0.1997519 0.16960078 0.77399999 4294967295
-0.19830887 0.16960511 0.77399999 4294967295
-0.19686589 0.16960938 0.77399999 4294967295
-0.19592793 0.17005192 0.77600002 4294967295
-0.19448131 0.17005613 0.77600002 4294967295
-0.19353223 0.17049859 0.778 4294967295
-0.19208196 0.17050275 0.778 4294967295
-0.19063175 0.17050686 0.778 4294967295
-0.18966788 0.17094927 0.77999997 4294967295
-0.188214 0.17095332 0.77999997 4294967295
-0.18676017 0.17095734 0.77999997 4294967295
-0.18530639 0.17096132 0.77999997 4294967295
-0.18385264 0.17096525 0.77999997 4294967295
-0.18239892 0.17096914 0.77999997 4294967295
-0.18094525 0.170973 0.77999997 4294967295
-0.17949161 0.17097682 0.77999997 4294967295
-0.17826627 0.1711998 0.78100002 4294967295
-0.17726365 0.17164199 0.78299999 4294967295
-0.17580453 0.17164569 0.78299999 4294967295
-0.17479081 0.1720878 0.78500003 4294967295
-0.17332804 0.17209145 0.78500003 4294967295
-0.17230318 0.1725335 0.787 4294967295
-0.17083676 0.17253707 0.787 4294967294
-0.1693704 0.17254061 0.787 4294967295
-0.16833077 0.17298259 0.78899997 4294967295
-0.16686076 0.17298605 0.78899997 4294967295
-0.16539076 0.17298944 0.78899997 4294967295
-0.16392082 0.17299283 0.78899997 4294967295
-0.16265678 0.17321542 0.79000002 4294967293
-0.16118509 0.17321873 0.79000002 4294967295
-0.15971339 0.17322199 0.79000002 4294967295
-0.15864232 0.17366372 0.792 4294967290
-0.15756388 0.17410547 0.79400003 4294967287
-0.15608482 0.17410861 0.79400003 4294967286
-0.15538472 0.17498882 0.79799998 4294703855
-0.15428402 0.17543048 0.80000001 4294769650
-0.15279388 0.17543352 0.80000001 4293980135
-0.15168208 0.1758751 0.80199999 4294243041
-0.15018833 0.17587803 0.80199999 4294111455
-0.14869462 0.17588095 0.80199999 4293913310
-0.14738448 0.17610313 0.80299997 4293979103
-0.14588897 0.17610595 0.80299997 4293914343
-0.14511278 0.17698598 0.80699998 4294045930
-0.14396581 0.17742737 0.80900002 4294111706
-0.14245924 0.17743009 0.80900002 4293651155
-0.14095269 0.17743275 0.80900002 4293519838
-0.14082514 0.17918997 0.81699997 4293059287
-0.13998581 0.18006988 0.82099998 4293125078
-0.13879435 0.18051113 0.82300001 4292993491
-0.13792904 0.18139099 0.82700002 4293058766
-0.13704884 0.18227082 0.83099997 4292664008
-0.13550156 0.18227327 0.83099997 4292532938
-0.1342767 0.18271437 0.833 4291217335
-0.13304447 0.18315542 0.83499998 4290167722
-0.13148986 0.18315776 0.83499998 4294770672
-0.12993529 0.18316002 0.83499998 4294967295
-0.27149948 0.17809401 0.80699998 4294967295
-0.26999265 0.17809986 0.80699998 4294967295
-0.26848587 0.17810571 0.80699998 4294967295
-0.26565588 0.17722867 0.80299997 4294967295
-0.2638278 0.17701371 0.80199999 4294967295
-0.2616764 0.17657797 0.80000001 4294967295
-0.25953254 0.1761422 0.79799998 4294967295
-0.25674945 0.17526489 0.79400003 4294967295
-0.25462437 0.17482898 0.792 4294967295
-0.25314608 0.1748345 0.792 4294967295
-0.25103235 0.17439848 0.79000002 4294967295
-0.24924199 0.17418317 0.78899997 4294967295
-0.24776946 0.17418861 0.78899997 4294967295
-0.2456727 0.17375244 0.787 4294967295
-0.24358344 0.17331624 0.78500003 4294967295
-0.2415017 0.17287995 0.78299999 4294967295
-0.23942749 0.17244361 0.78100002 4294967295
-0.23797016 0.17244881 0.78100002 4294967295
-0.23621008 0.17223318 0.77999997 4294967295
-0.23475477 0.17223835 0.77999997 4294967295
-0.23270124 0.17180179 0.778 4294967295
-0.23124979 0.17180689 0.778 4294967295
-0.22920761 0.17137024 0.77600002 4294967295
-0.22775997 0.17137524 0.77600002 4294967295
-0.22631235 0.17138019 0.77600002 4294967295
-0.22486481 0.17138514 0.77600002 4294967295
-0.22341733 0.17139003 0.77600002 4294967295
-0.22196986 0.17139487 0.77600002 4294967295
-0.21995409 0.17095795 0.77399999 4294967295
-0.21851046 0.17096272 0.77399999 4294967295
-0.21762776 0.17140926 0.77600002 4294967295
-0.21618055 0.17141402 0.77600002 4294967295
-0.21473333 0.17141871 0.77600002 4294967295
-0.21328618 0.17142338 0.77600002 4294967295
-0.21183908 0.17142799 0.77600002 4294967295
-0.21039198 0.17143258 0.77600002 4294967295
-0.20840642 0.1709953 0.77399999 4294967295
-0.20696314 0.1709998 0.77399999 4294967295
-0.20551996 0.17100428 0.77399999 4294967295
-0.20407681 0.17100871 0.77399999 4294967295
-0.20263368 0.17101312 0.77399999 4294967295
-0.20119061 0.17101748 0.77399999 4294967295
-0.19974758 0.17102183 0.77399999 4294967295
-0.19830459 0.17102613 0.77399999 4294967295
-0.19686168 0.17103039 0.77399999 4294967295
-0.19592375 0.17147657 0.77600002 4294967295
-0.19447716 0.17148076 0.77600002 4294967295
-0.1935281 0.1719269 0.778 4294967295
-0.19207786 0.17193103 0.778 4294967295
-0.19062766 0.17193513 0.778 4294967295
-0.18917751 0.17193918 0.778 4294967295
-0.18821003 0.17238523 0.77999997 4294967295
-0.18675622 0.17238922 0.77999997 4294967295
-0.18530247 0.17239317 0.77999997 4294967295
-0.18384874 0.17239709 0.77999997 4294967295
-0.18239507 0.17240097 0.77999997 4294967295
-0.1804775 0.17196275 0.778 4294967295
-0.17902762 0.17196654 0.778 4294967295
-0.17803429 0.17241238 0.77999997 4294967295
-0.17725994 0.17307924 0.78299999 4294967295
-0.17580085 0.17308293 0.78299999 4294967295
-0.17478716 0.17352872 0.78500003 4294967295
-0.17332445 0.17353235 0.78500003 4294967295
-0.17229961 0.17397803 0.787 4294967295
-0.17083326 0.17398161 0.787 4294967295
-0.16936693 0.17398511 0.787 4294967295
-0.16832732 0.17443074 0.78899997 4294967295
-0.16685735 0.17443419 0.78899997 4294967294
-0.16538739 0.17443758 0.78899997 4294967294
-0.16391748 0.17444094 0.78899997 4294967292
-0.16244762 0.17444424 0.78899997 4294967291
-0.1609778 0.17444752 0.78899997 4294967295
-0.15971018 0.17467187 0.79000002 4294967295
-0.15823856 0.17467506 0.79000002 4294967287
-0.15716386 0.17512043 0.792 4294967285
-0.15608175 0.17556579 0.79400003 4294967289
-0.15499222 0.1760111 0.796 4294638580
-0.15389526 0.17645638 0.79799998 4294573041
-0.15279092 0.17690167 0.80000001 4294178283
-0.15167913 0.17734689 0.80199999 4294244326
-0.15018541 0.17734981 0.80199999 4293783775
-0.14869176 0.17735273 0.80199999 4293584597
-0.14738165 0.17757669 0.80299997 4293716184
-0.1458862 0.17757951 0.80299997 4293979103
-0.14511003 0.17846687 0.80699998 4293847517
-0.1439631 0.17891189 0.80900002 4293716697
-0.14245658 0.17891461 0.80900002 4293650904
-0.14095008 0.17891724 0.80900002 4293585631
-0.14047781 0.1802468 0.815 4293125080
-0.13998325 0.18157637 0.82099998 4293190101
-0.13845451 0.1815789 0.82099998 4293058514
-0.13859364 0.18379314 0.83099997 4292927698
-0.13704638 0.18379562 0.83099997 4292664527
-0.13582526 0.18424042 0.833 4292795595
-0.13427435 0.18424281 0.833 4291216562
-0.13304214 0.18468751 0.83499998 4290428836
-0.13148759 0.18468982 0.83499998 4294967283
-0.12993306 0.18469207 0.83499998 4294967295
-0.27082077 0.17913137 0.80500001 4294967295
-0.26931775 0.1791372 0.80500001 4294967295
-0.26781476 0.179143 0.80500001 4294967295
-0.26565018 0.17870368 0.80299997 4294967295
-0.26382214 0.17848687 0.80199999 4294967295
-0.26167077 0.17804743 0.80000001 4294967295
-0.25952694 0.17760794 0.79799998 4294967295
-0.25674391 0.17672327 0.79400003 4294967295
-0.25461885 0.17628366 0.792 4294967295
-0.25250137 0.175844 0.79000002 4294967295
-0.2510269 0.17584945 0.79000002 4294967295
-0.24923658 0.17563228 0.78899997 4294967295
-0.24776408 0.17563768 0.78899997 4294967295
-0.24504307 0.17475258 0.78500003 4294967295
-0.24295759 0.17431265 0.78299999 4294967295
-0.24087961 0.17387269 0.78100002 4294967295
-0.2391157 0.17365526 0.77999997 4294967295
-0.23766029 0.17366044 0.77999997 4294967295
-0.23559931 0.17322031 0.778 4294967295
-0.23414776 0.1732254 0.778 4294967295
-0.23269622 0.1732305 0.778 4294967295
-0.23124476 0.17323557 0.778 4294967295
-0.22920263 0.17279524 0.77600002 4294967295
-0.22775501 0.1728002 0.77600002 4294967295
-0.22630745 0.17280513 0.77600002 4294967295
-0.22485994 0.17281003 0.77600002 4294967295
-0.22341244 0.17281491 0.77600002 4294967295
-0.22196504 0.17281978 0.77600002 4294967295
-0.21994931 0.17237915 0.77399999 4294967295
-0.21850576 0.17238392 0.77399999 4294967295
-0.21762307 0.1728341 0.77600002 4294967295
-0.21617587 0.17283881 0.77600002 4294967295
-0.21472868 0.17284347 0.77600002 4294967295
-0.21328153 0.17284811 0.77600002 4294967295
-0.2112885 0.17240722 0.77399999 4294967295
-0.20984519 0.17241178 0.77399999 4294967295
-0.2081327 0.17219356 0.773 4294967295
-0.20669131 0.17219804 0.773 4294967295
-0.20525002 0.1722025 0.773 4294967295
-0.20380877 0.17220692 0.773 4294967295
-0.20262934 0.17243409 0.77399999 4294967295
-0.20092641 0.17221564 0.773 4294967295
-0.19948523 0.17221995 0.773 4294967295
-0.19830038 0.17244701 0.77399999 4294967295
-0.19685747 0.17245126 0.77399999 4294967295
-0.19591956 0.17290109 0.77600002 4294967295
-0.194473 0.17290528 0.77600002 4294967295
-0.1930265 0.17290942 0.77600002 4294967295
-0.19158003 0.17291352 0.77600002 4294967295
-0.19062363 0.17336325 0.778 4294967295
-0.18917352 0.17336731 0.778 4294967295
-0.18772344 0.17337129 0.778 4294967295
-0.18675226 0.17382096 0.77999997 4294967295
-0.18529855 0.17382489 0.77999997 4294967295
-0.18337348 0.17338309 0.778 4294967295
-0.18192357 0.17338695 0.778 4294967295
-0.18047372 0.17339076 0.778 4294967295
-0.17902388 0.17339452 0.778 4294967295
-0.17803057 0.17384401 0.77999997 4294967295
-0.17657709 0.17384772 0.77999997 4294967295
-0.17512365 0.17385137 0.77999997 4294967295
-0.17478354 0.17496946 0.78500003 4294967295
-0.17332087 0.17497309 0.78500003 4294967295
-0.17229606 0.17542243 0.787 4294967295
-0.17082974 0.17542599 0.787 4294967295
-0.16936345 0.17542946 0.787 4294967295
-0.16789722 0.17543294 0.787 4294967295
-0.16685395 0.17588218 0.78899997 4294967295
-0.16538404 0.17588556 0.78899997 4294967294
-0.16391417 0.1758889 0.78899997 4294967295
-0.16244435 0.1758922 0.78899997 4294967294
-0.16097458 0.17589545 0.78899997 4294967292
-0.15970699 0.17612162 0.79000002 4294967291
-0.15823542 0.1761248 0.79000002 4294967288
-0.15716074 0.17657381 0.792 4294901748
-0.15607867 0.17702281 0.79400003 4294243826
-0.15498917 0.17747179 0.796 4294112240
-0.15389226 0.17792073 0.79799998 4294176998
-0.15278794 0.17836966 0.80000001 4294045411
-0.15129796 0.17837261 0.80000001 4293979868
-0.15018253 0.17882144 0.80199999 4293848539
-0.1486889 0.17882432 0.80199999 4293650138
-0.14719531 0.17882718 0.80199999 4293584345
-0.14570177 0.17882997 0.80199999 4293518552
-0.14438805 0.17905568 0.80299997 4293255637
-0.1436045 0.17995033 0.80699998 4293256663
-0.14210176 0.17995299 0.80699998 4293125078
-0.14094749 0.18040161 0.80900002 4293321943
-0.14013053 0.18129617 0.81300002 4292861392
-0.13929871 0.18219073 0.81699997 4292992206
-0.13845202 0.18308526 0.82099998 4292202946
-0.13859116 0.18531778 0.83099997 4292597965
-0.13704395 0.18532026 0.83099997 4292663758
-0.13582288 0.18576869 0.833 4292467384
-0.13427201 0.18577106 0.833 4290888352
-0.13272117 0.1857734 0.833 4291019186
-0.13117039 0.1857757 0.833 4294967295
-0.12961964 0.18577792 0.833 4294967295
-0.27299464 0.18105289 0.80699998 4294967295
-0.27081499 0.18061003 0.80500001 4294967295
-0.26931196 0.1806158 0.80500001 4294967295
-0.26780897 0.18062158 0.80500001 4294967295
-0.26531368 0.17995419 0.80199999 4294967295
-0.26315856 0.17951111 0.80000001 4294967295
-0.26101094 0.17906797 0.79799998 4294967295
-0.25952134 0.17907359 0.79799998 4294967295
-0.25609168 0.17773271 0.792 4294967295
-0.25397044 0.1772894 0.79000002 4294967295
-0.25249594 0.17729485 0.79000002 4294967295
-0.25070372 0.17707588 0.78899997 4294967295
-0.24923122 0.17708129 0.78899997 4294967295
-0.24713075 0.17663777 0.787 4294967295
-0.24503778 0.17619419 0.78500003 4294967295
-0.24295232 0.17575055 0.78299999 4294967295
-0.24056599 0.17508242 0.77999997 4294967295
-0.23911057 0.1750876 0.77999997 4294967295
-0.23765515 0.17509276 0.77999997 4294967295
-0.23559421 0.17464893 0.778 4294967295
-0.23414269 0.17465404 0.778 4294967295
-0.23269118 0.17465909 0.778 4294967295
-0.23123977 0.17466412 0.778 4294967295
-0.22919768 0.1742201 0.77600002 4294967295
-0.22775009 0.17422505 0.77600002 4294967295
-0.22630258 0.17422995 0.77600002 4294967295
-0.22485505 0.17423485 0.77600002 4294967295
-0.22340763 0.17423971 0.77600002 4294967295
-0.22196025 0.17424454 0.77600002 4294967295
-0.21994458 0.17380022 0.77399999 4294967295
-0.21850102 0.17380494 0.77399999 4294967295
-0.2170575 0.17380968 0.77399999 4294967295
-0.21617121 0.17426349 0.77600002 4294967295
-0.21472403 0.17426813 0.77600002 4294967295
-0.21327695 0.17427276 0.77600002 4294967295
-0.21128397 0.17382818 0.77399999 4294967295
-0.20956957 0.17360814 0.773 4294967295
-0.20812823 0.17361264 0.773 4294967295
-0.2066869 0.17361711 0.773 4294967295
-0.2052456 0.17362152 0.773 4294967295
-0.20380442 0.17362593 0.773 4294967295
-0.20236322 0.1736303 0.773 4294967295
-0.20092206 0.17363462 0.773 4294967295
-0.19948098 0.17363892 0.773 4294967295
-0.19803993 0.17364317 0.773 4294967295
-0.19659895 0.17364737 0.773 4294967295
-0.19591537 0.1743255 0.77600002 4294967295
-0.19446887 0.17432967 0.77600002 4294967295
-0.1930224 0.1743338 0.77600002 4294967295
-0.19157596 0.17433788 0.77600002 4294967295
-0.19012958 0.17434193 0.77600002 4294967295
-0.18916953 0.1747953 0.778 4294967295
-0.18771949 0.17479926 0.778 4294967295
-0.18626949 0.17480323 0.778 4294967295
-0.18481955 0.17480713 0.778 4294967295
-0.18336965 0.17481102 0.778 4294967295
-0.18191975 0.17481484 0.778 4294967295
-0.18046995 0.17481863 0.778 4294967295
-0.17902015 0.17482239 0.778 4294967295
-0.17802688 0.17527553 0.77999997 4294967295
-0.17657344 0.17527921 0.77999997 4294967295
-0.17512004 0.17528287 0.77999997 4294967295
-0.17433463 0.17596066 0.78299999 4294967295
-0.17331731 0.1764137 0.78500003 4294967295
-0.17185472 0.17641726 0.78500003 4294967295
-0.17082626 0.17687024 0.787 4294967295
-0.16936 0.17687371 0.787 4294967295
-0.16789381 0.17687717 0.787 4294967294
-0.16685057 0.17733005 0.78899997 4294967289
-0.1653807 0.17733341 0.78899997 4294967292
-0.16391088 0.17733675 0.78899997 4294967295
-0.1624411 0.17734003 0.78899997 4294967295
-0.16097137 0.17734325 0.78899997 4294967292
-0.15950166 0.17734645 0.78899997 4294967292
-0.15823227 0.1775744 0.79000002 4294967291
-0.15715764 0.17802709 0.792 4294836211
-0.15568246 0.17803016 0.792 4294046182
-0.15459673 0.17848277 0.79400003 4293980389
-0.15350358 0.17893536 0.796 4294045148
-0.15202105 0.17893833 0.796 4293847769
-0.15129505 0.17984048 0.80000001 4293847769
-0.14980517 0.17984335 0.80000001 4293847769
-0.14868608 0.18029581 0.80199999 4293584858
-0.14719252 0.18029864 0.80199999 4293650652
-0.14569904 0.18030141 0.80199999 4293650654
-0.14438535 0.18052895 0.80299997 4293255896
-0.14360183 0.18143092 0.80699998 4293256663
-0.14209913 0.18143357 0.80699998 4293256663
-0.14094491 0.18188584 0.80900002 4293125078
-0.14012797 0.18278773 0.81300002 4292927698
-0.13929619 0.18368959 0.81699997 4293189587
-0.137775 0.18369211 0.81699997 4292597450
-0.13858868 0.18684231 0.83099997 4292663497
-0.13704152 0.18684475 0.83099997 4292531655
-0.13549438 0.18684717 0.83099997 4291809204
-0.13394728 0.18684952 0.83099997 4290953895
-0.13271888 0.18730155 0.833 4291543463
-0.13116816 0.1873038 0.833 4294967279
-0.12961745 0.18730603 0.833 4294967295
-0.27231231 0.18208274 0.80500001 4294967295
-0.27080923 0.18208852 0.80500001 4294967295
-0.26930624 0.18209429 0.80500001 4294967295
-0.26780328 0.18210004 0.80500001 4294967295
-0.26464638 0.18097468 0.80000001 4294967295
-0.26315293 0.18098032 0.80000001 4294967295
-0.26100534 0.18053348 0.79799998 4294967295
-0.25756454 0.17918164 0.792 4294967295
-0.2560862 0.17918716 0.792 4294967295
-0.25396496 0.17874016 0.79000002 4294967295
-0.25249055 0.1787456 0.79000002 4294967295
-0.25069836 0.17852473 0.78899997 4294967295
-0.24859416 0.17807759 0.787 4294967295
-0.24649741 0.17763036 0.78500003 4294967295
-0.24440822 0.17718306 0.78299999 4294967295
-0.24232656 0.17673574 0.78100002 4294967295
-0.2405608 0.17651464 0.77999997 4294967295
-0.23849232 0.1760672 0.778 4294967295
-0.23704071 0.17607233 0.778 4294967295
-0.23558916 0.17607744 0.778 4294967295
-0.23413765 0.17608251 0.778 4294967295
-0.23268619 0.17608754 0.778 4294967295
-0.23064038 0.17563987 0.77600002 4294967295
-0.22919275 0.17564483 0.77600002 4294967295
-0.22774521 0.17564976 0.77600002 4294967295
-0.22629769 0.17565465 0.77600002 4294967295
-0.22485022 0.17565952 0.77600002 4294967295
-0.22340284 0.17566437 0.77600002 4294967295
-0.22195546 0.17566916 0.77600002 4294967295
-0.21993986 0.17522115 0.77399999 4294967295
-0.21849632 0.17522585 0.77399999 4294967295
-0.21705288 0.17523056 0.77399999 4294967295
-0.21560943 0.17523523 0.77399999 4294967295
-0.21416602 0.17523983 0.77399999 4294967295
-0.21272272 0.17524444 0.77399999 4294967295
-0.21127944 0.175249 0.77399999 4294967295
-0.20956507 0.17502709 0.773 4294967295
-0.20812376 0.17503157 0.773 4294967295
-0.20668246 0.17503603 0.773 4294967295
-0.20524125 0.17504044 0.773 4294967295
-0.20327276 0.17459191 0.77100003 4294967295
-0.20183535 0.17459625 0.77100003 4294967295
-0.20039798 0.17460054 0.77100003 4294967295
-0.19896065 0.17460482 0.77100003 4294967295
-0.19803575 0.17506196 0.773 4294967295
-0.19659477 0.17506616 0.773 4294967295
-0.1954063 0.17529681 0.77399999 4294967295
-0.19446476 0.17575392 0.77600002 4294967295
-0.19301832 0.17575802 0.77600002 4294967295
-0.19157194 0.1757621 0.77600002 4294967295
-0.19012558 0.17576614 0.77600002 4294967295
-0.18916553 0.17622313 0.778 4294967295
-0.18771556 0.17622711 0.778 4294967295
-0.18626559 0.17623103 0.778 4294967295
-0.18481569 0.17623493 0.778 4294967295
-0.18336582 0.17623879 0.778 4294967295
-0.18191598 0.1762426 0.778 4294967295
-0.18046619 0.17624637 0.778 4294967295
-0.17901644 0.17625012 0.778 4294967295
-0.1780232 0.17670691 0.77999997 4294967295
-0.1765698 0.17671058 0.77999997 4294967295
-0.17534097 0.17694078 0.78100002 4294967295
-0.17433107 0.17739749 0.78299999 4294967295
-0.1728722 0.17740104 0.78299999 4294967294
-0.17185122 0.17785773 0.78500003 4294967295
-0.17038868 0.17786121 0.78500003 4294967295
-0.16935658 0.17831782 0.787 4294967292
-0.16789043 0.17832123 0.787 4294967285
-0.16642427 0.17832461 0.787 4294967288
-0.16495818 0.17832795 0.787 4294835957
-0.16349214 0.17833126 0.787 4294967288
-0.16202612 0.1783345 0.787 4294704627
-0.16056016 0.17833772 0.787 4294704629
-0.1594985 0.1787941 0.78899997 4294441201
-0.15822916 0.17902386 0.79000002 4294769900
-0.15715456 0.1794802 0.792 4294769900
-0.15567942 0.17948325 0.792 4294505701
-0.15459374 0.17993954 0.79400003 4294110943
-0.15311494 0.17994252 0.79400003 4293650644
-0.15201813 0.18039872 0.796 4293650644
-0.1505357 0.18040165 0.796 4293716184
-0.14942779 0.18085776 0.79799998 4293716184
-0.14831249 0.18131387 0.80000001 4293650392
-0.14718978 0.18176997 0.80199999 4293847515
-0.1456963 0.18177271 0.80199999 4293650654
-0.14474228 0.18245538 0.80500001 4293124309
-0.14359917 0.18291135 0.80699998 4293321939
-0.14244869 0.18336733 0.80900002 4293519317
-0.14094234 0.18336992 0.80900002 4293124559
-0.14012545 0.18427914 0.81300002 4292729802
-0.1389527 0.18473499 0.815 4292926413
-0.13810982 0.18564415 0.81900001 4292597448
-0.13658501 0.18564661 0.81900001 4292597448
-0.13703912 0.18836911 0.83099997 4292465862
-0.13549203 0.18837149 0.83099997 4292335032
-0.13394499 0.18837385 0.83099997 4291282344
-0.13271663 0.18882951 0.833 4291543463
-0.13116594 0.18883175 0.833 4293780425
-0.27312937 0.1830993 0.80299997 4294967295
-0.2712917 0.18287705 0.80199999 4294967295
-0.26979429 0.18288282 0.80199999 4294967295
-0.2682969 0.18288854 0.80199999 4294967295
-0.2667996 0.18289423 0.80199999 4294967295
-0.26464078 0.1824438 0.80000001 4294967295
-0.26248947 0.18199329 0.79799998 4294967295
-0.2603457 0.18154275 0.796 4294967295
-0.25755906 0.180636 0.792 4294967295
-0.25543407 0.18018535 0.79000002 4294967295
-0.25363812 0.17996269 0.78899997 4294967295
-0.25216553 0.1799681 0.78899997 4294967295
-0.25005752 0.1795173 0.787 4294967295
-0.24795711 0.17906643 0.78500003 4294967295
-0.24586411 0.17861548 0.78299999 4294967295
-0.24440297 0.17862074 0.78299999 4294967295
-0.24201109 0.17794156 0.77999997 4294967295
-0.23993884 0.17749049 0.778 4294967295
-0.23848724 0.17749561 0.778 4294967295
-0.23703563 0.17750072 0.778 4294967295
-0.23558411 0.17750581 0.778 4294967295
-0.23353074 0.17705452 0.77600002 4294967295
-0.23208307 0.17705953 0.77600002 4294967295
-0.23063546 0.17706449 0.77600002 4294967295
-0.22918785 0.17706944 0.77600002 4294967295
-0.22774033 0.17707434 0.77600002 4294967295
-0.22629286 0.17707922 0.77600002 4294967295
-0.22484541 0.17708406 0.77600002 4294967295
-0.22282228 0.17663246 0.77399999 4294967295
-0.22137868 0.17663723 0.77399999 4294967295
-0.21993516 0.17664197 0.77399999 4294967295
-0.2182094 0.17641847 0.773 4294967295
-0.21676777 0.1764231 0.773 4294967295
-0.21532625 0.17642775 0.773 4294967295
-0.21388476 0.17643234 0.773 4294967295
-0.21244335 0.17643689 0.773 4294967295
-0.21100198 0.17644143 0.773 4294967295
-0.20956062 0.17644592 0.773 4294967295
-0.20811933 0.17645039 0.773 4294967295
-0.20667808 0.17645481 0.773 4294967295
-0.20523688 0.17645921 0.773 4294967295
-0.20326845 0.176007 0.77100003 4294967295
-0.20183104 0.17601134 0.77100003 4294967295
-0.20039375 0.17601562 0.77100003 4294967295
-0.19895644 0.17601985 0.77100003 4294967295
-0.19803156 0.17648064 0.773 4294967295
-0.19659062 0.17648482 0.773 4294967295
-0.19540218 0.17671728 0.77399999 4294967295
-0.19395947 0.17672139 0.77399999 4294967295
-0.19301426 0.17718214 0.77600002 4294967295
-0.19156791 0.17718621 0.77600002 4294967295
-0.19012159 0.1771902 0.77600002 4294967295
-0.18916158 0.17765085 0.778 4294967295
-0.18771164 0.17765483 0.778 4294967295
-0.18626174 0.17765874 0.778 4294967295
-0.18481186 0.1776626 0.778 4294967295
-0.18336201 0.17766643 0.778 4294967295
-0.18191223 0.17767023 0.778 4294967295
-0.18046248 0.17767398 0.778 4294967295
-0.17901278 0.17767771 0.778 4294967295
-0.17801954 0.17813815 0.77999997 4294967295
-0.1765662 0.17814179 0.77999997 4294967295
-0.17533737 0.17837381 0.78100002 4294967295
-0.17432749 0.17883417 0.78299999 4294967295
-0.17286868 0.17883773 0.78299999 4294967295
-0.17140988 0.17884123 0.78299999 4294967294
-0.17038523 0.17930152 0.78500003 4294967295
-0.16892281 0.17930496 0.78500003 4294967292
-0.1674604 0.17930834 0.78500003 4294836211
-0.16642095 0.17976855 0.787 4294901748
-0.1649549 0.17977186 0.787 4294967285
-0.16348889 0.17977515 0.787 4294967289
-0.1620229 0.17977838 0.787 4294704629
-0.16055699 0.17978157 0.787 4294967289
-0.15949537 0.18024161 0.78899997 4294572787
-0.15802579 0.18024474 0.78899997 4294769900
-0.15675467 0.18047626 0.79000002 4294769900
-0.15567641 0.18093622 0.792 4294769137
-0.15459077 0.18139614 0.79400003 4293979364
-0.15311201 0.18139912 0.79400003 4293716188
-0.15201524 0.18185896 0.796 4293716188
-0.15053283 0.18186185 0.796 4293584860
-0.14942497 0.18232165 0.79799998 4293321689
-0.14830971 0.18278141 0.80000001 4293255637
-0.14681996 0.18278418 0.80000001 4293255637
-0.14569359 0.1832439 0.80199999 4293124307
-0.14438 0.18347505 0.80299997 4293058514
-0.14359654 0.18439166 0.80699998 4293124307
-0.1424461 0.18485127 0.80900002 4293058514
-0.14093977 0.18485385 0.80900002 4292795599
-0.14012292 0.18577039 0.81300002 4292663756
-0.13895023 0.18622988 0.815 4292466632
-0.13777012 0.18668938 0.81699997 4292466632
-0.13658261 0.18714881 0.81900001 4292335557
-0.13703673 0.18989332 0.83099997 4292204228
-0.13548969 0.18989569 0.83099997 4292466112
-0.13394271 0.189898 0.83099997 4291479217
-0.13239573 0.18990026 0.83099997 4291478440
-0.27312362 0.18457395 0.80299997 4294967295
-0.27128601 0.18434983 0.80199999 4294967295
-0.26978856 0.18435556 0.80199999 4294967295
-0.2676222 0.18390152 0.80000001 4294967295
-0.26612863 0.18390718 0.80000001 4294967295
-0.26463518 0.18391281 0.80000001 4294967295
-0.26248392 0.18345861 0.79799998 4294967295
-0.26034021 0.18300439 0.796 4294967295
-0.25820398 0.18255007 0.79400003 4294967295
-0.25542867 0.1816359 0.79000002 4294967295
-0.25363272 0.18141137 0.78899997 4294967295
-0.25216019 0.18141678 0.78899997 4294967295
-0.24941675 0.18050238 0.78500003 4294967295
-0.24795182 0.1805077 0.78500003 4294967295
-0.24585888 0.18005306 0.78299999 4294967295
-0.24439777 0.18005827 0.78299999 4294967295
-0.24200594 0.17937359 0.77999997 4294967295
-0.23993374 0.17891881 0.778 4294967295
-0.23848215 0.17892393 0.778 4294967295
-0.23642124 0.17846903 0.77600002 4294967295
-0.23497351 0.17847408 0.77600002 4294967295
-0.23352577 0.17847909 0.77600002 4294967295
-0.23207812 0.17848408 0.77600002 4294967295
-0.23063053 0.17848901 0.77600002 4294967295
-0.22918297 0.17849395 0.77600002 4294967295
-0.22773547 0.17849882 0.77600002 4294967295
-0.22628805 0.17850369 0.77600002 4294967295
-0.22484063 0.17850851 0.77600002 4294967295
-0.22281753 0.1780532 0.77399999 4294967295
-0.22137399 0.17805795 0.77399999 4294967295
-0.21964632 0.17783262 0.773 4294967295
-0.21764019 0.17737716 0.77100003 4294967295
-0.21620236 0.17738181 0.77100003 4294967295
-0.21476458 0.1773864 0.77100003 4294967295
-0.21388023 0.17785113 0.773 4294967295
-0.21243881 0.17785566 0.773 4294967295
-0.21099749 0.17786017 0.773 4294967295
-0.20955619 0.17786466 0.773 4294967295
-0.20811494 0.1778691 0.773 4294967295
-0.20667373 0.17787351 0.773 4294967295
-0.20523255 0.17787787 0.773 4294967295
-0.20326413 0.17742197 0.77100003 4294967295
-0.2018268 0.17742628 0.77100003 4294967295
-0.2003895 0.17743053 0.77100003 4294967295
-0.19895223 0.17743476 0.77100003 4294967295
-0.19802739 0.17789921 0.773 4294967295
-0.1965865 0.17790335 0.773 4294967295
-0.19539809 0.17813765 0.77399999 4294967295
-0.19395541 0.17814174 0.77399999 4294967295
-0.19251278 0.1781458 0.77399999 4294967295
-0.19205762 0.17907049 0.778 4294967295
-0.19060762 0.1790745 0.778 4294967295
-0.18915765 0.17907846 0.778 4294967295
-0.18770775 0.17908239 0.778 4294967295
-0.18625787 0.17908628 0.778 4294967295
-0.18480803 0.17909014 0.778 4294967295
-0.18335824 0.17909396 0.778 4294967295
-0.18190849 0.17909774 0.778 4294967295
-0.18045875 0.17910147 0.778 4294967295
-0.17900909 0.17910519 0.778 4294967295
-0.1780159 0.17956927 0.77999997 4294967290
-0.17656258 0.17957291 0.77999997 4294967294
-0.17533381 0.17980672 0.78100002 4294967295
-0.17432396 0.18027075 0.78299999 4294967295
-0.17286517 0.18027426 0.78299999 4294375406
-0.17140643 0.18027776 0.78299999 4294967292
-0.16994771 0.18028121 0.78299999 4294967292
-0.16848904 0.18028463 0.78299999 4294967283
-0.16745704 0.18074851 0.78500003 4294309351
-0.16599472 0.18075183 0.78500003 4294704879
-0.16453245 0.18075512 0.78500003 4294836209
-0.16307019 0.18075837 0.78500003 4294901491
-0.16201971 0.18122214 0.787 4294638062
-0.16055383 0.1812253 0.787 4294703603
-0.15949227 0.18168901 0.78899997 4294637810
-0.15802272 0.18169209 0.78899997 4294111457
-0.15675165 0.18192545 0.79000002 4293848285
-0.15528029 0.18192847 0.79000002 4293585379
-0.15419839 0.18239203 0.792 4293453792
-0.15310909 0.18285558 0.79400003 4293650402
-0.15163043 0.1828585 0.79400003 4293321693
-0.15090822 0.18378256 0.79799998 4293124057
-0.14942215 0.18378539 0.79799998 4293124057
-0.14830694 0.18424882 0.80000001 4293189589
-0.14681724 0.18425159 0.80000001 4293058003
-0.1456909 0.18471493 0.80199999 4292729550
-0.14437735 0.18494791 0.80299997 4292795599
-0.14359394 0.18587184 0.80699998 4292795086
-0.14244351 0.18633512 0.80900002 4292795086
-0.14093724 0.18633766 0.80900002 4292729036
-0.14012042 0.18726152 0.81300002 4292663243
-0.13894778 0.18772468 0.815 4292597961
-0.13776767 0.18818781 0.81699997 4292597961
-0.13658023 0.18865088 0.81900001 4292269505
-0.13505553 0.18865325 0.81900001 4292137662
-0.13450915 0.19003765 0.82499999 4292071606
-0.13297334 0.19003993 0.82499999 4290558367
-0.27311781 0.18604845 0.80299997 4294967295
-0.27128032 0.1858225 0.80199999 4294967295
-0.26978293 0.18582821 0.80199999 4294967295
-0.26761657 0.18537048 0.80000001 4294967295
-0.26612306 0.18537609 0.80000001 4294967295
-0.26396799 0.18491822 0.79799998 4294967295
-0.26247838 0.1849238 0.79799998 4294967295
-0.2603347 0.18446587 0.796 4294967295
-0.25689781 0.1830809 0.79000002 4294967295
-0.25542325 0.18308631 0.79000002 4294967295
-0.25362736 0.18285993 0.78899997 4294967295
-0.25151566 0.18240176 0.787 4294967295
-0.24941151 0.18194355 0.78500003 4294967295
-0.24731486 0.18148527 0.78299999 4294967295
-0.24522573 0.18102694 0.78100002 4294967295
-0.24376838 0.18103214 0.78100002 4294967295
-0.24200082 0.18080549 0.77999997 4294967295
-0.23992866 0.18034701 0.778 4294967295
-0.2384771 0.18035209 0.778 4294967295
-0.23641621 0.17989352 0.77600002 4294967295
-0.2349685 0.17989855 0.77600002 4294967295
-0.23352085 0.17990354 0.77600002 4294967295
-0.23207317 0.17990848 0.77600002 4294967295
-0.23062563 0.17991342 0.77600002 4294967295
-0.22858742 0.17945461 0.77399999 4294967295
-0.22714369 0.17945944 0.77399999 4294967295
-0.22570002 0.17946427 0.77399999 4294967295
-0.2242564 0.17946906 0.77399999 4294967295
-0.2228128 0.1794738 0.77399999 4294967295
-0.22136927 0.17947854 0.77399999 4294967295
-0.21964164 0.17925133 0.773 4294967295
-0.21763554 0.17879221 0.77100003 4294967295
-0.21619776 0.17879683 0.77100003 4294967295
-0.21476004 0.1788014 0.77100003 4294967295
-0.21387571 0.17926978 0.773 4294967295
-0.21243434 0.17927429 0.773 4294967295
-0.21099302 0.17927878 0.773 4294967295
-0.20955177 0.17928323 0.773 4294967295
-0.20811056 0.17928766 0.773 4294967295
-0.20666933 0.17929205 0.773 4294967295
-0.20522824 0.17929639 0.773 4294967295
-0.20325989 0.17883681 0.77100003 4294967295
-0.20182256 0.17884107 0.77100003 4294967295
-0.2003853 0.17884532 0.77100003 4294967295
-0.19894806 0.17884953 0.77100003 4294967295
-0.19802324 0.17931764 0.773 4294967295
-0.19658241 0.17932177 0.773 4294967295
-0.19514154 0.17932588 0.773 4294967295
-0.19395137 0.17956194 0.77399999 4294967295
-0.19250876 0.17956598 0.77399999 4294967295
-0.19106621 0.17956999 0.77399999 4294967295
-0.19011368 0.18003796 0.77600002 4294967295
-0.18915375 0.18050595 0.778 4294967295
-0.18770386 0.18050984 0.778 4294967295
-0.18625404 0.18051371 0.778 4294967295
-0.18480422 0.18051754 0.778 4294967295
-0.18335445 0.18052135 0.778 4294967295
-0.18190475 0.18052511 0.778 4294967295
-0.18045509 0.18052882 0.778 4294967295
-0.17900543 0.1805325 0.778 4294967295
-0.17801227 0.18100023 0.77999997 4294967292
-0.17655899 0.18100385 0.77999997 4294967295
-0.17533025 0.1812395 0.78100002 4294967295
-0.1738752 0.18124305 0.78100002 4294967295
-0.17242017 0.18124656 0.78100002 4294967291
-0.17096518 0.18125002 0.78100002 4294967290
-0.16951023 0.18125345 0.78100002 4294967290
-0.16805533 0.18125683 0.78100002 4294836211
-0.16702709 0.18172432 0.78299999 4294507246
-0.16556855 0.18172765 0.78299999 4294967287
-0.16411 0.18173091 0.78299999 4294967284
-0.16306697 0.18219833 0.78500003 4294835957
-0.16160482 0.18220155 0.78500003 4294507248
-0.1605507 0.18266889 0.787 4294769139
-0.15908487 0.18267201 0.787 4294505710
-0.15761912 0.18267511 0.787 4294176735
-0.15655018 0.18314235 0.78899997 4293518804
-0.15527731 0.18337749 0.79000002 4293387486
-0.15419547 0.18384472 0.792 4293387486
-0.15272051 0.18384762 0.792 4293387995
-0.15162756 0.1843148 0.79400003 4293256409
-0.15014896 0.18431765 0.79400003 4293057751
-0.14979386 0.18571331 0.80000001 4293189337
-0.14830418 0.18571608 0.80000001 4293058514
-0.14681451 0.1857188 0.80000001 4292729550
-0.14568822 0.18618581 0.80199999 4292598215
-0.14437473 0.18642062 0.80299997 4292664008
-0.14359133 0.18735188 0.80699998 4292729036
-0.14244094 0.18781877 0.80900002 4292729036
-0.14093474 0.18782131 0.80900002 4292597965
-0.14011794 0.1887525 0.81300002 4292597965
-0.13894531 0.1892193 0.815 4292795595
-0.13776527 0.18968606 0.81699997 4292335044
-0.13624434 0.18968843 0.81699997 4292202944
-0.13505322 0.19015515 0.81900001 4292137151
-0.13418077 0.19108619 0.82300001 4291283126
-0.13264875 0.19108845 0.82300001 4290559402
-0.27311215 0.18752286 0.80299997 4294967295
-0.27127463 0.18729503 0.80199999 4294967295
-0.26977727 0.18730068 0.80199999 4294967295
-0.267611 0.18683927 0.80000001 4294967295
-0.26611745 0.18684489 0.80000001 4294967295
-0.26396248 0.18638332 0.79799998 4294967295
-0.26181504 0.18592174 0.796 4294967295
-0.26032925 0.18592723 0.796 4294967295
-0.25689238 0.1845312 0.79000002 4294967295
-0.25541785 0.18453662 0.79000002 4294967295
-0.25362203 0.18430839 0.78899997 4294967295
-0.25087124 0.18337932 0.78500003 4294967295
-0.24940625 0.18338461 0.78500003 4294967295
-0.24730965 0.18292262 0.78299999 4294967295
-0.24522051 0.18246059 0.78100002 4294967295
-0.24376325 0.18246576 0.78100002 4294967295
-0.24199569 0.18223725 0.77999997 4294967295
-0.23992358 0.18177509 0.778 4294967295
