# .PCD v0.7 - Point Cloud Data file format
VERSION 0.7
FIELDS x y z rgba
SIZE 4 4 4 4
TYPE F F F U
COUNT 1 1 1 1
WIDTH 1055
HEIGHT 1
VIEWPOINT 0 0 0 1 0 0 0
POINTS 1055
DATA ascii
-0.017622545 0.087376676 0.815 4294967295
-0.016105177 0.087376207 0.815 4294967295
-0.014587854 0.0873757 0.815 4294967295
-0.013070583 0.087375142 0.815 4294967295
-0.011581712 0.087588951 0.81699997 4294967295
-0.010060815 0.087588295 0.81699997 4294967295
-0.00853997 0.087587595 0.81699997 4294967295
-0.0070191738 0.087586835 0.81699997 4294967295
-0.0054984293 0.087586038 0.81699997 4294967295
-0.0039777351 0.087585188 0.81699997 4294967295
-0.0024570923 0.087584287 0.81699997 4294967294
-0.00093420898 0.087368935 0.815 4294967290
0.00058260775 0.087367944 0.815 4294967290
0.0020993724 0.087366901 0.815 4294244078
0.0036160848 0.087365806 0.815 4294440688
0.0051327441 0.087364666 0.815 4294506481
0.0066493494 0.087363467 0.815 4294374892
0.0081659034 0.087362237 0.815 4293980135
0.009682402 0.087360941 0.815 4293454044
0.011226329 0.08757399 0.81699997 4293125080
0.012746438 0.087572597 0.81699997 4292664531
0.014266497 0.087571159 0.81699997 4292401102
0.015825145 0.087784052 0.81900001 4292006085
0.017348811 0.08778251 0.81900001 4292137414
0.018918509 0.087995276 0.82099998 4292137149
0.020445785 0.087993637 0.82099998 4291808440
0.022026531 0.088206306 0.82300001 4291084983
0.023614658 0.088418908 0.82499999 4291413692
0.025149204 0.08841712 0.82499999 4291610553
0.026748376 0.088629603 0.82700002 4290689451
0.028286526 0.088627711 0.82700002 4290492842
0.029824615 0.088625751 0.82700002 4290098084
0.031362649 0.088623762 0.82700002 4289965982
0.032980181 0.088836029 0.829 4289965982
0.034771666 0.089476869 0.83499998 4289966236
0.036324397 0.089474715 0.83499998 4289900443
0.03796779 0.089686804 0.83700001 4289440152
0.039524108 0.089684531 0.83700001 4289243029
0.041080374 0.089682214 0.83700001 4289176214
0.042738453 0.089894123 0.83899999 4289044885
0.044298314 0.089891702 0.83899999 4288979339
0.046186056 0.09053205 0.84500003 4288715911
0.05388109 0.098883234 0.92299998 4286940535
0.055596843 0.098880343 0.92299998 4286611825
0.057312522 0.098877408 0.92299998 4287335291
0.059156042 0.099088661 0.92500001 4287729538
0.060875293 0.099085599 0.92500001 4287795331
0.062594481 0.099082485 0.92500001 4287663502
0.064313591 0.099079311 0.92500001 4287795344
0.066032641 0.099076092 0.92500001 4287600013
0.067971341 0.099394135 0.92799997 4287731598
0.069695801 0.099390782 0.92799997 4287601039
0.0714202 0.099387385 0.92799997 4288127639
0.073144533 0.099383928 0.92799997 4288520085
0.075030141 0.099594608 0.93000001 4288585878
0.076758035 0.099591039 0.93000001 4289109907
0.078485847 0.099587396 0.93000001 4289504409
0.080213591 0.09958373 0.93000001 4289176734
-0.07573501 0.093117021 0.85399997 4284231954
-0.073883004 0.092791252 0.85100001 4294957498
-0.07195726 0.092356361 0.847 4294967295
-0.070212647 0.092139505 0.84500003 4294967295
-0.068475515 0.091922581 0.84299999 4294967295
-0.066745907 0.091705613 0.84100002 4294967295
-0.065023765 0.091488577 0.83899999 4294967295
-0.063460395 0.091489591 0.83899999 4294967295
-0.061601974 0.091054358 0.83499998 4294967295
-0.060046162 0.091055274 0.83499998 4294967295
-0.05835028 0.09083803 0.833 4294967295
-0.056661889 0.090620726 0.83099997 4294967295
-0.054848354 0.090185285 0.82700002 4294967295
-0.053307604 0.090185978 0.82700002 4294967295
-0.051641695 0.089968525 0.82499999 4294967295
-0.050104752 0.089969128 0.82499999 4294967295
-0.048567854 0.089969687 0.82499999 4294967295
-0.047145013 0.090188302 0.82700002 4294967295
-0.04549418 0.089970648 0.82499999 4294967295
-0.043957409 0.089971051 0.82499999 4294967295
-0.042317845 0.089753293 0.82300001 4294967295
-0.040784881 0.089753598 0.82300001 4294967295
-0.039156586 0.089535743 0.82099998 4294967295
-0.037535775 0.089317828 0.81900001 4294967295
-0.035922457 0.089099869 0.81699997 4294967295
-0.034400854 0.089099988 0.81699997 4294967295
-0.032879293 0.08910004 0.81699997 4294967295
-0.03135778 0.089100063 0.81699997 4294967295
-0.029690234 0.088663794 0.81300002 4294967295
-0.028176261 0.088663712 0.81300002 4294967295
-0.026662324 0.088663578 0.81300002 4294967295
-0.025148448 0.088663399 0.81300002 4294967295
-0.023692751 0.088881277 0.815 4294967295
-0.022175238 0.088880986 0.815 4294967295
-0.020708468 0.089098774 0.81699997 4294967295
-0.019187324 0.089098394 0.81699997 4294967295
-0.017666232 0.089097969 0.81699997 4294967295
-0.01614519 0.089097485 0.81699997 4294967295
-0.014624192 0.089096971 0.81699997 4294967295
-0.013103247 0.089096382 0.81699997 4294967295
-0.011582348 0.089095764 0.81699997 4294967295
-0.010061502 0.089095093 0.81699997 4294967295
-0.0085407039 0.089094371 0.81699997 4294967295
-0.0070199561 0.089093611 0.81699997 4294967295
-0.0054992596 0.089092784 0.81699997 4294967295
-0.0039786142 0.089091919 0.81699997 4294967295
-0.0024580203 0.089090995 0.81699997 4294967295
-0.00093518302 0.088871941 0.815 4294967295
0.00058158522 0.088870928 0.815 4294967289
0.0020983017 0.08886987 0.815 4294309101
0.0036149649 0.088868752 0.815 4294441203
0.0051441691 0.089085676 0.81699997 4294506996
0.0066644484 0.089084469 0.81699997 4293782757
0.0081846742 0.089083202 0.81699997 4293059035
0.009704846 0.089081898 0.81699997 4293189851
0.011252441 0.089298606 0.81900001 4292861142
0.012776228 0.089297198 0.81900001 4292598482
0.014299956 0.089295745 0.81900001 4292532688
0.015862269 0.089512281 0.82099998 4291940038
0.017389607 0.089510731 0.82099998 4291479487
0.01891689 0.089509107 0.82099998 4291808440
0.020444117 0.089507453 0.82099998 4291545012
0.022024814 0.089723796 0.82300001 4291085496
0.023612889 0.089940064 0.82499999 4290953654
0.025147382 0.089938246 0.82499999 4290953908
0.026811188 0.090372443 0.829 4290493357
0.0282846 0.090152495 0.82700002 4290426783
0.029822646 0.090150528 0.82700002 4289966232
0.031436469 0.090366535 0.829 4289964960
0.033216789 0.091018476 0.83499998 4289899167
0.03485281 0.091234349 0.83700001 4289834648
0.036409207 0.091232151 0.83700001 4289637013
0.038056262 0.091447905 0.83899999 4289440154
0.039616257 0.091445602 0.83899999 4289045396
0.041176189 0.091443256 0.83899999 4289045135
0.042837929 0.091658831 0.84100002 4288913292
0.044612635 0.09209232 0.84500003 4288453506
0.046183541 0.092089809 0.84500003 4288190591
0.053878237 0.10058474 0.92299998 4286940797
0.055593934 0.10058184 0.92299998 4287072137
0.05730956 0.10057886 0.92299998 4287203723
0.059153017 0.10079378 0.92500001 4287597696
0.060872212 0.10079069 0.92500001 4287663745
0.062591352 0.10078755 0.92500001 4287663239
0.064310417 0.10078437 0.92500001 4288057997
0.066029392 0.10078112 0.92500001 4287927179
0.067968018 0.10110466 0.92799997 4288190350
0.06969244 0.10110129 0.92799997 4287928977
0.071416788 0.10109787 0.92799997 4288323735
0.0732987 0.10131226 0.93000001 4288848787
0.075026602 0.10130872 0.93000001 4289045909
0.076754451 0.10130513 0.93000001 4289044885
0.078482211 0.10130149 0.93000001 4289636765
-0.072125942 0.094140716 0.84899998 4294898406
-0.070543818 0.094141923 0.84899998 4294967295
-0.06847439 0.093477763 0.84299999 4294967295
-0.066744819 0.093257084 0.84100002 4294967295
-0.065177746 0.093258135 0.84100002 4294967295
-0.063459426 0.093037352 0.83899999 4294967295
-0.061601061 0.092594728 0.83499998 4294967295
-0.060045283 0.092595622 0.83499998 4294967295
-0.058349468 0.092374682 0.833 4294967295
-0.056797497 0.092375465 0.833 4294967295
-0.054980274 0.091932625 0.829 4294967295
-0.053306945 0.091711521 0.82700002 4294967295
-0.051766273 0.091712154 0.82700002 4294967295
-0.050225653 0.09171275 0.82700002 4294967295
-0.048685074 0.091713287 0.82700002 4294967295
-0.04714454 0.091713779 0.82700002 4294967295
-0.045493763 0.091492422 0.82499999 4294967295
-0.04395704 0.091492809 0.82499999 4294967295
-0.042420357 0.09149316 0.82499999 4294967295
-0.040784609 0.091271639 0.82300001 4294967295
-0.039156362 0.091050081 0.82099998 4294967295
-0.0375356 0.090828471 0.81900001 4294967295
-0.036010273 0.090828612 0.81900001 4294967295
-0.034400776 0.090606906 0.81699997 4294967295
-0.032879263 0.090606943 0.81699997 4294967295
-0.031357795 0.090606943 0.81699997 4294967295
-0.029836379 0.090606891 0.81699997 4294967295
-0.028245687 0.09038499 0.815 4294967295
-0.026728084 0.090384834 0.815 4294967295
-0.025210528 0.090384632 0.815 4294967295
-0.023751156 0.090606183 0.81699997 4294967295
-0.022229968 0.090605885 0.81699997 4294967295
-0.020708829 0.09060555 0.81699997 4294967295
-0.019187735 0.090605147 0.81699997 4294967295
-0.01766669 0.090604708 0.81699997 4294967295
-0.016145697 0.090604216 0.81699997 4294967295
-0.014624748 0.090603672 0.81699997 4294967295
-0.013103851 0.090603083 0.81699997 4294967295
-0.011583 0.090602435 0.81699997 4294967295
-0.010037571 0.090379968 0.815 4294967295
-0.0085205445 0.090379223 0.815 4294967295
-0.0070035676 0.090378441 0.815 4294967295
-0.0055001071 0.090599395 0.81699997 4294967295
-0.0039795106 0.090598501 0.81699997 4294967295
-0.0024589652 0.090597562 0.81699997 4294967295
-0.00093847164 0.090596594 0.81699997 4294967291
0.00058197009 0.090595558 0.81699997 4294835191
0.0021023594 0.090594471 0.81699997 4294506483
0.0036226965 0.090593338 0.81699997 4294704629
0.0051429803 0.090592161 0.81699997 4294375408
0.0066795228 0.090812705 0.81900001 4293650402
0.0082034208 0.090811424 0.81900001 4293255644
0.0097272657 0.090810098 0.81900001 4293386716
0.011278531 0.091030464 0.82099998 4293189337
0.012805986 0.091029033 0.82099998 4292401102
0.014333389 0.091027558 0.82099998 4292335309
0.015860731 0.091026023 0.82099998 4291874243
0.017388022 0.091024436 0.82099998 4291742656
0.018915256 0.091022812 0.82099998 4292267715
0.020492233 0.091242865 0.82300001 4291807164
0.022023076 0.091241144 0.82300001 4291414459
0.023668336 0.091682807 0.82700002 4290756530
0.025206503 0.091680966 0.82700002 4290756532
0.02680929 0.091900796 0.829 4290427310
0.028351057 0.091898859 0.829 4290360992
0.029892769 0.091896862 0.829 4289900441
0.031661931 0.092559919 0.83499998 4290096039
0.033294234 0.092779502 0.83700001 4290029990
0.034850642 0.092777349 0.83700001 4289703326
0.036493983 0.092996821 0.83899999 4289505947
0.038053989 0.092994556 0.83899999 4289374629
0.039613936 0.092992231 0.83899999 4289045407
0.041173819 0.092989877 0.83899999 4289242257
0.042937372 0.09343078 0.84299999 4288715913
0.044610154 0.093649961 0.84500003 4288190591
0.053875357 0.10228609 0.92299998 4287336590
0.055591002 0.10228315 0.92299998 4287795079
0.057306569 0.10228016 0.92299998 4287729286
0.059149969 0.10249875 0.92500001 4287531654
0.060869113 0.10249564 0.92500001 4287729034
0.062588185 0.10249247 0.92500001 4287795081
0.064515755 0.10282165 0.92799997 4287795081
0.066240259 0.10281837 0.92799997 4287532423
0.067964688 0.10281504 0.92799997 4288124303
0.06968905 0.10281164 0.92799997 4288059534
0.07156726 0.10302977 0.93000001 4288520085
0.073295176 0.10302626 0.93000001 4288783253
0.075023048 0.1030227 0.93000001 4288651923
-0.072294623 0.095932297 0.85100001 4289893973
-0.070542648 0.095708035 0.84899998 4294967251
-0.068473279 0.095032796 0.84299999 4294967295
-0.066743769 0.094808407 0.84100002 4294967295
-0.06517674 0.094809443 0.84100002 4294967295
-0.063458472 0.094584957 0.83899999 4294967295
-0.061747707 0.094360419 0.83700001 4294967295
-0.060044434 0.094135821 0.83499998 4294967295
-0.058488756 0.09413664 0.83499998 4294967295
-0.056796741 0.093911946 0.833 4294967295
-0.055112217 0.093687192 0.83099997 4294967295
-0.053435199 0.093462393 0.829 4294967295
-0.051765669 0.093237534 0.82700002 4294967295
-0.050225101 0.093238108 0.82700002 4294967295
-0.048684571 0.093238629 0.82700002 4294967295
-0.047144085 0.093239099 0.82700002 4294967295
-0.045603648 0.093239531 0.82700002 4294967295
-0.04406324 0.093239903 0.82700002 4294967295
-0.042420052 0.093014739 0.82499999 4294967295
-0.040784352 0.092789531 0.82300001 4294967295
-0.03915615 0.09256427 0.82099998 4294967295
-0.03753544 0.092338957 0.81900001 4294967295
-0.036010161 0.092339076 0.81900001 4294967295
-0.034400716 0.092113659 0.81699997 4294967295
-0.032879256 0.092113689 0.81699997 4294967295
-0.031357836 0.092113674 0.81699997 4294967295
-0.029836463 0.092113607 0.81699997 4294967295
-0.028245818 0.091887996 0.815 4294967295
-0.026728263 0.091887839 0.815 4294967295
-0.025272623 0.092113107 0.81699997 4294967295
-0.023751436 0.092112847 0.81699997 4294967295
-0.022230295 0.092112526 0.81699997 4294967295
-0.020709204 0.092112169 0.81699997 4294967295
-0.019188158 0.092111759 0.81699997 4294967295
-0.017667165 0.092111304 0.81699997 4294967295
-0.016185744 0.092336275 0.81900001 4294967295
-0.014625318 0.092110232 0.81699997 4294967295
-0.01310447 0.092109621 0.81699997 4294967295
-0.01158367 0.092108965 0.81699997 4294967295
-0.010038286 0.091882795 0.815 4294967295
-0.0085213082 0.09188202 0.815 4294967295
-0.0070043821 0.091881223 0.815 4294967295
-0.0055009718 0.092105843 0.81699997 4294967295
-0.0039804233 0.092104949 0.81699997 4294967295
-0.002459927 0.092103995 0.81699997 4294967291
-0.00093948236 0.09210299 0.81699997 4294506481
0.00058091059 0.092101946 0.81699997 4294375158
0.0021012514 0.092100844 0.81699997 4294046193
0.0036304044 0.092325158 0.81900001 4293717732
0.005154361 0.092323966 0.81900001 4293717732
0.0066782641 0.092322707 0.81900001 4293321952
0.0082221432 0.092546858 0.82099998 4293059037
0.0097496603 0.092545509 0.82099998 4293386716
0.011277123 0.092544109 0.82099998 4293255131
0.012835722 0.092768103 0.82300001 4292401102
0.014366794 0.09276659 0.82300001 4292203980
0.015897812 0.092765048 0.82300001 4291743679
0.017428774 0.092763446 0.82300001 4291414457
0.018959679 0.0927618 0.82300001 4291347901
0.020540321 0.092985503 0.82499999 4291018936
0.022074835 0.09298376 0.82499999 4290953906
0.023666523 0.093207367 0.82700002 4290624941
0.02520464 0.093205512 0.82700002 4290295729
0.026807372 0.093428992 0.829 4290098349
0.028349092 0.093427032 0.829 4290491549
0.029890751 0.093425028 0.829 4290096791
0.031508189 0.093648352 0.83099997 4289635498
0.033133 0.093871623 0.833 4289503911
0.035015002 0.094770953 0.84100002 4289307802
0.036578733 0.09476871 0.84100002 4289307802
0.038142409 0.094766423 0.84100002 4289176232
0.039706025 0.094764076 0.84100002 4289110439
0.041269574 0.094761685 0.84100002 4288847499
0.042934924 0.094984584 0.84299999 4287202931
0.044502065 0.09498208 0.84299999 4287858317
0.055588041 0.10398431 0.92299998 4288913292
0.057303555 0.10398129 0.92299998 4289045135
0.059146896 0.10420354 0.92500001 4288452251
0.060865983 0.10420042 0.92500001 4288057749
0.062585004 0.10419723 0.92500001 4287925899
0.064512506 0.10453191 0.92799997 4287859850
0.066236958 0.10452861 0.92799997 4287729034
0.068107806 0.10475051 0.93000001 4288189585
0.069835819 0.10474709 0.93000001 4288255882
0.071794637 0.10508151 0.93300003 4288650640
0.073528089 0.10507796 0.93300003 4288321936
0.075261459 0.10507435 0.93300003 4288124557
-0.066742718 0.096359588 0.84100002 4294967295
-0.065175734 0.096360601 0.84100002 4294967295
-0.063457534 0.09613242 0.83899999 4294967295
-0.061746821 0.095904179 0.83700001 4294967295
-0.060043592 0.095675871 0.83499998 4294967295
-0.058487955 0.095676683 0.83499998 4294967295
-0.056796003 0.095448285 0.833 4294967295
-0.055111531 0.095219836 0.83099997 4294967295
-0.053434562 0.094991326 0.829 4294967295
-0.051890269 0.094991937 0.829 4294967295
-0.050224561 0.094763324 0.82700002 4294967295
-0.048684079 0.094763838 0.82700002 4294967295
-0.047143646 0.0947643 0.82700002 4294967295
-0.045603253 0.094764702 0.82700002 4294967295
-0.044062901 0.09476506 0.82700002 4294967295
-0.042522594 0.094765373 0.82700002 4294967295
-0.040883217 0.094536453 0.82499999 4294967295
-0.039251346 0.094307505 0.82300001 4294967295
-0.037626959 0.094078474 0.82099998 4294967295
-0.036010068 0.093849406 0.81900001 4294967295
-0.034484882 0.093849473 0.81900001 4294967295
-0.032879256 0.093620308 0.81699997 4294967295
-0.031357884 0.09362027 0.81699997 4294967295
-0.029836562 0.093620174 0.81699997 4294967295
-0.028315283 0.09362004 0.81699997 4294967295
-0.02679405 0.093619868 0.81699997 4294967295
-0.025272869 0.093619637 0.81699997 4294967295
-0.023751732 0.093619362 0.81699997 4294967295
-0.022230638 0.093619034 0.81699997 4294967295
-0.020709597 0.093618661 0.81699997 4294967295
-0.019188602 0.093618229 0.81699997 4294967295
-0.017667655 0.093617745 0.81699997 4294967295
-0.016186286 0.093846396 0.81900001 4294967295
-0.014625908 0.093616642 0.81699997 4294967295
-0.013105107 0.093616024 0.81699997 4294967295
-0.011584355 0.093615346 0.81699997 4294967295
-0.010063655 0.093614623 0.81699997 4294967295
-0.0085430043 0.093613848 0.81699997 4294967295
-0.0070224018 0.093613029 0.81699997 4294967295
-0.0055018524 0.093612164 0.81699997 4294967295
-0.0039813537 0.09361124 0.81699997 4294967295
-0.002460906 0.093610272 0.81699997 4294901752
-0.00094051013 0.093609259 0.81699997 4294441201
0.00057983375 0.093608193 0.81699997 4294375158
0.0021001254 0.093607068 0.81699997 4294177779
0.0036292274 0.093835056 0.81900001 4293651687
0.0051531345 0.093833849 0.81900001 4293125343
0.0066769891 0.093832575 0.81900001 4293123805
0.008220816 0.094060391 0.82099998 4293058012
0.0097720306 0.094288163 0.82300001 4293058264
0.011330632 0.094515875 0.82499999 4292926935
0.012865431 0.094514392 0.82499999 4292137681
0.014400179 0.094512865 0.82499999 4292071888
0.015934864 0.094511293 0.82499999 4291743425
0.017469497 0.094509661 0.82499999 4291151287
0.019004073 0.094507992 0.82499999 4291216833
0.020538593 0.094506271 0.82499999 4290953404
0.022073057 0.094504498 0.82499999 4291085231
0.023664692 0.094731778 0.82700002 4290756009
0.025202759 0.0947299 0.82700002 4290361006
0.026805436 0.094957054 0.829 4290163627
0.028347107 0.094955079 0.829 4290622115
0.029888719 0.094953053 0.829 4290029722
0.031506099 0.095180042 0.83099997 4289700759
0.033130858 0.095406979 0.833 4289634966
0.035012785 0.096321039 0.84100002 4289438868
0.036576468 0.096318781 0.84100002 4289438868
0.038140099 0.096316472 0.84100002 4289307287
0.03970366 0.096314095 0.84100002 4289175701
0.04126716 0.096311696 0.84100002 4288845966
0.042932447 0.096538253 0.84299999 4287201141
0.053986259 0.1059173 0.92500001 4290027173
0.055705506 0.10591431 0.92500001 4288979087
0.057424691 0.10591127 0.92500001 4288715915
0.059143793 0.10590818 0.92500001 4288190352
0.060862828 0.10590503 0.92500001 4288190352
0.062784761 0.10624528 0.92799997 4287859850
0.064509235 0.106242 0.92799997 4287859850
0.066376381 0.10646764 0.93000001 4288121995
0.068104424 0.10646426 0.93000001 4288187788
0.069832385 0.10646081 0.93000001 4288188292
0.07179112 0.10680072 0.93300003 4288254085
0.073524527 0.10679715 0.93300003 4287729538
-0.065329745 0.098144472 0.84299999 4294967295
-0.063607864 0.09791258 0.84100002 4294967295
-0.061893482 0.097680636 0.83899999 4294967295
-0.060186584 0.09744864 0.83700001 4294967295
-0.058627274 0.097449444 0.83700001 4294967295
-0.056931634 0.097217329 0.83499998 4294967295
-0.055243488 0.096985169 0.833 4294967295
-0.053562853 0.096752964 0.83099997 4294967295
-0.051889695 0.0965207 0.829 4294967295
-0.050345492 0.096521251 0.829 4294967295
-0.048801336 0.096521743 0.829 4294967295
-0.047257226 0.09652219 0.829 4294967295
-0.045713156 0.096522585 0.829 4294967295
-0.044169132 0.096522942 0.829 4294967295
-0.042522315 0.096290372 0.82700002 4294967295
-0.040982105 0.096290618 0.82700002 4294967295
-0.03934655 0.096057944 0.82499999 4294967295
-0.037718493 0.095825225 0.82300001 4294967295
-0.036097918 0.095592447 0.82099998 4294967295
-0.034484852 0.095359638 0.81900001 4294967295
-0.032879271 0.095126763 0.81699997 4294967295
-0.031357951 0.095126718 0.81699997 4294967295
-0.029836679 0.095126614 0.81699997 4294967295
-0.028315447 0.095126465 0.81699997 4294967295
-0.02679426 0.095126271 0.81699997 4294967295
-0.025273131 0.095126018 0.81699997 4294967295
-0.023752041 0.09512572 0.81699997 4294967295
-0.022230998 0.095125377 0.81699997 4294967295
-0.020760704 0.09535785 0.81900001 4294967295
-0.019236034 0.095357411 0.81900001 4294967295
-0.017711412 0.095356919 0.81900001 4294967295
-0.016186841 0.095356375 0.81900001 4294967295
-0.014662316 0.095355771 0.81900001 4294967295
-0.013137844 0.095355138 0.81900001 4294967295
-0.011613418 0.095354445 0.81900001 4294967295
-0.010064405 0.095120847 0.81699997 4294967295
-0.0085438034 0.095120057 0.81699997 4294967295
-0.0070232516 0.095119216 0.81699997 4294967295
-0.0055027506 0.095118329 0.81699997 4294967295
-0.0039823009 0.095117405 0.81699997 4294967295
-0.0024619019 0.095116414 0.81699997 4294901752
-0.00094386027 0.095348224 0.81900001 4294506994
0.00057873974 0.095114298 0.81699997 4294506746
0.0020989825 0.095113166 0.81699997 4294440697
0.003628032 0.095344812 0.81900001 4293979887
0.0051518911 0.095343575 0.81900001 4293255907
0.006675696 0.095342286 0.81900001 4293058785
0.0082194703 0.095573775 0.82099998 4292861149
0.0097706327 0.095805213 0.82300001 4292532439
0.011329181 0.096036591 0.82499999 4292598232
0.012863931 0.096035101 0.82499999 4291808979
0.014398628 0.096033551 0.82499999 4291611600
0.015971893 0.096264772 0.82700002 4291415229
0.017510194 0.096263118 0.82700002 4291151801
0.019048441 0.096261427 0.82700002 4291216581
0.02058663 0.096259676 0.82700002 4290887359
0.022124765 0.09625788 0.82700002 4290822054
0.023662841 0.096256033 0.82700002 4290822054
0.025200857 0.09625414 0.82700002 4290557351
0.026803484 0.096484967 0.829 4290096801
0.028345102 0.09648297 0.829 4290359205
0.029958768 0.096713684 0.83099997 4289767068
0.031503994 0.096711583 0.83099997 4289635218
0.033128694 0.096942171 0.833 4289635218
0.03509381 0.09810371 0.84299999 4289504400
0.036661167 0.09810143 0.84299999 4289504400
0.038228456 0.098099083 0.84299999 4289372800
0.039795689 0.098096691 0.84299999 4288648821
0.053983308 0.10762184 0.92500001 4290422953
0.0557025 0.10761882 0.92500001 4288716685
0.057421621 0.10761576 0.92500001 4286282088
0.059140678 0.10761265 0.92500001 4287006329
0.061057042 0.10795846 0.92799997 4288190602
0.062781528 0.10795523 0.92799997 4287794057
0.06464497 0.10818459 0.93000001 4287662728
0.066587135 0.10853021 0.93300003 4287662476
0.068320692 0.10852678 0.93300003 4287793805
0.070054173 0.10852329 0.93300003 4287991688
0.071941473 0.10875238 0.935 4288518288
-0.06360694 0.099463426 0.84100002 4294967295
-0.061892617 0.099227786 0.83899999 4294967295
-0.060329583 0.099228628 0.83899999 4294967295
-0.058626506 0.098992877 0.83700001 4294967295
-0.057067279 0.098993607 0.83700001 4294967295
-0.055375464 0.098757744 0.83499998 4294967295
-0.053691149 0.098521836 0.833 4294967295
-0.052014321 0.098285876 0.83099997 4294967295
-0.050466437 0.098286405 0.83099997 4294967295
-0.048800882 0.098050341 0.829 4294967295
-0.047256816 0.098050773 0.829 4294967295
-0.045712795 0.098051153 0.829 4294967295
-0.044062264 0.097814932 0.82700002 4294967295
-0.04252205 0.097815216 0.82700002 4294967295
-0.040981889 0.097815447 0.82700002 4294967295
-0.039346389 0.097579077 0.82499999 4294967295
-0.037718374 0.097342648 0.82300001 4294967295
-0.036185794 0.097342737 0.82300001 4294967295
-0.034569044 0.097106211 0.82099998 4294967295
-0.032959796 0.09686964 0.81900001 4294967295
-0.031434797 0.096869573 0.81900001 4294967295
-0.029909851 0.096869469 0.81900001 4294967295
-0.028384944 0.096869297 0.81900001 4294967295
-0.026794495 0.096632525 0.81699997 4294967295
-0.025273407 0.096632257 0.81699997 4294967295
-0.023752367 0.096631952 0.81699997 4294967295
-0.022231374 0.096631594 0.81699997 4294967295
-0.020761129 0.096867733 0.81900001 4294967295
-0.019236507 0.096867271 0.81900001 4294967295
-0.017711936 0.096866764 0.81900001 4294967295
-0.016187415 0.096866205 0.81900001 4294967295
-0.014662938 0.096865594 0.81900001 4294967295
-0.013138515 0.096864931 0.81900001 4294967295
-0.011614138 0.096864231 0.81900001 4294967295
-0.010089814 0.096863471 0.81900001 4294967295
-0.0085655376 0.096862666 0.81900001 4294967295
-0.0070413128 0.096861809 0.81900001 4294967295
-0.0055171386 0.096860908 0.81900001 4294967295
-0.0039930157 0.096859939 0.81900001 4294967295
-0.0024689445 0.096858941 0.81900001 4294901754
-0.00094492495 0.096857883 0.81900001 4294375154
0.00057762844 0.096620254 0.81699997 4294177779
0.002097822 0.096619099 0.81699997 4294177779
0.0036268197 0.096854426 0.81900001 4294045680
0.0051632072 0.097089685 0.82099998 4293321700
0.0066906828 0.097088374 0.82099998 4293255644
0.0082381265 0.097323537 0.82300001 4292926935
0.0097929565 0.097558625 0.82499999 4292270036
0.011327712 0.097557172 0.82499999 4292072401
0.012862413 0.09755566 0.82499999 4291742923
0.014397059 0.097554103 0.82499999 4291611337
0.015970269 0.097788975 0.82700002 4291349695
0.017508525 0.097787321 0.82700002 4290889144
0.019046722 0.0977856 0.82700002 4291084994
0.020584861 0.097783834 0.82700002 4290756030
0.022122947 0.097782016 0.82700002 4290097050
0.023718191 0.09801662 0.829 4290228893
0.02525988 0.098014705 0.829 4290425252
0.026866166 0.09824919 0.83099997 4290227617
0.028411457 0.098247163 0.83099997 4290293664
0.029956687 0.098245099 0.83099997 4289635990
0.03157768 0.09847942 0.833 4289570708
0.033524189 0.099659435 0.84299999 4289307537
0.035091549 0.099657178 0.84299999 4289240460
0.036745828 0.099891305 0.84500003 4289372047
0.03831679 0.099888951 0.84500003 4289437842
0.039887685 0.099886522 0.84500003 4288253311
0.05760476 0.10967465 0.92799997 4286478699
0.059329331 0.1096715 0.92799997 4287137399
0.061053827 0.10966828 0.92799997 4288058501
0.062913559 0.10990137 0.93000001 4287531137
0.064989172 0.11048889 0.935 4287662980
0.066726461 0.11048549 0.935 4287662728
0.068463691 0.11048203 0.935 4287596934
-0.063606039 0.10101413 0.84100002 4294967281
-0.061891753 0.10077478 0.83899999 4294967295
-0.060328782 0.10077561 0.83899999 4294967295
-0.058765844 0.10077639 0.83899999 4294967295
-0.057202939 0.1007771 0.83899999 4294967295
-0.055374816 0.10029732 0.83499998 4294967295
-0.053690553 0.10005771 0.833 4294967295
-0.052138954 0.10005827 0.833 4294967295
-0.050465945 0.09981855 0.83099997 4294967295
-0.048800431 0.099578775 0.829 4294967295
-0.047256414 0.0995792 0.829 4294967295
-0.045712445 0.099579573 0.829 4294967295
-0.044061963 0.099339649 0.82700002 4294967295
-0.042521805 0.099339917 0.82700002 4294967295
-0.040981691 0.099340126 0.82700002 4294967295
-0.039346237 0.099100053 0.82499999 4294967295
-0.037718277 0.098859921 0.82300001 4294967295
-0.036185745 0.098860003 0.82300001 4294967295
-0.034653258 0.098860018 0.82300001 4294967295
-0.03304033 0.098619729 0.82099998 4294967295
-0.031511661 0.098619655 0.82099998 4294967295
-0.029909996 0.098379284 0.81900001 4294967295
-0.028385136 0.098379105 0.81900001 4294967295
-0.026860332 0.098378874 0.81900001 4294967295
-0.025273699 0.098138347 0.81699997 4294967295
-0.023752708 0.098138019 0.81699997 4294967295
-0.022231765 0.098137639 0.81699997 4294967295
-0.020761572 0.098377466 0.81900001 4294967295
-0.019237002 0.098376989 0.81900001 4294967295
-0.017712476 0.098376468 0.81900001 4294967295
-0.016188003 0.098375887 0.81900001 4294967295
-0.014663576 0.098375261 0.81900001 4294967295
-0.013139201 0.098374583 0.81900001 4294967295
-0.01164324 0.098614089 0.82099998 4294967295
-0.010115241 0.098613314 0.82099998 4294967295
-0.0085872924 0.09861248 0.82099998 4294967295
-0.0070593944 0.098611601 0.82099998 4294572537
-0.0055315476 0.098610677 0.82099998 4294704123
-0.004003752 0.098609708 0.82099998 4294572537
-0.0024760088 0.098608688 0.82099998 4294178033
-0.00094600691 0.0983674 0.81900001 4294112240
0.00057791127 0.098366283 0.81900001 4293848296
0.0021017771 0.098365113 0.81900001 4293387745
0.0036344437 0.098604083 0.82099998 4293585131
0.0051619248 0.098602809 0.82099998 4293255909
0.0066893524 0.09860149 0.82099998 4293189587
0.0082367416 0.098840311 0.82300001 4293255637
0.0097915186 0.09907908 0.82499999 4292795095
0.011353684 0.099317789 0.82700002 4292202958
0.012892054 0.099316254 0.82700002 4291808452
0.014430372 0.099314675 0.82700002 4291940038
0.015968628 0.099313043 0.82700002 4291085756
0.017506836 0.099311359 0.82700002 4290690998
0.019044982 0.099309623 0.82700002 4290887611
0.020632852 0.099548005 0.829 4290624439
0.022174602 0.099546157 0.829 4290162848
0.023716299 0.099544279 0.829 4290162848
0.025257936 0.099542327 0.829 4290227870
0.027187446 0.10098123 0.84100002 4290030492
0.028751284 0.10097916 0.84100002 4290096017
0.030315058 0.10097705 0.84100002 4289306757
0.031878777 0.10097487 0.84100002 4289438607
0.033521961 0.10121277 0.84299999 4289438607
0.035172522 0.10145062 0.84500003 4288648841
0.036743492 0.10144828 0.84500003 4288517255
0.038405087 0.10168601 0.847 4288255112
0.039979655 0.10168357 0.847 4283781188
0.058843054 0.11378486 0.94800001 4286215011
0.059454016 0.11162121 0.93000001 4287072387
0.061182175 0.11161797 0.93000001 4287927696
0.063789666 0.11317487 0.94300002 4288188288
-0.063756414 0.1028086 0.84299999 4294963384
-0.062038455 0.10256555 0.84100002 4294967295
-0.060471803 0.10256637 0.84100002 4294967295
-0.058905184 0.10256712 0.84100002 4294967295
-0.057202257 0.10232392 0.83899999 4294967295
-0.05563945 0.10232458 0.83899999 4294967295
-0.053818874 0.10183734 0.83499998 4294967295
-0.052263603 0.1018379 0.83499998 4294967295
-0.05058692 0.10159448 0.833 4294967295
-0.048917729 0.101351 0.83099997 4294967295
-0.047370039 0.1013514 0.83099997 4294967295
-0.045712117 0.10110784 0.829 4294967295
-0.044168238 0.10110814 0.829 4294967295
-0.042521574 0.10086447 0.82700002 4294967295
-0.040981509 0.10086468 0.82700002 4294967295
-0.039441485 0.10086482 0.82700002 4294967295
-0.037809853 0.10062099 0.82499999 4294967295
-0.036185712 0.10037712 0.82300001 4294967295
-0.034653272 0.10037711 0.82300001 4294967295
-0.033040393 0.10013314 0.82099998 4294967295
-0.031511772 0.10013304 0.82099998 4294967295
-0.029983198 0.1001329 0.82099998 4294967295
-0.028454667 0.1001327 0.82099998 4294967295
-0.026860589 0.099888526 0.81900001 4294967295
-0.02533588 0.099888228 0.81900001 4294967295
-0.023753067 0.099643961 0.81699997 4294967295
-0.022232173 0.099643566 0.81699997 4294967295
-0.020762028 0.099887051 0.81900001 4294967295
-0.019237503 0.099886559 0.81900001 4294967295
-0.017713033 0.099886023 0.81900001 4294967295
-0.016228139 0.10012934 0.82099998 4294967295
-0.014700042 0.1001287 0.82099998 4294967295
-0.013171994 0.100128 0.82099998 4294967295
-0.011643995 0.10012726 0.82099998 4294967295
-0.010116045 0.10012647 0.82099998 4294967295
-0.0085881473 0.10012563 0.82099998 4294967293
-0.0070602987 0.10012473 0.82099998 4294638584
-0.0055325013 0.10012379 0.82099998 4294835709
-0.0040047551 0.1001228 0.82099998 4294572537
-0.0024770608 0.10012175 0.82099998 4294177259
-0.00094710605 0.099876769 0.81900001 4294045930
0.00057676277 0.099875629 0.81900001 4293979366
0.0021005794 0.099874437 0.81900001 4293518815
0.0036331932 0.10011709 0.82099998 4293716458
0.0051606256 0.10011581 0.82099998 4293124578
0.006688003 0.10011446 0.82099998 4292991958
0.0082353409 0.10035695 0.82300001 4293057751
0.0097900638 0.10059938 0.82499999 4292795093
0.011352174 0.10084177 0.82700002 4291873991
0.012890498 0.10084022 0.82700002 4291741891
0.014428762 0.10083861 0.82700002 4291676098
0.015966974 0.10083696 0.82700002 4290887348
0.017547458 0.10107911 0.829 4290755761
0.019089278 0.10107736 0.829 4290624691
0.020631038 0.10107554 0.829 4290558898
0.022172743 0.1010737 0.829 4290032293
0.023714388 0.10107178 0.829 4289703328
0.025255976 0.10106983 0.829 4289898654
0.027185407 0.10253081 0.84100002 4289964447
0.02874919 0.10252872 0.84100002 4289767056
0.030312918 0.10252659 0.84100002 4289569421
0.031952392 0.10276821 0.84299999 4289701011
0.033599239 0.10300978 0.84500003 4289437840
0.03517022 0.10300747 0.84500003 4288714384
0.036741138 0.10300513 0.84500003 4288056454
0.038402677 0.1032465 0.847 4286349695
0.058839843 0.11553124 0.94800001 4287728502
-0.064058051 0.10485789 0.847 4290814252
-0.062332701 0.10461114 0.84500003 4294960321
-0.060614828 0.10436434 0.84299999 4294967277
-0.058904465 0.10411748 0.84100002 4294967295
-0.057337936 0.10411818 0.84100002 4294967295
-0.055638824 0.10387123 0.83899999 4294967295
-0.05394721 0.10362421 0.83700001 4294967295
-0.052263085 0.10337713 0.83499998 4294967295
-0.050586451 0.10313001 0.833 4294967295
-0.049035046 0.10313046 0.833 4294967295
-0.047369674 0.10288323 0.83099997 4294967295
-0.045822076 0.10288356 0.83099997 4294967295
-0.044274528 0.10288386 0.83099997 4294967295
-0.042624183 0.10263649 0.829 4294967295
-0.040981337 0.10238905 0.82700002 4294967295
-0.039441366 0.10238919 0.82700002 4294967295
-0.037809782 0.10214166 0.82499999 4294967295
-0.036273625 0.1021417 0.82499999 4294967295
-0.034737512 0.10214169 0.82499999 4294967295
-0.03312096 0.10189401 0.82300001 4294967295
-0.031588666 0.1018939 0.82300001 4294967295
-0.029983375 0.10164612 0.82099998 4294967295
-0.028454892 0.10164589 0.82099998 4294967295
-0.026926463 0.10164563 0.82099998 4294967295
-0.025398076 0.10164532 0.82099998 4294967295
-0.023811592 0.10139736 0.81900001 4294967295
-0.022287022 0.10139695 0.81900001 4294967295
-0.020762503 0.10139649 0.81900001 4294967295
-0.019285008 0.10164359 0.82099998 4294967295
-0.017756861 0.10164303 0.82099998 4294967295
-0.016228765 0.10164241 0.82099998 4294967295
-0.014700716 0.10164176 0.82099998 4294967295
-0.013172716 0.10164104 0.82099998 4294967295
-0.011644767 0.10164028 0.82099998 4294967295
-0.010116868 0.10163947 0.82099998 4294967295
-0.0085890172 0.10163862 0.82099998 4294967291
-0.0070612188 0.10163771 0.82099998 4294638582
-0.0055469512 0.10188434 0.82300001 4294704377
-0.0040155337 0.10188333 0.82300001 4294638584
-0.0024841675 0.10188227 0.82300001 4293980135
-0.00095053797 0.10163357 0.82099998 4293914341
0.00057700253 0.10163241 0.82099998 4293782757
0.0021096172 0.10187878 0.82300001 4293387999
0.0036407732 0.10187753 0.82300001 4293322206
0.0051718759 0.10187621 0.82300001 4293256157
0.006719213 0.10212241 0.82499999 4293058012
0.0082539301 0.102121 0.82499999 4292729048
0.0098123224 0.10236711 0.82700002 4292663495
0.011378098 0.10261314 0.829 4291808186
0.012920088 0.10261156 0.829 4291282374
0.014462027 0.10260993 0.829 4291282374
0.016003905 0.10260826 0.829 4290953656
0.01754573 0.10260654 0.829 4290032554
0.019087499 0.10260477 0.829 4290294434
0.020629209 0.10260294 0.829 4290228641
0.022170862 0.10260107 0.829 4289964962
0.030382838 0.10432347 0.84299999 4289307789
0.031950172 0.10432126 0.84299999 4289569425
-0.064208448 0.1066705 0.84899998 4284899099
-0.06247941 0.10642005 0.847 4291071308
-0.060757872 0.10616954 0.84500003 4294962090
-0.059043836 0.10591898 0.84299999 4294967295
-0.057473637 0.10591966 0.84299999 4294967295
-0.055770844 0.10566901 0.84100002 4294967295
-0.054075554 0.10541829 0.83899999 4294967295
-0.052512929 0.10541882 0.83899999 4294967295
-0.050707452 0.10491671 0.83499998 4294967295
-0.04903464 0.10466585 0.833 4294967295
-0.047483329 0.1046662 0.833 4294967295
-0.045821775 0.10441524 0.83099997 4294967295
-0.044274271 0.1044155 0.83099997 4294967295
-0.042623978 0.10416444 0.829 4294967295
-0.040981181 0.10391329 0.82700002 4294967295
-0.039441265 0.10391342 0.82700002 4294967295
-0.037901387 0.10391349 0.82700002 4294967295
-0.036273621 0.1036622 0.82499999 4294967295
-0.034737561 0.10366219 0.82499999 4294967295
-0.033201545 0.1036621 0.82499999 4294967295
-0.031588811 0.10341068 0.82300001 4294967295
-0.030056611 0.10341048 0.82300001 4294967295
-0.028524455 0.10341027 0.82300001 4294967295
-0.026992349 0.10340999 0.82300001 4294967295
-0.02539842 0.10315835 0.82099998 4294967295
-0.023811983 0.10290668 0.81900001 4294967295
-0.022287462 0.10290626 0.81900001 4294967295
-0.020762991 0.10290579 0.81900001 4294967295
-0.019285548 0.10315656 0.82099998 4294967295
-0.017757451 0.10315599 0.82099998 4294967295
-0.016268941 0.10340665 0.82300001 4294967295
-0.014701405 0.10315467 0.82099998 4294967295
-0.013173455 0.10315394 0.82099998 4294967295
-0.011673925 0.10340446 0.82300001 4294967295
-0.010142353 0.10340363 0.82300001 4294967293
-0.0086108306 0.10340274 0.82300001 4294901500
-0.007079361 0.10340182 0.82300001 4294572791
-0.005561423 0.1036521 0.82499999 4294638582
-0.0040263338 0.10365108 0.82499999 4294441203
-0.0024912965 0.10365 0.82499999 4293652198
-0.00095631095 0.10364887 0.82499999 4293652198
0.00057862204 0.10364769 0.82499999 4293585892
0.0021135022 0.10364646 0.82499999 4293059548
0.0036660184 0.10414771 0.829 4292993503
0.0052082324 0.10414635 0.829 4292993503
0.006734109 0.10389373 0.82700002 4292926935
0.0082724942 0.10389228 0.82700002 4292729300
0.0098108277 0.10389081 0.82700002 4292269003
0.011376549 0.10414051 0.829 4291545280
0.012918491 0.10413891 0.829 4291020485
0.014460377 0.10413727 0.829 4290954436
0.016002206 0.10413559 0.829 4290953906
0.017543981 0.10413384 0.829 4290098597
0.019085698 0.10413203 0.829 4290556066
0.020677123 0.10438142 0.83099997 4290161564
0.022222444 0.1043795 0.83099997 4290029211
-0.062478617 0.10798118 0.847 4286535961
-0.060757123 0.10772698 0.84500003 4289957453
-0.059183214 0.10772771 0.84500003 4294236849
-0.057472985 0.10747339 0.84299999 4294967273
-0.05590288 0.10747402 0.84299999 4294967295
-0.05420392 0.10721962 0.84100002 4294967295
-0.052637629 0.10722013 0.84100002 4294967295
-0.050949916 0.10696559 0.83899999 4294967295
-0.049269713 0.10671104 0.83700001 4294967295
-0.047596991 0.10645641 0.83499998 4294967295
-0.045931768 0.10620174 0.833 4294967295
-0.04438059 0.106202 0.833 4294967295
-0.042726617 0.1059472 0.83099997 4294967295
-0.041080154 0.10569237 0.829 4294967295
-0.039536558 0.10569249 0.829 4294967295
-0.037901349 0.10543756 0.82700002 4294967295
-0.036361564 0.10543756 0.82700002 4294967295
-0.034821831 0.10543752 0.82700002 4294967295
-0.033201654 0.10518245 0.82499999 4294967295
-0.031665739 0.10518228 0.82499999 4294967295
-0.030129863 0.10518209 0.82499999 4294967295
-0.028524717 0.10492686 0.82300001 4294967295
-0.026992662 0.10492658 0.82300001 4294967295
-0.025460651 0.10492624 0.82300001 4294967295
-0.023928691 0.10492584 0.82300001 4294967295
-0.022342347 0.1046704 0.82099998 4294967295
-0.020814201 0.1046699 0.82099998 4294967295
-0.019333087 0.10492434 0.82300001 4294967295
-0.017844578 0.10517873 0.82499999 4294967295
-0.016269598 0.10492311 0.82300001 4294967295
-0.014737925 0.10492242 0.82300001 4294967295
-0.013206305 0.10492167 0.82300001 4294967295
-0.011703102 0.10517583 0.82499999 4294967295
-0.010167859 0.105175 0.82499999 4294901500
-0.0086326655 0.10517409 0.82499999 4294704375
-0.0070975232 0.10517314 0.82499999 4294572789
-0.0055624326 0.10517216 0.82499999 4294638062
-0.0040371562 0.10542606 0.82700002 4294046182
-0.0024984474 0.10542496 0.82700002 4293322722
-0.00095979107 0.10542381 0.82700002 4293256929
0.00057881273 0.10542261 0.82700002 4293322722
0.0021224844 0.10567632 0.829 4293125343
0.0036647029 0.105675 0.829 4292927712
0.0052068676 0.10567364 0.829 4292203989
0.0067326957 0.1054173 0.82700002 4292268739
0.008271032 0.10541584 0.82700002 4292137153
0.0098330351 0.10566927 0.829 4291742407
0.011374983 0.1056677 0.829 4291413442
0.012916873 0.10566611 0.829 4291413442
0.01445871 0.10566444 0.829 4291216062
0.01603909 0.10591765 0.83099997 4291018654
0.017584532 0.10591588 0.83099997 4290295188
0.019129921 0.10591407 0.83099997 4290425250
0.020725012 0.10616711 0.833 4289833113
0.022327481 0.10642008 0.83499998 4289767838
-0.060900193 0.10954296 0.847 4285034053
-0.059182532 0.109285 0.84500003 4288907093
-0.057608705 0.10928565 0.84500003 4294962362
-0.055902302 0.10902759 0.84299999 4294967295
-0.054332294 0.10902815 0.84299999 4294967295
-0.052637149 0.10876998 0.84100002 4294967295
-0.051070943 0.10877044 0.84100002 4294967295
-0.049387056 0.10851215 0.83899999 4294967295
-0.047710668 0.10825384 0.83700001 4294967295
-0.046041768 0.10799546 0.83499998 4294967295
-0.044380367 0.10773703 0.833 4294967295
-0.042829283 0.10773722 0.833 4294967295
-0.041278243 0.10773737 0.833 4294967295
-0.039631866 0.10747878 0.83099997 4294967295
-0.037992988 0.10722015 0.829 4294967295
-0.036361594 0.10696147 0.82700002 4294967295
-0.034821913 0.10696141 0.82700002 4294967295
-0.033282269 0.1069613 0.82700002 4294967295
-0.03166591 0.10670247 0.82499999 4294967295
-0.030130088 0.10670225 0.82499999 4294967295
-0.028594306 0.10670198 0.82499999 4294967295
-0.027058579 0.10670168 0.82499999 4294967295
-0.025522899 0.10670132 0.82499999 4294967295
-0.023929115 0.10644224 0.82300001 4294967295
-0.02239725 0.10644179 0.82300001 4294967295
-0.020865431 0.10644127 0.82300001 4294967295
-0.019380648 0.10669938 0.82499999 4294967295
-0.017888466 0.10695744 0.82700002 4294967295
-0.016309813 0.10669809 0.82499999 4294967295
-0.014774467 0.10669738 0.82499999 4294967295
-0.013239175 0.10669661 0.82499999 4294967295
-0.01170393 0.10669582 0.82499999 4294967295
-0.010168735 0.10669494 0.82499999 4294835707
-0.0086335922 0.10669404 0.82499999 4294045678
-0.0070985002 0.10669307 0.82499999 4294045678
-0.0055769458 0.10695071 0.82700002 4294571506
-0.0040382352 0.10694963 0.82700002 4294176748
-0.0025056219 0.10720715 0.829 4293453538
-0.00096329453 0.10720598 0.829 4293387745
0.00057898002 0.10720477 0.829 4293453792
0.0021263189 0.10746212 0.83099997 4293059035
0.003672207 0.10746079 0.83099997 4293058014
0.0052431589 0.10797666 0.83499998 4292400085
0.0067801015 0.10771661 0.833 4292203207
0.0083095487 0.10745651 0.83099997 4291347899
0.009855221 0.10745498 0.83099997 4290886837
0.011400837 0.1074534 0.83099997 4291018166
0.012946398 0.10745176 0.83099997 4291148991
0.014491904 0.10745008 0.83099997 4290754233
0.016037351 0.10744835 0.83099997 4290359448
0.017625062 0.10770516 0.833 4290161812
0.019220155 0.10796192 0.83499998 4290097052
0.020822626 0.1082186 0.83700001 4290097052
0.022379005 0.10821664 0.83700001 4289965985
-0.059181858 0.11084213 0.84500003 4285292362
-0.057608079 0.11084276 0.84500003 4286016342
-0.055901725 0.11058101 0.84299999 4290947730
-0.054331768 0.11058155 0.84299999 4294963673
-0.052636679 0.11031969 0.84100002 4294967295
-0.051070534 0.11032011 0.84100002 4294967295
-0.049504429 0.11032049 0.84100002 4294967295
-0.04782436 0.11005847 0.83899999 4294967295
-0.046041507 0.10953404 0.83499998 4294967295
-0.044486709 0.10953426 0.83499998 4294967295
-0.042829119 0.10927209 0.833 4294967295
-0.041278135 0.10927221 0.833 4294967295
-0.039631806 0.10900992 0.83099997 4294967295
-0.038084637 0.10900996 0.83099997 4294967295
-0.036449574 0.10874756 0.829 4294967295
-0.034822002 0.10848514 0.82700002 4294967295
-0.033282414 0.10848501 0.82700002 4294967295
-0.031742871 0.10848483 0.82700002 4294967295
-0.030203376 0.10848462 0.82700002 4294967295
-0.028594604 0.10822198 0.82499999 4294967295
-0.027058922 0.10822164 0.82499999 4294967295
-0.025523292 0.10822128 0.82499999 4294967295
-0.023987707 0.10822083 0.82499999 4294967295
-0.022452166 0.10822037 0.82499999 4294967295
-0.02091668 0.10821985 0.82499999 4294967295
-0.019428223 0.10848162 0.82700002 4294967295
-0.017889109 0.10848098 0.82700002 4294967295
-0.016350044 0.1084803 0.82700002 4294967295
-0.014811028 0.10847957 0.82700002 4294967294
-0.013272064 0.10847879 0.82700002 4294967294
-0.011733148 0.10847796 0.82700002 4294967289
-0.010194282 0.10847706 0.82700002 4294703603
-0.008655468 0.10847614 0.82700002 4294177009
-0.0071167038 0.10847516 0.82700002 4293979887
-0.0055779922 0.10847414 0.82700002 4293782251
-0.0040393318 0.10847304 0.82700002 4293782251
-0.0025067707 0.10873423 0.829 4293782503
-0.00096449401 0.10873304 0.829 4293848296
0.00057912385 0.10899411 0.83099997 4293255644
0.0021301298 0.10925514 0.833 4292597713
0.0036796883 0.10925379 0.833 4292663508
0.0052417484 0.1095147 0.83499998 4292400337
0.0067949179 0.10951325 0.83499998 4292136899
0.0083280383 0.10924944 0.833 4291347383
0.0098773791 0.10924789 0.833 4290886835
0.011426666 0.10924629 0.833 4290755248
0.012975895 0.10924463 0.833 4290623676
0.014525071 0.10924293 0.833 4290426297
0.016074188 0.10924117 0.833 4290032795
0.017665559 0.10950163 0.83499998 4289638037
0.019264318 0.10976206 0.83700001 4289965462
0.020920204 0.11028468 0.84100002 4290097304
0.02253744 0.11054496 0.84299999 4289768088
-0.057607483 0.11239973 0.84500003 4282208075
-0.055901174 0.11213426 0.84299999 4285553461
-0.054331269 0.11213479 0.84299999 4292066968
-0.052761398 0.11213527 0.84299999 4294964967
-0.05119158 0.11213569 0.84299999 4294967295
-0.049504079 0.11187002 0.84100002 4294967295
-0.047824062 0.11160429 0.83899999 4294967295
-0.046261825 0.11160455 0.83899999 4294967295
-0.044699624 0.11160478 0.83899999 4294967295
-0.042931806 0.11107284 0.83499998 4294967295
-0.041377146 0.11107295 0.83499998 4294967295
-0.039727155 0.11080697 0.833 4294967295
-0.038176306 0.11080699 0.833 4294967295
-0.036625501 0.11080693 0.833 4294967295
-0.034990534 0.11054081 0.83099997 4294967295
-0.033363063 0.11027461 0.829 4294967295
-0.031819846 0.11027443 0.829 4294967295
-0.03027668 0.11027418 0.829 4294967295
-0.028664231 0.11000786 0.82700002 4294967295
-0.027124876 0.11000752 0.82700002 4294967295
-0.025585575 0.11000712 0.82700002 4294967295
-0.024046317 0.11000669 0.82700002 4294967295
-0.022507107 0.11000618 0.82700002 4294967295
-0.020967945 0.11000563 0.82700002 4294967295
-0.019475818 0.11027107 0.829 4294967295
-0.01788977 0.1100044 0.82700002 4294967295
-0.016350755 0.11000369 0.82700002 4294967295
-0.014811789 0.11000294 0.82700002 4294967295
-0.013272874 0.11000216 0.82700002 4294638584
-0.01173401 0.1100013 0.82700002 4294506483
-0.010195194 0.11000039 0.82700002 4294506483
-0.0086564291 0.10999945 0.82700002 4294375158
-0.0071177166 0.10999845 0.82700002 4294046193
-0.0055925474 0.11026341 0.829 4293585129
-0.0040502162 0.11026229 0.829 4293585129
-0.0025139875 0.11052714 0.83099997 4293716708
-0.00096804078 0.11052594 0.83099997 4293322206
0.00057924411 0.11079069 0.833 4292795606
0.0021288055 0.11078939 0.833 4292401104
0.0036871445 0.11105399 0.83499998 4292597715
0.0052528712 0.11131858 0.83700001 4292202958
0.006793438 0.1110511 0.83499998 4291610051
0.0083465036 0.1110496 0.83499998 4291478465
0.0098995129 0.11104801 0.83499998 4291150254
0.011452468 0.11104639 0.83499998 4290623910
0.013005365 0.1110447 0.83499998 4290426799
0.01455821 0.11104299 0.83499998 4290294956
0.016110996 0.1110412 0.83499998 4290164896
0.017706033 0.11130534 0.83700001 4289375381
0.019354479 0.11183536 0.84100002 4289767315
0.020918252 0.11183343 0.84100002 4289570193
0.022535432 0.11209738 0.84299999 4289175953
-0.054330789 0.1136879 0.84299999 4282793528
-0.052760966 0.11368834 0.84299999 4288709435
-0.051069748 0.11341903 0.84100002 4293249152
-0.049503747 0.11341939 0.84100002 4294108893
-0.047823779 0.11314995 0.83899999 4294967289
-0.046261594 0.11315019 0.83899999 4294967295
-0.044699449 0.1131504 0.83899999 4294967295
-0.043034513 0.11288083 0.83700001 4294967295
-0.041377071 0.11261119 0.83499998 4294967295
-0.039822504 0.11261124 0.83499998 4294967295
-0.038267989 0.11261123 0.83499998 4294967295
-0.036713511 0.11261117 0.83499998 4294967295
-0.035074875 0.11234134 0.833 4294967295
-0.033443723 0.11207145 0.83099997 4294967295
-0.031896833 0.11207124 0.83099997 4294967295
-0.030349992 0.11207098 0.83099997 4294967295
-0.028733877 0.11180096 0.829 4294967295
-0.027190855 0.11180059 0.829 4294967295
-0.025647875 0.11180017 0.829 4294967295
-0.024104945 0.11179972 0.829 4294967295
-0.022507632 0.11152949 0.82700002 4294967295
-0.020968523 0.11152893 0.82700002 4294967295
-0.019476447 0.11179803 0.829 4294967295
-0.017933711 0.11179736 0.829 4294967295
-0.016351484 0.11152694 0.82700002 4294967295
-0.014812567 0.11152618 0.82700002 4294967291
-0.013273701 0.11152536 0.82700002 4294441201
