# .PCD v0.7 - Point Cloud Data file format
VERSION 0.7
FIELDS x y z rgba
SIZE 4 4 4 4
TYPE F F F U
COUNT 1 1 1 1
WIDTH 1051
HEIGHT 1
VIEWPOINT 0 0 0 1 0 0 0
POINTS 1051
DATA ascii
0.036944177 -0.047015797 0.72299999 4294967295
0.038291957 -0.047016226 0.72299999 4294967295
0.039475203 -0.046821591 0.72000003 4294967295
0.040760595 -0.046757054 0.71899998 4294967295
0.041983653 -0.04662751 0.71700001 4294967295
0.043259613 -0.046563033 0.71600002 4294967295
0.04440723 -0.046368532 0.713 4294967295
0.045607757 -0.046239085 0.71100003 4294967295
0.046932787 -0.046239737 0.71100003 4294967295
0.048257764 -0.046240427 0.71100003 4294967295
0.049512949 -0.046176113 0.70999998 4294967295
0.050835948 -0.046176866 0.70999998 4294967295
0.0521589 -0.046177659 0.70999998 4294967295
0.053331126 -0.046048399 0.708 4294967295
0.05410992 -0.045593962 0.70099998 4294967295
0.055336881 -0.045529798 0.69999999 4294967295
0.05664096 -0.045530718 0.69999999 4294967295
0.05777945 -0.045401573 0.69800001 4294967295
0.059079695 -0.045402553 0.69800001 4294967295
0.060379889 -0.045403559 0.69800001 4294967295
0.061591662 -0.045339555 0.69700003 4294967295
0.062889881 -0.045340631 0.69700003 4294967295
0.064188048 -0.045341745 0.69700003 4294967295
0.065392189 -0.045277826 0.69599998 4294967295
0.066688381 -0.045279004 0.69599998 4294967295
0.067984499 -0.045280211 0.69599998 4294967295
0.069081485 -0.045151338 0.69400001 4294967295
0.070272379 -0.04508755 0.69300002 4294967295
0.0713562 -0.044958729 0.69099998 4294967295
0.072642788 -0.044960056 0.69099998 4294967295
0.07392931 -0.044961426 0.69099998 4294967295
0.075106934 -0.044897757 0.69 4294967295
0.076391473 -0.044899192 0.69 4294967295
0.077788524 -0.044965729 0.69099998 4294967295
0.078960389 -0.044902157 0.69 4294967295
0.079895869 -0.044708449 0.68699998 4294967295
0.08117459 -0.04471001 0.68699998 4294967295
0.082453258 -0.044711605 0.68699998 4294967295
0.083731852 -0.044713229 0.68699998 4294967295
0.085010402 -0.04471489 0.68699998 4294967295
0.086163282 -0.044651493 0.68599999 4294967295
0.08743985 -0.044653211 0.68599999 4294967295
0.088716358 -0.044654969 0.68599999 4294967295
0.089992814 -0.044656765 0.68599999 4294967295
0.091402233 -0.044723682 0.68699998 4294967295
0.092545509 -0.044660445 0.68599999 4294967295
0.093548231 -0.044532128 0.68400002 4294967295
0.094820723 -0.044534042 0.68400002 4294967295
0.096093141 -0.044535995 0.68400002 4294967295
0.097365506 -0.044537988 0.68400002 4294967295
0.098926216 -0.044670232 0.68599999 4294967295
0.10020217 -0.044672295 0.68599999 4294967295
0.10147806 -0.044674385 0.68599999 4294967295
0.10275391 -0.044676512 0.68599999 4294967295
0.10402968 -0.044678677 0.68599999 4294967295
0.10545889 -0.044746004 0.68699998 4294967295
0.1067364 -0.044748235 0.68699998 4294967295
0.10785662 -0.04468536 0.68599999 4294967295
0.10913214 -0.044687662 0.68599999 4294967295
0.11040761 -0.044689991 0.68599999 4294967295
0.11135739 -0.044562057 0.68400002 4294967295
0.112629 -0.044564445 0.68400002 4294967295
0.11390057 -0.044566873 0.68400002 4294967295
0.11517208 -0.044569332 0.68400002 4294967295
0.1164435 -0.044571824 0.68400002 4294967295
0.11771486 -0.044574346 0.68400002 4294967295
0.11950803 -0.04477242 0.68699998 4294967295
0.12078486 -0.044775032 0.68699998 4294967295
0.12206161 -0.044777669 0.68699998 4294967295
0.12333831 -0.044780344 0.68699998 4294967295
0.12461494 -0.044783048 0.68699998 4294967295
0.12589151 -0.044785801 0.68699998 4294967295
0.127168 -0.044788577 0.68699998 4294967295
0.12863143 -0.044856593 0.68800002 4294967295
0.12990966 -0.044859443 0.68800002 4294967295
0.13156918 -0.044992745 0.69 4294967295
0.13304356 -0.04506088 0.69099998 4294967295
0.13432717 -0.045063846 0.69099998 4294967295
0.13600324 -0.045197293 0.69300002 4294967295
0.13729045 -0.045200348 0.69300002 4294967295
0.13857758 -0.045203425 0.69300002 4294967295
0.13986467 -0.045206536 0.69300002 4294967295
0.14135535 -0.045274928 0.69400001 4294967295
0.14264418 -0.045278121 0.69400001 4294967295
0.14393292 -0.045281351 0.69400001 4294967295
0.14731413 -0.045937125 0.704 4294967295
0.14862134 -0.045940474 0.704 4294967295
0.14992844 -0.045943849 0.704 4294967295
0.15166514 -0.046077799 0.70599997 4294967295
0.15319255 -0.046146534 0.70700002 4294967295
0.15472357 -0.046215318 0.708 4294967295
0.15603788 -0.046218861 0.708 4294967295
0.15779661 -0.04635302 0.70999998 4294967295
0.15911447 -0.046356641 0.70999998 4294967295
0.16246593 -0.046947975 0.71899998 4294967295
0.16380037 -0.046951719 0.71899998 4294967295
0.16513477 -0.046955507 0.71899998 4294967295
0.16670063 -0.047024641 0.72000003 4294967293
0.028230919 -0.046870243 0.74199998 4285494916
0.029574558 -0.046807282 0.741 4292995318
0.030872637 -0.046681188 0.73900002 4293652719
0.032250483 -0.046681464 0.73900002 4294967295
0.033628274 -0.046681773 0.73900002 4294967295
0.034484953 -0.045987256 0.72799999 4294967295
0.035694428 -0.045798123 0.72500002 4294967295
0.036943763 -0.045672189 0.72299999 4294967295
0.038291506 -0.045672633 0.72299999 4294967295
0.039474726 -0.045483593 0.72000003 4294967295
0.040760085 -0.045420926 0.71899998 4294967295
0.041983105 -0.045295123 0.71700001 4294967295
0.043259036 -0.045232534 0.71600002 4294967295
0.044406619 -0.04504361 0.713 4294967295
0.045607112 -0.044917896 0.71100003 4294967295
0.046932109 -0.044918578 0.71100003 4294967295
0.048257049 -0.044919282 0.71100003 4294967295
0.049581945 -0.044920024 0.71100003 4294967295
0.05083517 -0.044857606 0.70999998 4294967295
0.052158084 -0.044858418 0.70999998 4294967295
0.053480942 -0.044859264 0.70999998 4294967295
0.054109048 -0.044291485 0.70099998 4294967295
0.055335976 -0.044229206 0.69999999 4294967295
0.056640033 -0.044230133 0.69999999 4294967295
0.057778481 -0.044104725 0.69800001 4294967295
0.059078693 -0.044105724 0.69800001 4294967295
0.060292359 -0.044043567 0.69700003 4294967295
0.061502233 -0.043981429 0.69599998 4294967295
0.062798552 -0.043982528 0.69599998 4294967295
0.064094827 -0.043983653 0.69599998 4294967295
0.065391026 -0.043984812 0.69599998 4294967295
0.066495553 -0.043859616 0.69400001 4294967295
0.067787915 -0.043860834 0.69400001 4294967295
0.069080226 -0.04386209 0.69400001 4294967295
0.07027109 -0.043800186 0.69300002 4294967295
0.071561411 -0.043801509 0.69300002 4294967295
0.072851688 -0.043802861 0.69300002 4294967295
0.073927924 -0.043677833 0.69099998 4294967295
0.075214349 -0.043679249 0.69099998 4294967295
0.076500736 -0.043680701 0.69099998 4294967295
0.077787042 -0.043682195 0.69099998 4294967295
0.078958869 -0.043620501 0.69 4294967295
0.080010623 -0.04349561 0.68800002 4294967295
0.08117301 -0.043433968 0.68699998 4294967295
0.082451642 -0.043435574 0.68699998 4294967295
0.083730213 -0.043437216 0.68699998 4294967295
0.085008726 -0.0434389 0.68699998 4294967295
0.086287171 -0.043440618 0.68699998 4294967295
0.087565571 -0.043442357 0.68699998 4294967295
0.088843897 -0.043444138 0.68699998 4294967295
0.090122186 -0.043445949 0.68699998 4294967295
0.0914004 -0.043447796 0.68699998 4294967295
0.092543632 -0.043386437 0.68599999 4294967295
0.093546338 -0.043261848 0.68400002 4294967295
0.094818793 -0.043263789 0.68400002 4294967295
0.096091174 -0.043265767 0.68400002 4294967295
0.097363502 -0.043267768 0.68400002 4294967295
0.098924175 -0.043396328 0.68599999 4294967295
0.099907972 -0.043271888 0.68400002 4294967295
0.10118011 -0.043273997 0.68400002 4294967295
0.1024522 -0.043276131 0.68400002 4294967295
0.1040275 -0.043404851 0.68599999 4294967295
0.10545667 -0.043470345 0.68699998 4294967295
0.10673415 -0.043472592 0.68699998 4294967295
0.10801155 -0.043474887 0.68699998 4294967295
0.10928892 -0.043477204 0.68699998 4294967295
0.11040527 -0.043416269 0.68599999 4294967295
0.11168061 -0.043418657 0.68599999 4294967295
0.11295593 -0.043421075 0.68599999 4294967295
0.11423118 -0.043423522 0.68599999 4294967295
0.11550634 -0.043426018 0.68599999 4294967295
0.1169517 -0.043491844 0.68699998 4294967295
0.1182286 -0.043494403 0.68699998 4294967295
0.11950544 -0.043496996 0.68699998 4294967295
0.12078223 -0.043499622 0.68699998 4294967295
0.12205897 -0.043502286 0.68699998 4294967295
0.12333561 -0.043504983 0.68699998 4294967295
0.12461221 -0.043507714 0.68699998 4294967295
0.12588875 -0.043510478 0.68699998 4294967295
0.12716521 -0.043513276 0.68699998 4294967295
0.12844163 -0.043516114 0.68699998 4294967295
0.13028443 -0.043709021 0.69 4294967295
0.13156627 -0.043711938 0.69 4294967295
0.13304061 -0.043778248 0.69099998 4294967295
0.13432419 -0.04378124 0.69099998 4294967295
0.13600022 -0.043910988 0.69300002 4294967295
0.13728739 -0.043914061 0.69300002 4294967295
0.1385745 -0.04391716 0.69300002 4294967295
0.13986154 -0.043920297 0.69300002 4294967295
0.14135221 -0.043986861 0.69400001 4294967295
0.14264098 -0.043990072 0.69400001 4294967295
0.14392969 -0.043993317 0.69400001 4294967295
0.14731081 -0.044630565 0.704 4294967295
0.14861797 -0.044633929 0.704 4294967295
0.14992505 -0.04463733 0.704 4294967295
0.15166172 -0.044767596 0.70599997 4294967295
0.1529724 -0.044771083 0.70599997 4294967295
0.15450153 -0.044838022 0.70700002 4294967295
0.15581393 -0.044841591 0.70700002 4294967295
0.15779299 -0.045035478 0.70999998 4294967295
0.15911084 -0.045039125 0.70999998 4294967295
0.16110648 -0.045233138 0.713 4294967295
0.16334102 -0.04549066 0.71700001 4294967295
0.16513097 -0.045621354 0.71899998 4294967295
0.1666968 -0.045688663 0.72000003 4294967295
0.16849963 -0.045819469 0.722 4294967295
0.029454591 -0.045246284 0.73799998 4292470518
0.030830594 -0.045246545 0.73799998 4293783535
0.032206539 -0.045246836 0.73799998 4294901759
0.03358243 -0.04524716 0.73799998 4294967295
0.034484584 -0.044634417 0.72799999 4294967295
0.035694029 -0.044450872 0.72500002 4294967295
0.036943331 -0.044328675 0.72299999 4294967295
0.038291045 -0.044329137 0.72299999 4294967295
0.039474227 -0.044145692 0.72000003 4294967295
0.040759552 -0.044084899 0.71899998 4294967295
0.041982539 -0.043962836 0.71700001 4294967295
0.043258436 -0.04390211 0.71600002 4294967295
0.044468269 -0.0437801 0.71399999 4294967295
0.045734741 -0.043719448 0.713 4294967295
0.046931416 -0.043597504 0.71100003 4294967295
0.048188448 -0.043536909 0.70999998 4294967295
0.049511444 -0.043537665 0.70999998 4294967295
0.050834376 -0.043538459 0.70999998 4294967295
0.052157257 -0.043539286 0.70999998 4294967295
0.053480081 -0.043540146 0.70999998 4294967295
0.054494094 -0.043295737 0.70599997 4294967295
0.05533506 -0.042928703 0.69999999 4294967295
0.056477252 -0.042806998 0.69800001 4294967295
0.057777502 -0.042807974 0.69800001 4294967295
0.058993045 -0.042747661 0.69700003 4294967295
0.060291316 -0.042748708 0.69700003 4294967295
0.06150116 -0.042688452 0.69599998 4294967295
0.062797442 -0.042689566 0.69599998 4294967295
0.064093679 -0.042690709 0.69599998 4294967295
0.065389842 -0.04269189 0.69599998 4294967295
0.066494346 -0.042570427 0.69400001 4294967295
0.067786679 -0.042571668 0.69400001 4294967295
0.069078952 -0.042572942 0.69400001 4294967295
0.070269778 -0.042512909 0.69300002 4294967295
0.07156007 -0.04251425 0.69300002 4294967295
0.072850309 -0.042515628 0.69300002 4294967295
0.07381954 -0.042332981 0.69 4294967295
0.075104073 -0.042334419 0.69 4294967295
0.076388553 -0.042335887 0.69 4294967295
0.077672973 -0.042337395 0.69 4294967295
0.078728475 -0.042216212 0.68800002 4294967295
0.079892755 -0.042156409 0.68699998 4294967295
0.081171416 -0.042158015 0.68699998 4294967295
0.08245001 -0.042159639 0.68699998 4294967295
0.083728552 -0.042161308 0.68699998 4294967295
0.085130773 -0.042224385 0.68800002 4294967295
0.086411044 -0.042226117 0.68800002 4294967295
0.087563798 -0.042166505 0.68699998 4294967295
0.088842109 -0.042168304 0.68699998 4294967295
0.09012036 -0.042170145 0.68699998 4294967295
0.091398537 -0.042172007 0.68699998 4294967295
0.09267664 -0.042173907 0.68699998 4294967295
0.093544424 -0.04199167 0.68400002 4294967295
0.094816826 -0.041993629 0.68400002 4294967295
0.096089199 -0.041995626 0.68400002 4294967295
0.09736149 -0.041997653 0.68400002 4294967295
0.098922104 -0.042122517 0.68599999 4294967295
0.099905878 -0.042001806 0.68400002 4294967295
0.10117798 -0.042003937 0.68400002 4294967295
0.10245004 -0.042006098 0.68400002 4294967295
0.1040253 -0.042131122 0.68599999 4294967295
0.10530094 -0.042133357 0.68599999 4294967295
0.10657652 -0.042135626 0.68599999 4294967295
0.10800926 -0.042199362 0.68699998 4294967295
0.10928656 -0.042201698 0.68699998 4294967295
0.11056382 -0.042204071 0.68699998 4294967295
0.11184102 -0.042206481 0.68699998 4294967295
0.11311814 -0.042208929 0.68699998 4294967295
0.1143952 -0.042211406 0.68699998 4294967295
0.11584059 -0.042275365 0.68800002 4294967295
0.11711938 -0.042277921 0.68800002 4294967295
0.11839812 -0.042280506 0.68800002 4294967295
0.11967681 -0.042283125 0.68800002 4294967295
0.12095542 -0.042285774 0.68800002 4294967295
0.12223396 -0.04228846 0.68800002 4294967295
0.12333292 -0.042229716 0.68699998 4294967295
0.12460946 -0.042232465 0.68699998 4294967295
0.12588598 -0.042235252 0.68699998 4294967295
0.12716241 -0.042238075 0.68699998 4294967295
0.12843879 -0.042240929 0.68699998 4294967295
0.13028154 -0.042428296 0.69 4294967295
0.13156335 -0.042431235 0.69 4294967295
0.13303763 -0.042495701 0.69099998 4294967295
0.13470997 -0.042621724 0.69300002 4294967295
0.13599718 -0.042624783 0.69300002 4294967295
0.13728431 -0.042627871 0.69300002 4294967295
0.13857137 -0.042630997 0.69300002 4294967295
0.1400602 -0.042695682 0.69400001 4294967295
0.14175634 -0.042821929 0.69599998 4294967295
0.14304881 -0.042825177 0.69599998 4294967295
0.1443412 -0.042828459 0.69599998 4294967295
0.14730747 -0.043324094 0.704 4294967295
0.14861459 -0.043327488 0.704 4294967295
0.14992164 -0.043330912 0.704 4294967295
0.15165824 -0.043457482 0.70599997 4294967295
0.1529689 -0.043460991 0.70599997 4294967295
0.154498 -0.043526102 0.70700002 4294967295
0.15581036 -0.043529686 0.70700002 4294967295
0.15778936 -0.043718033 0.70999998 4294967295
0.15910718 -0.043721709 0.70999998 4294967295
0.16042493 -0.04372542 0.70999998 4294967295
0.16265382 -0.043975528 0.71399999 4294967295
0.16512717 -0.044287309 0.71899998 4294967295
0.16646142 -0.04429118 0.71899998 4294967295
0.16849571 -0.04447991 0.722 4294967295
0.029454347 -0.043874901 0.73799998 4292930029
0.030830309 -0.043875173 0.73799998 4293783535
0.032206222 -0.043875482 0.73799998 4294770686
0.035693616 -0.043103732 0.72500002 4294967295
0.036942881 -0.042985268 0.72299999 4294967295
0.038237602 -0.042926293 0.722 4294967295
0.039473712 -0.042807896 0.72000003 4294967295
0.040759005 -0.042748984 0.71899998 4294967295
0.041981958 -0.042630646 0.71700001 4294967295
0.043318238 -0.042631261 0.71700001 4294967295
0.044405341 -0.042394068 0.713 4294967295
0.045605771 -0.042275827 0.71100003 4294967295
0.046930701 -0.042276535 0.71100003 4294967295
0.048187707 -0.042217813 0.70999998 4294967295
0.049510669 -0.042218592 0.70999998 4294967295
0.050690368 -0.042100474 0.708 4294967295
0.052009489 -0.042101316 0.708 4294967295
0.053177901 -0.041983262 0.70599997 4294967295
0.054107256 -0.041686825 0.70099998 4294967295
0.055334121 -0.041628297 0.69999999 4294967295
0.056476288 -0.041510325 0.69800001 4294967295
0.057776503 -0.041511327 0.69800001 4294967295
0.058992013 -0.041452892 0.69700003 4294967295
0.06029024 -0.041453954 0.69700003 4294967295
0.061500054 -0.041395575 0.69599998 4294967295
0.06279631 -0.041396707 0.69599998 4294967295
0.064092509 -0.041397873 0.69599998 4294967295
0.06538865 -0.041399073 0.69599998 4294967295
0.066684738 -0.041400302 0.69599998 4294967295
0.067785427 -0.041282602 0.69400001 4294967295
0.068978116 -0.041224409 0.69300002 4294967295
0.070268445 -0.041225739 0.69300002 4294967295
0.071558706 -0.041227099 0.69300002 4294967295
0.072848924 -0.041228496 0.69300002 4294967295
0.073818117 -0.04105144 0.69 4294967295
0.07510262 -0.041052897 0.69 4294967295
0.076387063 -0.041054387 0.69 4294967295
0.077671453 -0.04105591 0.69 4294967295
0.078726932 -0.040938463 0.68800002 4294967295
0.079891175 -0.040880542 0.68699998 4294967295
0.081169799 -0.040882159 0.68699998 4294967295
0.082448363 -0.040883809 0.68699998 4294967295
0.083726861 -0.040885497 0.68699998 4294967295
0.08512906 -0.040946737 0.68800002 4294967295
0.086409301 -0.040948488 0.68800002 4294967295
0.087562032 -0.040890753 0.68699998 4294967295
0.088840298 -0.040892575 0.68699998 4294967295
0.090118498 -0.040894426 0.68699998 4294967295
0.091396645 -0.040896315 0.68699998 4294967295
0.092674725 -0.040898234 0.68699998 4294967295
0.09381599 -0.040840656 0.68599999 4294967295
0.095092095 -0.040842641 0.68599999 4294967295
0.096508615 -0.040904202 0.68699998 4294967295
0.097786456 -0.040906258 0.68699998 4294967295
0.099064216 -0.040908348 0.68699998 4294967295
0.09990377 -0.040731829 0.68400002 4294967295
0.10117584 -0.040733974 0.68400002 4294967295
0.10244787 -0.040736157 0.68400002 4294967295
0.10417473 -0.040917054 0.68699998 4294967295
0.10529868 -0.040859751 0.68599999 4294967295
0.10657424 -0.040862042 0.68599999 4294967295
0.10800694 -0.040923934 0.68699998 4294967295
0.10928422 -0.040926296 0.68699998 4294967295
0.11056144 -0.040928695 0.68699998 4294967295
0.1118386 -0.040931128 0.68699998 4294967295
0.11328035 -0.040993176 0.68800002 4294967295
0.11455923 -0.04099568 0.68800002 4294967295
0.11583808 -0.04099822 0.68800002 4294967295
0.11711684 -0.041000787 0.68800002 4294967295
0.11839551 -0.041003391 0.68800002 4294967295
0.11967416 -0.041006032 0.68800002 4294967295
0.12095275 -0.041008711 0.68800002 4294967295
0.12223125 -0.041011423 0.68800002 4294967295
0.12350971 -0.041014165 0.68800002 4294967295
0.12460671 -0.04095732 0.68699998 4294967295
0.12588316 -0.040960133 0.68699998 4294967295
0.12715957 -0.040962975 0.68699998 4294967295
0.12862287 -0.041025486 0.68800002 4294967295
0.13027863 -0.041147672 0.69 4294967295
0.13175106 -0.041210268 0.69099998 4294967295
0.13303465 -0.04121327 0.69099998 4294967295
0.13470693 -0.041335594 0.69300002 4294967295
0.13599411 -0.041338678 0.69300002 4294967295
0.13728122 -0.041341793 0.69300002 4294967295
0.1387682 -0.041404597 0.69400001 4294967295
0.14005703 -0.041407786 0.69400001 4294967295
0.14175314 -0.041530348 0.69599998 4294967295
0.14304554 -0.041533612 0.69599998 4294967295
0.14537482 -0.041835319 0.70099998 4294967295
0.14667638 -0.041838679 0.70099998 4294967295
0.1484001 -0.041961458 0.70300001 4294967295
0.14991821 -0.042024594 0.704 4294967295
0.15165477 -0.04214748 0.70599997 4294967295
0.15296538 -0.042151012 0.70599997 4294967295
0.15449442 -0.042214289 0.70700002 4294967295
0.15580676 -0.042217899 0.70700002 4294967295
0.15734126 -0.042281259 0.708 4294967295
0.1591035 -0.042404391 0.70999998 4294967295
0.16042119 -0.042408127 0.70999998 4294967295
0.16242224 -0.042591102 0.713 4294967295
0.16512333 -0.042953368 0.71899998 4294967295
0.16645753 -0.042957261 0.71899998 4294967295
0.036891319 -0.041584369 0.722 4294967295
0.038237102 -0.041584864 0.722 4294967295
0.03947318 -0.041470196 0.72000003 4294967295
0.040758438 -0.041413162 0.71899998 4294967295
0.041981362 -0.041298561 0.71700001 4294967295
0.043257188 -0.04124159 0.71600002 4294967295
0.044404678 -0.041069452 0.713 4294967295
0.045605078 -0.040954947 0.71100003 4294967295
0.046863955 -0.040898062 0.70999998 4294967295
0.048051205 -0.040783618 0.708 4294967295
0.049370401 -0.040784411 0.708 4294967295
0.050689537 -0.040785238 0.708 4294967295
0.05193517 -0.040728491 0.70700002 4294967295
0.053177007 -0.040671777 0.70599997 4294967295
0.054106336 -0.040384654 0.70099998 4294967295
0.055333167 -0.040327992 0.69999999 4294967295
0.056475293 -0.040213756 0.69800001 4294967295
0.057775479 -0.040214777 0.69800001 4294967295
0.058990959 -0.040158212 0.69700003 4294967295
0.060289159 -0.040159296 0.69700003 4294967295
0.061587304 -0.040160418 0.69700003 4294967295
0.062885381 -0.040161569 0.69700003 4294967295
0.064183414 -0.040162753 0.69700003 4294967295
0.065387428 -0.040106349 0.69599998 4294967295
0.066491865 -0.039992351 0.69400001 4294967295
0.067784138 -0.039993633 0.69400001 4294967295
0.068976812 -0.039937317 0.69300002 4294967295
0.070267104 -0.039938666 0.69300002 4294967295
0.071557328 -0.039940048 0.69300002 4294967295
0.072847508 -0.039941464 0.69300002 4294967295
0.073816672 -0.039769996 0.69 4294967295
0.075101145 -0.039771475 0.69 4294967295
0.076385558 -0.039772984 0.69 4294967295
0.077669911 -0.039774526 0.69 4294967295
0.07872536 -0.039660811 0.68800002 4294967295
0.080005862 -0.039662417 0.68800002 4294967295
0.08116816 -0.039606404 0.68699998 4294967295
0.082446694 -0.039608076 0.68699998 4294967295
0.083725169 -0.039609782 0.68699998 4294967295
0.085127324 -0.039669182 0.68800002 4294967295
0.08640752 -0.039670959 0.68800002 4294967295
0.087560214 -0.039615098 0.68699998 4294967295
0.088838451 -0.039616939 0.68699998 4294967295
0.090116628 -0.039618813 0.68699998 4294967295
0.09152779 -0.039678399 0.68800002 4294967295
0.092672788 -0.039622664 0.68699998 4294967295
0.093814015 -0.03956696 0.68599999 4294967295
0.095090084 -0.039568968 0.68599999 4294967295
0.096506573 -0.039628688 0.68699998 4294967295
0.097784378 -0.039630767 0.68699998 4294967295
0.099062122 -0.039632883 0.68699998 4294967295
0.099901639 -0.039461948 0.68400002 4294967295
0.10117368 -0.039464116 0.68400002 4294967295
0.10274521 -0.039581716 0.68599999 4294967295
0.10402085 -0.039583962 0.68599999 4294967295
0.10529641 -0.039586239 0.68599999 4294967295
0.10657193 -0.039588552 0.68599999 4294967295
0.10784739 -0.039590899 0.68599999 4294967295
0.10928185 -0.039650999 0.68699998 4294967295
0.11055903 -0.039653413 0.68699998 4294967295
0.11183614 -0.039655868 0.68699998 4294967295
0.11327787 -0.039716084 0.68800002 4294967295
0.11455672 -0.039718606 0.68800002 4294967295
0.11583552 -0.039721165 0.68800002 4294967295
0.11745469 -0.03983923 0.69 4294967295
0.11873706 -0.039841868 0.69 4294967295
0.12001939 -0.039844535 0.69 4294967295
0.12130164 -0.039847244 0.69 4294967295
0.12258386 -0.039849985 0.69 4294967295
0.12386599 -0.039852753 0.69 4294967295
0.1247853 -0.039740037 0.68800002 4294967295
0.12606359 -0.039742876 0.68800002 4294967295
0.12734182 -0.039745744 0.68800002 4294967295
0.12861998 -0.039748646 0.68800002 4294967295
0.13046449 -0.039924923 0.69099998 4294967295
0.13212942 -0.04004347 0.69300002 4294967295
0.13341668 -0.040046506 0.69300002 4294967295
0.13470386 -0.040049568 0.69300002 4294967295
0.13599102 -0.040052671 0.69300002 4294967295
0.13727809 -0.040055804 0.69300002 4294967295
0.13876502 -0.04011678 0.69400001 4294967295
0.14045745 -0.040235609 0.69599998 4294967295
0.14174989 -0.040238861 0.69599998 4294967295
0.14304228 -0.040242158 0.69599998 4294967295
0.14454198 -0.040303309 0.69700003 4294967295
0.14646378 -0.040480155 0.69999999 4294967295
0.14776339 -0.040483575 0.69999999 4294967295
0.1497018 -0.040660542 0.70300001 4294967295
0.15122166 -0.04072189 0.704 4294967295
0.15296184 -0.040841129 0.70599997 4294967295
0.15449086 -0.040902577 0.70700002 4294967295
0.15580314 -0.040906209 0.70700002 4294967295
0.15711537 -0.040909879 0.70700002 4294967295
0.15909979 -0.041087184 0.70999998 4294967295
0.1606434 -0.041148819 0.71100003 4294967295
0.16241844 -0.041268378 0.713 4294967295
0.16374154 -0.041272223 0.713 4294967295
0.16575912 -0.041449778 0.71600002 4294967293
0.036890838 -0.04024303 0.722 4294967295
0.038236585 -0.04024354 0.722 4294967295
0.039472628 -0.040132608 0.72000003 4294967295
0.040644474 -0.039965969 0.71700001 4294967295
0.041980743 -0.03996658 0.71700001 4294967295
0.04325654 -0.039911482 0.71600002 4294967295
0.044403996 -0.03974494 0.713 4294967295
0.045604356 -0.039634161 0.71100003 4294967295
0.046863209 -0.039579161 0.70999998 4294967295
0.048050426 -0.039468449 0.708 4294967295
0.049369588 -0.039469257 0.708 4294967295
0.050688695 -0.039470103 0.708 4294967295
0.051934287 -0.039415233 0.70700002 4294967295
0.05317609 -0.039360389 0.70599997 4294967295
0.054336943 -0.039249834 0.704 4294967295
0.055332188 -0.039027791 0.69999999 4294967295
0.056474295 -0.038917292 0.69800001 4294967295
0.057774436 -0.038918328 0.69800001 4294967295
0.05898989 -0.03886364 0.69700003 4294967295
0.060288053 -0.038864743 0.69700003 4294967295
0.06158616 -0.038865875 0.69700003 4294967295
0.062884212 -0.038867049 0.69700003 4294967295
0.064090118 -0.038812492 0.69599998 4294967295
0.065386191 -0.038813725 0.69599998 4294967295
0.066490598 -0.03870346 0.69400001 4294967295
0.067782834 -0.03870476 0.69400001 4294967295
0.068975486 -0.038650326 0.69300002 4294967295
0.07026574 -0.038651694 0.69300002 4294967295
0.071555935 -0.038653094 0.69300002 4294967295
0.07284607 -0.038654529 0.69300002 4294967295
0.074136145 -0.038655993 0.69300002 4294967295
0.075099647 -0.038490146 0.69 4294967295
0.07638403 -0.038491681 0.69 4294967295
0.077668346 -0.038493238 0.69 4294967295
0.078723766 -0.03838326 0.68800002 4294967295
0.080004245 -0.038384888 0.68800002 4294967295
0.081284657 -0.03838655 0.68800002 4294967295
0.082565017 -0.038388241 0.68800002 4294967295
0.083845317 -0.03838997 0.68800002 4294967295
0.085125558 -0.038391732 0.68800002 4294967295
0.086405724 -0.038393524 0.68800002 4294967295
0.087685853 -0.038395353 0.68800002 4294967295
0.088836588 -0.038341407 0.68699998 4294967295
0.090114743 -0.038343299 0.68699998 4294967295
0.09152586 -0.038401045 0.68800002 4294967295
0.092670836 -0.038347192 0.68699998 4294967295
0.093948781 -0.038349185 0.68699998 4294967295
0.095226668 -0.038351215 0.68699998 4294967295
0.096504509 -0.038353279 0.68699998 4294967295
0.097782277 -0.038355377 0.68699998 4294967295
0.099059992 -0.038357507 0.68699998 4294967295
0.099899493 -0.038192164 0.68400002 4294967295
0.10117151 -0.038194358 0.68400002 4294967295
0.10274298 -0.038308267 0.68599999 4294967295
0.1040186 -0.038310532 0.68599999 4294967295
0.10529413 -0.03831283 0.68599999 4294967295
0.1065696 -0.038315162 0.68599999 4294967295
0.10784502 -0.038317531 0.68599999 4294967295
0.10927945 -0.038375795 0.68699998 4294967295
0.11055661 -0.038378231 0.68699998 4294967295
0.11183368 -0.038380705 0.68699998 4294967295
0.11327536 -0.038439084 0.68800002 4294967295
0.11455419 -0.038441632 0.68800002 4294967295
0.11583293 -0.038444214 0.68800002 4294967295
0.11745208 -0.038558591 0.69 4294967295
0.11873443 -0.038561244 0.69 4294967295
0.12001672 -0.038563941 0.69 4294967295
0.12129893 -0.03856666 0.69 4294967295
0.12258109 -0.038569424 0.69 4294967295
0.12386319 -0.038572218 0.69 4294967295
0.12514521 -0.038575046 0.69 4294967295
0.1264272 -0.038577911 0.69 4294967295
0.12770911 -0.038580813 0.69 4294967295
0.12899095 -0.038583748 0.69 4294967295
0.13027273 -0.038586717 0.69 4294967295
0.13174509 -0.038645644 0.69099998 4294967295
0.1330286 -0.038648691 0.69099998 4294967295
0.13431205 -0.038651768 0.69099998 4294967295
0.13598789 -0.038766764 0.69300002 4294967295
0.13747303 -0.038825866 0.69400001 4294967295
0.13876185 -0.038829062 0.69400001 4294967295
0.1404542 -0.038944207 0.69599998 4294967295
0.14174661 -0.038947482 0.69599998 4294967295
0.14303897 -0.038950793 0.69599998 4294967295
0.14453866 -0.039010115 0.69700003 4294967295
0.14604193 -0.039069474 0.69800001 4294967295
0.14775999 -0.039184865 0.69999999 4294967295
0.14927243 -0.03924432 0.70099998 4294967295
0.15121815 -0.039415799 0.704 4294967295
0.15295827 -0.039531354 0.70599997 4294967295
0.15448725 -0.039590966 0.70700002 4294967295
0.15579951 -0.039594617 0.70700002 4294967295
0.15711169 -0.039598312 0.70700002 4294967295
0.15909605 -0.039770082 0.70999998 4294967295
0.16063963 -0.039829884 0.71100003 4294967295
0.16241463 -0.039945751 0.713 4294967295
0.16396734 -0.04000565 0.71399999 4294967295
0.16575521 -0.040121634 0.71600002 4294967290
0.16708371 -0.040125594 0.71600002 4294966513
0.16841216 -0.040129595 0.71600002 4294966259
0.036788147 -0.038794026 0.72000003 4294967295
0.038130131 -0.038794555 0.72000003 4294967295
0.039417233 -0.038741235 0.71899998 4294967295
0.040643875 -0.038634066 0.71700001 4294967295
0.041921556 -0.038580816 0.71600002 4294967295
0.043255869 -0.038581483 0.71600002 4294967295
0.044403289 -0.038420521 0.713 4294967295
0.045603633 -0.038313486 0.71100003 4294967295
0.046862442 -0.038260356 0.70999998 4294967295
0.048049629 -0.038153376 0.708 4294967295
0.04936875 -0.038154207 0.708 4294967295
0.050687831 -0.038155068 0.708 4294967295
0.051933385 -0.038102075 0.70700002 4294967295
0.053175159 -0.038049109 0.70599997 4294967295
0.054027256 -0.037726704 0.69999999 4294967295
0.055173114 -0.0376199 0.69800001 4294967295
0.05647327 -0.037620921 0.69800001 4294967295
0.057773378 -0.037621979 0.69800001 4294967295
0.058988802 -0.037569169 0.69700003 4294967295
0.060286928 -0.03757029 0.69700003 4294967295
0.061585009 -0.037571445 0.69700003 4294967295
0.062883027 -0.037572637 0.69700003 4294967295
0.064088896 -0.03751995 0.69599998 4294967295
0.065384932 -0.037521206 0.69599998 4294967295
0.066489309 -0.03741467 0.69400001 4294967295
0.067683846 -0.037362084 0.69300002 4294967295
0.068974122 -0.037363432 0.69300002 4294967295
0.070264347 -0.037364818 0.69300002 4294967295
0.071554512 -0.037366237 0.69300002 4294967295
0.07284461 -0.03736769 0.69300002 4294967295
0.074241638 -0.0374231 0.69400001 4294967295
0.075533487 -0.037424628 0.69400001 4294967295
0.076382481 -0.037210472 0.69 4294967295
0.077666759 -0.037212055 0.69 4294967295
0.078722157 -0.037105806 0.68800002 4294967295
0.080002606 -0.037107456 0.68800002 4294967295
0.081282981 -0.037109133 0.68800002 4294967295
0.082563318 -0.037110846 0.68800002 4294967295
0.083843574 -0.037112597 0.68800002 4294967295
0.085123777 -0.037114374 0.68800002 4294967295
0.086403921 -0.037116196 0.68800002 4294967295
0.087684005 -0.03711804 0.68800002 4294967295
0.08896403 -0.037119925 0.68800002 4294967295
0.090244003 -0.037121844 0.68800002 4294967295
0.091523901 -0.037123796 0.68800002 4294967295
0.092803732 -0.037125774 0.68800002 4294967295
0.094083533 -0.037127797 0.68800002 4294967295
0.095224641 -0.037075881 0.68699998 4294967295
0.096502438 -0.037077963 0.68699998 4294967295
0.097780176 -0.037080083 0.68699998 4294967295
0.099057838 -0.03708224 0.68699998 4294967295
0.1001894 -0.037030447 0.68599999 4294967295
0.10116929 -0.036924697 0.68400002 4294967295
0.10244121 -0.03692694 0.68400002 4294967295
0.1040163 -0.037037201 0.68599999 4294967295
0.10498483 -0.036931533 0.68400002 4294967295
0.10625657 -0.03693388 0.68400002 4294967295
0.10799984 -0.037098262 0.68699998 4294967295
0.10927702 -0.037100688 0.68699998 4294967295
0.11055413 -0.037103146 0.68699998 4294967295
0.11183119 -0.037105642 0.68699998 4294967295
0.11327283 -0.037162188 0.68800002 4294967295
0.11455162 -0.037164755 0.68800002 4294967295
0.11583034 -0.037167355 0.68800002 4294967295
0.11710902 -0.037169993 0.68800002 4294967295
0.11873175 -0.03728072 0.69 4294967295
0.120014 -0.037283435 0.69 4294967295
0.12129619 -0.037286185 0.69 4294967295
0.12257832 -0.037288968 0.69 4294967295
0.12386037 -0.03729178 0.69 4294967295
0.12514238 -0.037294634 0.69 4294967295
0.12642431 -0.037297521 0.69 4294967295
0.12770618 -0.037300445 0.69 4294967295
0.128988 -0.037303399 0.69 4294967295
0.13026975 -0.037306391 0.69 4294967295
0.13174208 -0.037363488 0.69099998 4294967295
0.13302554 -0.03736655 0.69099998 4294967295
0.13430895 -0.03736965 0.69099998 4294967295
0.13598478 -0.037480958 0.69300002 4294967295
0.13746984 -0.037538227 0.69400001 4294967295
0.13875864 -0.037541449 0.69400001 4294967295
0.14045095 -0.037652902 0.69599998 4294967295
0.14174333 -0.037656203 0.69599998 4294967295
0.14303567 -0.037659537 0.69599998 4294967295
0.14453529 -0.037717026 0.69700003 4294967295
0.14603853 -0.037774552 0.69800001 4294967295
0.14775652 -0.037886251 0.69999999 4294967295
0.14926895 -0.037943874 0.70099998 4294967295
0.1516442 -0.038218077 0.70599997 4294967295
0.15317135 -0.038275819 0.70700002 4294967295
0.15448363 -0.038279463 0.70700002 4294967295
0.15579584 -0.038283136 0.70700002 4294967295
0.15733021 -0.038341004 0.708 4294967295
0.15931639 -0.038507238 0.71100003 4294967295
0.16063584 -0.038511049 0.71100003 4294967295
0.16241078 -0.038623232 0.713 4294967295
0.16396345 -0.038681298 0.71399999 4294967287
0.16575128 -0.038793597 0.71600002 4294967022
0.16707975 -0.03879758 0.71600002 4294966250
0.16840816 -0.038801599 0.71600002 4294177250
0.036787633 -0.037456606 0.72000003 4294967295
0.038076621 -0.03740513 0.71899998 4294967295
0.039307006 -0.037301656 0.71700001 4294967295
0.04064326 -0.037302274 0.71700001 4294967295
0.041920904 -0.037250899 0.71600002 4294967295
0.043134354 -0.037147522 0.71399999 4294967295
0.044402573 -0.03709621 0.713 4294967295
0.045602873 -0.036992904 0.71100003 4294967295
0.04686166 -0.036941651 0.70999998 4294967295
0.048048805 -0.036838405 0.708 4294967295
0.049367905 -0.036839254 0.708 4294967295
0.050615348 -0.036788102 0.70700002 4294967295
0.05185901 -0.03673698 0.70599997 4294967295
0.053174213 -0.03673793 0.70599997 4294967295
0.054026268 -0.036426682 0.69999999 4294967295
0.055172104 -0.036323614 0.69800001 4294967295
0.056472227 -0.036324654 0.69800001 4294967295
0.057772305 -0.03632573 0.69800001 4294967295
0.058987688 -0.036274794 0.69700003 4294967295
0.060285788 -0.036275934 0.69700003 4294967295
0.061583832 -0.036277108 0.69700003 4294967295
0.062791593 -0.036226265 0.69599998 4294967295
0.064087652 -0.036227502 0.69599998 4294967295
0.065383658 -0.03622878 0.69599998 4294967295
0.066487998 -0.036125984 0.69400001 4294967295
0.067682505 -0.036075268 0.69300002 4294967295
0.068972759 -0.036076639 0.69300002 4294967295
0.070262946 -0.036078043 0.69300002 4294967295
0.071862817 -0.036235671 0.69599998 4294967295
0.072948255 -0.036133021 0.69400001 4294967295
0.074240133 -0.03613453 0.69400001 4294967295
0.075531945 -0.036136072 0.69400001 4294967295
0.076713011 -0.036085583 0.69300002 4294967295
0.077665158 -0.035930969 0.69 4294967295
0.078720525 -0.035828453 0.68800002 4294967295
0.08000093 -0.035830121 0.68800002 4294967295
0.081281282 -0.03583182 0.68800002 4294967295
0.082441568 -0.035781469 0.68699998 4294967295
0.083719932 -0.035783231 0.68699998 4294967295
0.08499825 -0.035785034 0.68699998 4294967295
0.086276494 -0.035786867 0.68699998 4294967295
0.087554693 -0.03578873 0.68699998 4294967295
0.088832825 -0.035790633 0.68699998 4294967295
0.090110905 -0.035792567 0.68699998 4294967295
0.091521949 -0.035846639 0.68800002 4294967295
0.092801742 -0.035848647 0.68800002 4294967295
0.094081491 -0.035850685 0.68800002 4294967295
0.095361188 -0.03585276 0.68800002 4294967295
0.096500337 -0.035802752 0.68699998 4294967295
0.097778037 -0.03580489 0.68699998 4294967295
0.09905567 -0.035807062 0.68699998 4294967295
0.10018721 -0.035757151 0.68599999 4294967295
0.10116708 -0.035655133 0.68400002 4294967295
0.10243895 -0.035657398 0.68400002 4294967295
0.10371077 -0.035659701 0.68400002 4294967295
0.10498252 -0.035662033 0.68400002 4294967295
0.10625421 -0.035664402 0.68400002 4294967295
0.10799744 -0.035823237 0.68699998 4294967295
0.10927459 -0.035825681 0.68699998 4294967295
0.11055167 -0.035828166 0.68699998 4294967295
0.11182868 -0.03583068 0.68699998 4294967295
0.11327028 -0.035885394 0.68800002 4294967295
0.11454904 -0.035887983 0.68800002 4294967295
0.11582773 -0.035890605 0.68800002 4294967295
0.11710637 -0.035893265 0.68800002 4294967295
0.11838491 -0.035895951 0.68800002 4294967295
0.12001128 -0.036003035 0.69 4294967295
0.12129343 -0.036005806 0.69 4294967295
0.12257553 -0.036008611 0.69 4294967295
0.12385756 -0.03601145 0.69 4294967295
0.12532087 -0.036066514 0.69099998 4294967295
0.12642141 -0.036017228 0.69 4294967295
0.12770326 -0.036020175 0.69 4294967295
0.12898503 -0.036023151 0.69 4294967295
0.13026676 -0.036026165 0.69 4294967295
0.13173902 -0.03608143 0.69099998 4294967295
0.13302247 -0.036084522 0.69099998 4294967295
0.13430585 -0.036087636 0.69099998 4294967295
0.13598162 -0.036195256 0.69300002 4294967295
0.13746665 -0.036250696 0.69400001 4294967295
0.13855547 -0.036201697 0.69300002 4294967295
0.13984232 -0.036204968 0.69300002 4294967295
0.14174002 -0.036365021 0.69599998 4294967295
0.1430323 -0.036368378 0.69599998 4294967295
0.14453189 -0.036424033 0.69700003 4294967295
0.1460351 -0.03647973 0.69800001 4294967295
0.14775306 -0.036587741 0.69999999 4294967295
0.14969131 -0.036748081 0.70300001 4294967295
0.15164061 -0.036908485 0.70599997 4294967295
0.15316774 -0.036964394 0.70700002 4294967295
0.15447997 -0.03696806 0.70700002 4294967295
0.15579216 -0.036971759 0.70700002 4294967295
0.15732649 -0.037027795 0.708 4294967295
0.15931259 -0.037188485 0.71100003 4294967295
0.16108386 -0.03729694 0.713 4294967295
0.16240692 -0.037300814 0.713 4294967294
0.16395955 -0.037357055 0.71399999 4294967030
0.16528432 -0.037361007 0.71399999 4294966253
0.16707577 -0.03746967 0.71600002 4294965996
0.16863932 -0.037526052 0.71700001 4293848287
0.036787096 -0.03611929 0.72000003 4294967295
0.038076047 -0.036069684 0.71899998 4294967295
0.039306406 -0.035969954 0.71700001 4294967295
0.040642623 -0.035970584 0.71700001 4294967295
0.041920234 -0.035921078 0.71600002 4294967295
0.04313365 -0.035821438 0.71399999 4294967295
0.044277288 -0.035671663 0.71100003 4294967295
0.045602106 -0.035672426 0.71100003 4294967295
0.046860859 -0.035623051 0.70999998 4294967295
0.047980107 -0.035473362 0.70700002 4294967295
0.04929731 -0.03547423 0.70700002 4294967295
0.050542854 -0.035424948 0.70599997 4294967295
0.051858079 -0.035425883 0.70599997 4294967295
0.053173244 -0.035426848 0.70599997 4294967295
0.054025285 -0.035126764 0.69999999 4294967295
0.05517108 -0.035027429 0.69800001 4294967295
0.056471176 -0.035028491 0.69800001 4294967295
0.057771213 -0.035029579 0.69800001 4294967295
0.058986567 -0.034980521 0.69700003 4294967295
0.060284626 -0.034981679 0.69700003 4294967295
0.06158264 -0.034982871 0.69700003 4294967295
0.062790364 -0.034933906 0.69599998 4294967295
0.064086393 -0.034935165 0.69599998 4294967295
0.065382361 -0.034936462 0.69599998 4294967295
0.066486686 -0.034837395 0.69400001 4294967295
0.067778811 -0.034838751 0.69400001 4294967295
0.069070891 -0.034840148 0.69400001 4294967295
0.070362903 -0.034841571 0.69400001 4294967295
0.071654864 -0.034843031 0.69400001 4294967295
0.072946765 -0.034844529 0.69400001 4294967295
0.074238606 -0.03484606 0.69400001 4294967295
0.075530387 -0.034847625 0.69400001 4294967295
0.076711416 -0.034799002 0.69300002 4294967295
0.077663541 -0.034649983 0.69 4294967295
0.078718878 -0.0345512 0.68800002 4294967295
0.079999246 -0.034552883 0.68800002 4294967295
0.081279568 -0.034554601 0.68800002 4294967295
0.082439817 -0.034506131 0.68699998 4294967295
0.083718158 -0.034507915 0.68699998 4294967295
0.084996432 -0.034509733 0.68699998 4294967295
0.086274654 -0.034511589 0.68699998 4294967295
0.087552808 -0.034513477 0.68699998 4294967295
0.088830911 -0.034515396 0.68699998 4294967295
0.090108939 -0.034517352 0.68699998 4294967295
0.091519959 -0.034569588 0.68800002 4294967295
0.092799723 -0.034571614 0.68800002 4294967295
0.094079427 -0.034573674 0.68800002 4294967295
0.095359094 -0.034575772 0.68800002 4294967295
0.096498214 -0.034527637 0.68699998 4294967295
0.097775877 -0.034529798 0.68699998 4294967295
0.099053487 -0.034531992 0.68699998 4294967295
0.100185 -0.034483954 0.68599999 4294967295
0.10146063 -0.034486212 0.68599999 4294967295
0.10273618 -0.034488503 0.68599999 4294967295
0.10370844 -0.034390278 0.68400002 4294967295
0.10498016 -0.034392629 0.68400002 4294967295
0.10625182 -0.034395024 0.68400002 4294967295
0.10783781 -0.034498021 0.68599999 4294967295
0.10911307 -0.034500487 0.68599999 4294967295
0.11038826 -0.034502983 0.68599999 4294967295
0.11166338 -0.034505516 0.68599999 4294967295
0.11293846 -0.034508087 0.68599999 4294967295
0.11437994 -0.034560993 0.68699998 4294967295
0.11565674 -0.034563638 0.68699998 4294967295
0.1171037 -0.034616631 0.68800002 4294967295
0.1183822 -0.034619343 0.68800002 4294967295
0.12000854 -0.034722738 0.69 4294967295
0.12129065 -0.034725528 0.69 4294967295
0.12257271 -0.034728352 0.69 4294967295
0.1238547 -0.034731213 0.69 4294967295
0.12513663 -0.034734108 0.69 4294967295
0.12641852 -0.034737039 0.69 4294967295
0.1277003 -0.034740005 0.69 4294967295
0.12898204 -0.034743007 0.69 4294967295
0.1302637 -0.03474604 0.69 4294967295
0.13154532 -0.034749109 0.69 4294967295
0.13282686 -0.034752212 0.69 4294967295
0.13410835 -0.03475536 0.69 4294967295
0.13558599 -0.034808904 0.69099998 4294967295
0.13726537 -0.034912884 0.69300002 4294967295
0.13855222 -0.03491614 0.69300002 4294967295
0.13983904 -0.034919437 0.69300002 4294967295
0.14112575 -0.034922767 0.69300002 4294967295
0.14261794 -0.034976527 0.69400001 4294967295
0.1439064 -0.034979936 0.69400001 4294967295
0.14645009 -0.035285827 0.69999999 4294967295
0.14774956 -0.035289336 0.69999999 4294967295
0.14968777 -0.035444137 0.70300001 4294967295
0.15163702 -0.035598997 0.70599997 4294967295
0.15316409 -0.035653073 0.70700002 4294967295
0.15469478 -0.035707191 0.708 4294967295
0.15600879 -0.035710923 0.708 4294967295
0.15732273 -0.035714686 0.708 4294967295
0.15930881 -0.035869844 0.71100003 4294967295
0.16062817 -0.035873696 0.71100003 4294967295
0.16194749 -0.035877585 0.71100003 4294966776
0.16372599 -0.035982449 0.713 4294769139
0.16528036 -0.036036894 0.71399999 4294768619
0.16707174 -0.036141872 0.71600002 4294965998
0.036786545 -0.034782071 0.72000003 4294967295
0.038075466 -0.034734339 0.71899998 4294967295
0.039415423 -0.034734961 0.71899998 4294967295
0.040641967 -0.034638993 0.71700001 4294967295
0.041919544 -0.034591366 0.71600002 4294967295
0.043132927 -0.034495454 0.71399999 4294967295
0.044276536 -0.034351271 0.71100003 4294967295
0.045537177 -0.034303732 0.70999998 4294967295
0.046860039 -0.034304552 0.70999998 4294967295
0.047979254 -0.03416045 0.70700002 4294967295
0.049296424 -0.034161333 0.70700002 4294967295
0.050541934 -0.034113932 0.70599997 4294967295
0.051857121 -0.034114886 0.70599997 4294967295
0.053172246 -0.03411587 0.70599997 4294967295
0.054024268 -0.033826947 0.69999999 4294967295
0.055328108 -0.03382799 0.69999999 4294967295
0.056470092 -0.033732422 0.69800001 4294967295
0.057770096 -0.033733528 0.69800001 4294967295
0.058985416 -0.033686344 0.69700003 4294967295
0.060283449 -0.033687521 0.69700003 4294967295
0.061581425 -0.033688739 0.69700003 4294967295
0.062879339 -0.033689983 0.69700003 4294967295
0.064085111 -0.033642922 0.69599998 4294967295
0.065381058 -0.033644237 0.69599998 4294967295
0.06648533 -0.033548903 0.69400001 4294967295
0.06777744 -0.033550281 0.69400001 4294967295
0.069069475 -0.033551693 0.69400001 4294967295
0.070361465 -0.033553138 0.69400001 4294967295
0.071653381 -0.033554621 0.69400001 4294967295
0.072945252 -0.033556137 0.69400001 4294967295
0.074237056 -0.033557687 0.69400001 4294967295
0.075528808 -0.03355927 0.69400001 4294967295
0.076709799 -0.033512525 0.69300002 4294967295
0.077661909 -0.033369094 0.69 4294967295
0.078717202 -0.033274043 0.68800002 4294967295
0.079997547 -0.033275746 0.68800002 4294967295
0.081277832 -0.033277486 0.68800002 4294967295
0.082558051 -0.033279262 0.68800002 4294967295
0.083716363 -0.033232693 0.68699998 4294967295
0.084994599 -0.033234533 0.68699998 4294967295
0.086272791 -0.033236407 0.68699998 4294967295
0.087550916 -0.033238314 0.68699998 4294967295
0.088828973 -0.033240255 0.68699998 4294967295
0.090106972 -0.033242229 0.68699998 4294967295
0.091517948 -0.033292629 0.68800002 4294967295
0.092797682 -0.033294681 0.68800002 4294967295
0.094077356 -0.03329676 0.68800002 4294967295
0.095356978 -0.03329888 0.68800002 4294967295
0.096496075 -0.033252623 0.68699998 4294967295
0.097773716 -0.033254802 0.68699998 4294967295
0.099051274 -0.033257015 0.68699998 4294967295
0.10018275 -0.033210851 0.68599999 4294967295
0.10145835 -0.033213131 0.68599999 4294967295
0.10273388 -0.033215445 0.68599999 4294967295
0.10400935 -0.033217795 0.68599999 4294967295
0.10497779 -0.033123329 0.68400002 4294967295
0.10624942 -0.03312574 0.68400002 4294967295
0.10783536 -0.033225048 0.68599999 4294967295
0.10911059 -0.033227533 0.68599999 4294967295
0.11038574 -0.033230051 0.68599999 4294967295
0.11166083 -0.033232607 0.68599999 4294967295
0.11293586 -0.033235196 0.68599999 4294967295
0.11421084 -0.033237822 0.68599999 4294967295
0.11548574 -0.033240482 0.68599999 4294967295
0.11693079 -0.03329163 0.68699998 4294967295
0.11837949 -0.033342831 0.68800002 4294967295
0.11965792 -0.033345602 0.68800002 4294967295
0.12128785 -0.033445347 0.69 4294967295
0.12256987 -0.033448193 0.69 4294967295
0.12385183 -0.033451077 0.69 4294967295
0.12513372 -0.033453993 0.69 4294967295
0.12641555 -0.033456944 0.69 4294967295
0.12769732 -0.033459935 0.69 4294967295
0.12897903 -0.033462957 0.69 4294967295
0.13026068 -0.033466015 0.69 4294967295
0.13154224 -0.033469107 0.69 4294967295
0.13282374 -0.033472233 0.69 4294967295
0.13410521 -0.033475399 0.69 4294967295
0.1355828 -0.033527113 0.69099998 4294967295
0.13726215 -0.033627402 0.69300002 4294967295
0.13854894 -0.033630684 0.69300002 4294967295
0.13983572 -0.033634 0.69300002 4294967295
0.14112242 -0.033637349 0.69300002 4294967295
0.14240906 -0.033640742 0.69300002 4294967295
0.14390299 -0.033692714 0.69400001 4294967295
0.1464466 -0.033987496 0.69999999 4294967295
0.14795712 -0.034039587 0.70099998 4294967295
0.14968421 -0.034140285 0.70300001 4294967295
0.1516334 -0.03428961 0.70599997 4294967295
0.15316042 -0.034341849 0.70700002 4294967295
0.15469109 -0.034394141 0.708 4294967295
0.15600505 -0.034397893 0.708 4294967295
0.15731896 -0.034401685 0.708 4294967295
0.15930498 -0.034551296 0.71100003 4294967295
0.16062433 -0.034555174 0.71100003 4294967295
0.16194358 -0.034559086 0.71100003 4294835184
0.16372205 -0.034660261 0.713 4294703342
0.16527638 -0.034712877 0.71399999 4294373861
0.036785971 -0.033444963 0.72000003 4294967295
0.038074858 -0.033399109 0.71899998 4294967295
0.039414786 -0.033399746 0.71899998 4294967295
0.040641297 -0.033307508 0.71700001 4294967295
0.041918837 -0.033261754 0.71600002 4294967295
0.042950962 -0.033030212 0.71100003 4294967295
0.044275764 -0.033030983 0.71100003 4294967295
0.045536373 -0.032985322 0.70999998 4294967295
0.046727203 -0.03289324 0.708 4294967295
0.047978386 -0.032847647 0.70700002 4294967295
0.049295522 -0.032848552 0.70700002 4294967295
0.050540995 -0.032803021 0.70599997 4294967295
0.051856156 -0.03280399 0.70599997 4294967295
0.053020626 -0.032712065 0.704 4294967295
0.054023232 -0.032527231 0.69999999 4294967295
0.055327043 -0.032528292 0.69999999 4294967295
0.05646899 -0.032436453 0.69800001 4294967295
0.057768967 -0.032437582 0.69800001 4294967295
0.058984254 -0.032392275 0.69700003 4294967295
0.060282253 -0.03239347 0.69700003 4294967295
0.061580189 -0.032394703 0.69700003 4294967295
0.062878072 -0.03239597 0.69700003 4294967295
0.064083822 -0.03235079 0.69599998 4294967295
0.065379716 -0.032352116 0.69599998 4294967295
0.066483974 -0.032260519 0.69400001 4294967295
0.067776039 -0.032261912 0.69400001 4294967295
0.069068044 -0.032263346 0.69400001 4294967295
0.070359997 -0.03226481 0.69400001 4294967295
0.071651883 -0.032266308 0.69400001 4294967295
0.07294371 -0.032267846 0.69400001 4294967295
0.074235491 -0.032269415 0.69400001 4294967295
0.075527199 -0.03227102 0.69400001 4294967295
0.076818854 -0.032272652 0.69400001 4294967295
0.077772796 -0.032134809 0.69099998 4294967295
0.07894434 -0.032090005 0.69 4294967295
0.080228373 -0.032091733 0.69 4294967295
0.081276074 -0.032000475 0.68800002 4294967295
0.08255627 -0.03200227 0.68800002 4294967295
0.08371453 -0.031957574 0.68699998 4294967295
0.084992751 -0.031959437 0.68699998 4294967295
0.086270899 -0.031961333 0.68699998 4294967295
0.087548986 -0.031963259 0.68699998 4294967295
0.088956319 -0.032011747 0.68800002 4294967295
0.09023615 -0.032013748 0.68800002 4294967295
0.091515914 -0.032015782 0.68800002 4294967295
