# .PCD v0.7 - Point Cloud Data file format
VERSION 0.7
FIELDS x y z rgba
SIZE 4 4 4 4
TYPE F F F U
COUNT 1 1 1 1
WIDTH 1073
HEIGHT 1
VIEWPOINT 0 0 0 1 0 0 0
POINTS 1073
DATA ascii
0.04261722 0.14027709 0.80900002 4294375408
0.04411947 0.140274 0.80900002 4294046443
0.045734446 0.14061764 0.81099999 4294243558
0.047240291 0.14061445 0.81099999 4294309351
0.048746072 0.1406112 0.81099999 4294374629
0.050251797 0.14060792 0.81099999 4294045663
0.051757466 0.14060457 0.81099999 4293914593
0.053263057 0.14060117 0.81099999 4293519836
0.055173796 0.14163791 0.81699997 4292796108
0.056690417 0.14163439 0.81699997 4293256659
0.058206961 0.14163083 0.81699997 4293454040
0.059869662 0.1419739 0.81900001 4293256661
0.0613898 0.14197023 0.81900001 4293256661
0.063524388 0.14335321 0.82700002 4292927696
0.065216586 0.14369608 0.829 4292795597
0.066916138 0.14403886 0.83099997 4292861390
0.068458304 0.14403492 0.83099997 4292794834
0.07000038 0.14403091 0.83099997 4292597198
0.071542412 0.14402688 0.83099997 4292793548
0.073260278 0.14436939 0.833 4292530119
0.074805878 0.14436525 0.833 4292464063
0.076534726 0.14470765 0.83499998 4292464063
0.078457966 0.14539658 0.83899999 4291939254
0.080014497 0.14539224 0.83899999 4292005048
0.082154334 0.14642757 0.84500003 4291480504
0.084118165 0.14711623 0.84899998 4291546297
0.085693054 0.14711167 0.84899998 4291283639
0.087267876 0.14710708 0.84899998 4290428330
0.0899937 0.14900835 0.86000001 4290230186
0.091588795 0.1490036 0.86000001 4287927431
0.093183793 0.14899875 0.86000001 4286152580
0.094999157 0.14934039 0.86199999 4282533965
0.096597731 0.14933546 0.86199999 4282662725
-0.043446958 0.14816795 0.84500003 4294967295
-0.041775759 0.14781699 0.84299999 4294967295
-0.040112052 0.147466 0.84100002 4294967295
-0.038455833 0.14711495 0.83899999 4294967295
-0.036807101 0.14676385 0.83700001 4294967295
-0.035165854 0.14641269 0.83499998 4294967295
-0.033451587 0.14571081 0.83099997 4294967295
-0.03182904 0.14535956 0.829 4294967295
-0.030213982 0.14500827 0.82700002 4294967295
-0.028675754 0.1450076 0.82700002 4294967295
-0.027137576 0.14500687 0.82700002 4294967295
-0.025537536 0.14465541 0.82499999 4294967295
-0.023944985 0.14430392 0.82300001 4294967295
-0.02241439 0.14430307 0.82300001 4294967295
-0.020883845 0.14430213 0.82300001 4294967295
-0.019306315 0.14395049 0.82099998 4294967295
-0.017779585 0.14394948 0.82099998 4294967295
-0.016252907 0.14394841 0.82099998 4294967295
-0.014690402 0.14359662 0.81900001 4294967295
-0.01316754 0.14359544 0.81900001 4294967295
-0.011644727 0.14359421 0.81900001 4294967295
-0.010097247 0.14324227 0.81699997 4294967295
-0.008578253 0.14324094 0.81699997 4294967295
-0.0070593101 0.14323956 0.81699997 4294967295
-0.0055268561 0.1428875 0.815 4294967295
-0.0040018884 0.14253539 0.81300002 4294967295
-0.0024905351 0.14253384 0.81300002 4294967295
-0.00097682409 0.14218163 0.81099999 4294967295
0.00053070835 0.14218001 0.81099999 4294967295
0.002038189 0.14217833 0.81099999 4294967295
0.0035368737 0.14182599 0.80900002 4294967295
0.0050280709 0.14147359 0.80699998 4294967295
0.0065279594 0.14147176 0.80699998 4294967295
0.0080277957 0.14146988 0.80699998 4294967295
0.0095511917 0.14181857 0.80900002 4294967295
0.011054638 0.1418166 0.80900002 4294967295
0.01255803 0.14181459 0.80900002 4294967295
0.014061369 0.14181247 0.80900002 4294967295
0.015526174 0.14145978 0.80699998 4294967295
0.017025687 0.1414576 0.80699998 4294967295
0.018571058 0.14180595 0.80900002 4294967295
0.020074178 0.14180365 0.80900002 4294967295
0.021577243 0.14180133 0.80900002 4294967295
0.023080248 0.14179893 0.80900002 4294967295
0.024583204 0.14179648 0.80900002 4294967295
0.026086101 0.141794 0.80900002 4294967295
0.027588941 0.14179146 0.80900002 4294967295
0.029091721 0.14178886 0.80900002 4294967295
0.030594455 0.14178625 0.80900002 4294967295
0.03209712 0.14178354 0.80900002 4294967295
0.033599727 0.14178078 0.80900002 4294835959
0.035102282 0.14177798 0.80900002 4294704629
0.036604777 0.14177513 0.80900002 4294967286
0.038013007 0.14142175 0.80699998 4294967288
0.039315823 0.14071785 0.80299997 4294967286
0.040807001 0.14071487 0.80299997 4294506735
0.042508818 0.14141276 0.80699998 4294178033
0.044007305 0.14140968 0.80699998 4294046191
0.045505732 0.14140654 0.80699998 4294111455
0.04723708 0.14210422 0.81099999 4294111455
0.048742816 0.14210096 0.81099999 4294111445
0.050248489 0.14209767 0.81099999 4293979603
0.051881742 0.14244473 0.81300002 4293717984
0.053390995 0.1424413 0.81300002 4293323226
0.055170309 0.14313862 0.81699997 4293322452
0.056686878 0.14313507 0.81699997 4293256659
0.058203377 0.14313149 0.81699997 4293256148
0.05971982 0.14312784 0.81699997 4293321941
0.061386101 0.14347452 0.81900001 4293125584
0.063520603 0.14487222 0.82700002 4292533190
0.065212734 0.14521872 0.829 4292532940
0.066751197 0.14521481 0.829 4292598734
0.06845434 0.14556117 0.83099997 4292663506
0.069996379 0.14555718 0.83099997 4292400591
0.071538344 0.1455531 0.83099997 4292268751
0.073256157 0.14589928 0.833 4291939786
0.074801706 0.14589511 0.833 4292071095
0.076530501 0.14624116 0.83499998 4292334010
0.078453667 0.1469374 0.83899999 4292203196
0.080010153 0.14693305 0.83899999 4292137403
0.081566572 0.14692864 0.83899999 4291939770
0.083122924 0.14692417 0.83899999 4292005563
0.08720243 0.15129749 0.86400002 4291807909
0.088805027 0.15129279 0.86400002 4290294414
0.090198256 0.15093781 0.86199999 4289505958
0.091796994 0.15093303 0.86199999 4284242775
0.093395673 0.15092818 0.86199999 4282666317
0.094994269 0.15092328 0.86199999 4282666317
0.096592784 0.15091832 0.86199999 4282929236
-0.046811946 0.15043022 0.84899998 4294967295
-0.045125823 0.15007569 0.847 4294967295
-0.043447189 0.1497211 0.84500003 4294967295
-0.041776046 0.14936647 0.84299999 4294967295
-0.040112387 0.14901176 0.84100002 4294967295
-0.03845622 0.14865702 0.83899999 4294967295
-0.036807541 0.14830224 0.83700001 4294967295
-0.035166346 0.14794739 0.83499998 4294967295
-0.033452131 0.14723814 0.83099997 4294967295
-0.031829633 0.14688319 0.829 4294967295
-0.030214621 0.14652821 0.82700002 4294967295
-0.028676447 0.14652751 0.82700002 4294967295
-0.027138324 0.14652678 0.82700002 4294967295
-0.025538335 0.14617164 0.82499999 4294967295
-0.023945834 0.14581646 0.82300001 4294967295
-0.022415288 0.14581558 0.82300001 4294967295
-0.020884795 0.14581464 0.82300001 4294967295
-0.019307313 0.14545929 0.82099998 4294967295
-0.017780636 0.14545824 0.82099998 4294967295
-0.01625401 0.14545716 0.82099998 4294967295
-0.014691554 0.14510168 0.81900001 4294967295
-0.013168743 0.14510049 0.81900001 4294967295
-0.011645981 0.14509925 0.81900001 4294967295
-0.010098549 0.14474362 0.81699997 4294967295
-0.0085796062 0.14474227 0.81699997 4294967295
-0.0070607155 0.14474086 0.81699997 4294967295
-0.0055283089 0.1443851 0.815 4294967295
-0.0040132375 0.14438361 0.815 4294967295
-0.002492087 0.14402777 0.81300002 4294967295
-0.00097842328 0.14367184 0.81099999 4294967295
0.0005290581 0.1436702 0.81099999 4294967295
0.0020364877 0.14366852 0.81099999 4294967295
0.0035351256 0.14331248 0.80900002 4294967295
0.0050262767 0.14295639 0.80699998 4294967295
0.006526114 0.14295454 0.80699998 4294967295
0.0080258995 0.14295267 0.80699998 4294967295
0.0095492387 0.14330499 0.80900002 4294967295
0.011052635 0.14330301 0.80900002 4294967295
0.012555977 0.14330095 0.80900002 4294967295
0.014059265 0.14329886 0.80900002 4294967295
0.015524024 0.14294244 0.80699998 4294967295
0.017023485 0.14294025 0.80699998 4294967295
0.018522896 0.14293802 0.80699998 4294967295
0.020022247 0.14293571 0.80699998 4294967295
0.021574883 0.1432876 0.80900002 4294967295
0.023077842 0.14328519 0.80900002 4294967295
0.024580743 0.14328273 0.80900002 4294967295
0.026148072 0.14363444 0.81099999 4294967295
0.027654573 0.14363188 0.81099999 4294967295
0.029161021 0.14362927 0.81099999 4294967295
0.030667413 0.14362659 0.81099999 4294967295
0.032173745 0.14362387 0.81099999 4294967295
0.033596963 0.14326692 0.80900002 4294638832
0.035099469 0.14326411 0.80900002 4294704625
0.036601909 0.14326124 0.80900002 4294836211
0.038010094 0.14290416 0.80699998 4294704625
0.039312877 0.1421929 0.80299997 4294901750
0.040804006 0.14218989 0.80299997 4294375406
0.04250576 0.14289513 0.80699998 4294243052
0.044004191 0.14289202 0.80699998 4293716708
0.045502573 0.14288884 0.80699998 4293388501
0.047233857 0.14359388 0.81099999 4293520088
0.048739538 0.14359058 0.81099999 4293848539
0.050369073 0.14394137 0.81300002 4293848539
0.052005969 0.14429207 0.815 4293454304
0.053650226 0.14464271 0.81699997 4293257181
0.055166803 0.14463919 0.81699997 4293322972
0.056683324 0.14463562 0.81699997 4293059800
0.058199767 0.14463201 0.81699997 4292663497
0.059716161 0.14462836 0.81699997 4293057999
0.061981972 0.14639485 0.82700002 4292927696
0.063516796 0.14639105 0.82700002 4292401352
0.065051563 0.14638719 0.82700002 4291810500
0.066747285 0.14673728 0.829 4291942087
0.068285622 0.14673331 0.829 4292137931
0.069823898 0.14672928 0.829 4292137931
0.071534276 0.1470792 0.83099997 4291875526
0.073252007 0.14742903 0.833 4291678147
0.074797519 0.14742483 0.833 4291743929
0.076709546 0.14812848 0.83700001 4291743929
0.078449346 0.14847812 0.83899999 4291874495
0.080005787 0.14847372 0.83899999 4291808702
0.081562154 0.14846928 0.83899999 4291477938
0.088800304 0.15287927 0.86400002 4290161551
0.090402767 0.15287451 0.86400002 4289176212
0.092005178 0.1528697 0.86400002 4283847235
0.093607493 0.1528648 0.86400002 4283190344
0.095209748 0.15285987 0.86400002 4283716944
0.096811943 0.15285489 0.86400002 4283716692
-0.046812091 0.15199061 0.84899998 4294967295
-0.045126021 0.15163238 0.847 4294967295
-0.043447442 0.1512741 0.84500003 4294967295
-0.041776352 0.15091577 0.84299999 4294967295
-0.040112745 0.15055738 0.84100002 4294967295
-0.038548302 0.150557 0.84100002 4294967295
-0.036895946 0.15019849 0.83899999 4294967295
-0.035251088 0.14983995 0.83700001 4294967295
-0.03345269 0.1487653 0.83099997 4294967295
-0.031907033 0.1487647 0.83099997 4294967295
-0.030288354 0.14840601 0.829 4294967295
-0.028746512 0.14840531 0.829 4294967295
-0.027139086 0.14804654 0.82700002 4294967295
-0.025539147 0.1476877 0.82499999 4294967295
-0.023946695 0.14732882 0.82300001 4294967295
-0.022416202 0.14732791 0.82300001 4294967295
-0.020885762 0.14732698 0.82300001 4294967295
-0.019308329 0.14696792 0.82099998 4294967295
-0.017781703 0.14696686 0.82099998 4294967295
-0.016255127 0.14696577 0.82099998 4294967295
-0.014692721 0.14660661 0.81900001 4294967295
-0.013169962 0.14660539 0.81900001 4294967295
-0.011647252 0.14660412 0.81900001 4294967295
-0.010124593 0.14660281 0.81900001 4294967295
-0.008580978 0.14624345 0.81699997 4294967295
-0.0070621385 0.14624204 0.81699997 4294967295
-0.0055433493 0.14624056 0.81699997 4294967295
-0.0040147593 0.14588107 0.815 4294967295
-0.002493656 0.14552152 0.81300002 4294967295
-0.00098245637 0.14551991 0.81300002 4294967295
0.00052869139 0.14551824 0.81300002 4294967295
0.0020347694 0.14515854 0.81099999 4294967295
0.0035333603 0.14479882 0.80900002 4294967295
0.005036917 0.14479701 0.80900002 4294967295
0.0065404219 0.14479515 0.80900002 4294967295
0.0080438731 0.14479324 0.80900002 4294967295
0.0095472708 0.14479128 0.80900002 4294967295
0.011050615 0.14478925 0.80900002 4294967295
0.012553904 0.14478719 0.80900002 4294967295
0.014057142 0.14478508 0.80900002 4294967295
0.015521857 0.14442497 0.80699998 4294967295
0.017021269 0.14442275 0.80699998 4294967295
0.018520627 0.14442049 0.80699998 4294967295
0.020019926 0.14441818 0.80699998 4294967295
0.021572508 0.14477372 0.80900002 4294967295
0.023075415 0.14477131 0.80900002 4294967295
0.024578266 0.14476882 0.80900002 4294967295
0.026145536 0.1451242 0.81099999 4294967293
0.02765199 0.14512159 0.81099999 4294967288
0.029158384 0.14511895 0.81099999 4294967285
0.030664727 0.14511628 0.81099999 4294704377
0.032171007 0.14511353 0.81099999 4294572791
0.033677232 0.14511076 0.81099999 4294441453
0.0351834 0.14510791 0.81099999 4294573039
0.036689505 0.14510503 0.81099999 4294441453
0.038101364 0.14474426 0.80900002 4293980902
0.039603639 0.14474125 0.80900002 4294243304
0.041207477 0.14509603 0.81099999 4294177511
0.042713352 0.14509295 0.81099999 4293848035
0.044219162 0.14508981 0.81099999 4293650656
0.045724921 0.1450866 0.81099999 4293650654
0.047347087 0.14544114 0.81300002 4293650654
0.048856433 0.14543785 0.81300002 4293584858
0.050489616 0.14579226 0.815 4293321943
0.052130166 0.14614661 0.81699997 4292993241
0.053646758 0.14614312 0.81699997 4292993241
0.055433363 0.1468551 0.82099998 4292993239
0.056679744 0.14613603 0.81699997 4292993239
0.05819615 0.14613239 0.81699997 4292663506
0.059712492 0.14612871 0.81699997 4292795093
0.061528537 0.14684041 0.82099998 4292598988
0.063205779 0.14719433 0.82300001 4292335559
0.065047681 0.14790583 0.82700002 4292072901
0.066743359 0.1482596 0.829 4292007107
0.068281643 0.1482556 0.829 4292006848
0.06981986 0.14825155 0.829 4291941055
0.071530178 0.14860511 0.83099997 4291810235
0.073247865 0.14895861 0.833 4291678649
0.074793309 0.14895441 0.833 4291808954
0.076705262 0.14966537 0.83700001 4291874747
0.07844501 0.15001863 0.83899999 4292071106
0.080001391 0.15001424 0.83899999 4291676348
0.081557713 0.1500098 0.83899999 4291215538
0.084798023 0.15304472 0.85600001 4291017902
0.086385749 0.15304007 0.85600001 4291214502
0.088795565 0.15446563 0.86400002 4289569421
0.090397984 0.15446083 0.86400002 4289044853
0.092000335 0.15445596 0.86400002 4282926104
0.093602598 0.15445107 0.86400002 4283257174
-0.045232788 0.15355062 0.84899998 4294967295
-0.043550543 0.15318866 0.847 4294967295
-0.041875791 0.15282662 0.84500003 4294967295
-0.040208507 0.15246455 0.84299999 4294967295
-0.03854873 0.15210244 0.84100002 4294967295
-0.036896423 0.15174024 0.83899999 4294967295
-0.035251617 0.15137802 0.83700001 4294967295
-0.033533778 0.15065403 0.833 4294967295
-0.031907659 0.1502917 0.83099997 4294967295
-0.030362105 0.15029103 0.83099997 4294967295
-0.028816594 0.15029031 0.83099997 4294967295
-0.027205503 0.14992785 0.829 4294967295
-0.025601894 0.14956534 0.82700002 4294967295
-0.024005771 0.14920273 0.82499999 4294967295
-0.022471612 0.14920181 0.82499999 4294967295
-0.020886743 0.14883915 0.82300001 4294967295
-0.019356402 0.14883812 0.82300001 4294967295
-0.01782611 0.14883704 0.82300001 4294967295
-0.016256263 0.14847423 0.82099998 4294967295
-0.014693905 0.14811137 0.81900001 4294967295
-0.013171198 0.14811012 0.81900001 4294967295
-0.01164854 0.14810887 0.81900001 4294967295
-0.010125933 0.14810751 0.81900001 4294967295
-0.0086033754 0.14810614 0.81900001 4294967295
-0.0070635774 0.14774305 0.81699997 4294967295
-0.0055448404 0.14774157 0.81699997 4294967295
-0.0040162979 0.14737836 0.815 4294967295
-0.002495242 0.14701511 0.81300002 4294967295
-0.00098409376 0.1470135 0.81300002 4294967295
0.00052700285 0.14701182 0.81300002 4294967295
0.0020330339 0.14664842 0.81099999 4294967295
0.0035403087 0.14664665 0.81099999 4294967295
0.0050475318 0.1466448 0.81099999 4294967295
0.0065547009 0.14664294 0.81099999 4294967295
0.0080618178 0.146641 0.81099999 4294967295
0.0095688822 0.14663902 0.81099999 4294967295
0.011075892 0.14663698 0.81099999 4294967295
0.012582848 0.14663489 0.81099999 4294967295
0.014055003 0.14627114 0.80900002 4294967295
0.015519673 0.14590734 0.80699998 4294967295
0.017019033 0.14590511 0.80699998 4294967295
0.018518342 0.14590284 0.80699998 4294967295
0.02001759 0.1459005 0.80699998 4294967295
0.021570116 0.14625971 0.80900002 4294967295
0.023072969 0.14625725 0.80900002 4294967295
0.024636526 0.14661632 0.81099999 4294967295
0.02614299 0.14661378 0.81099999 4294967295
0.027649386 0.14661118 0.81099999 4294967294
0.029155731 0.14660853 0.81099999 4294835959
0.030662023 0.14660583 0.81099999 4294572787
0.032247584 0.14696459 0.81300002 4294572787
0.033757474 0.14696179 0.81300002 4294113003
0.035267297 0.14695892 0.81300002 4294047210
0.036777072 0.14695603 0.81300002 4294178281
0.038286787 0.14695305 0.81300002 4294112488
0.039698534 0.14658852 0.81099999 4294505708
0.041204415 0.14658545 0.81099999 4294045157
0.042710237 0.14658234 0.81099999 4293650138
0.044216 0.14657918 0.81099999 4293716188
0.045834459 0.14693743 0.81300002 4293650654
0.047460288 0.14729564 0.815 4293584860
0.048973292 0.1472923 0.815 4293650138
0.050610129 0.14765035 0.81699997 4293452759
0.052254334 0.14800835 0.81900001 4293189587
0.053774588 0.14800484 0.81900001 4292992208
0.055429801 0.1483627 0.82099998 4292926413
0.056953639 0.14835909 0.82099998 4292597448
0.05847742 0.14835544 0.82099998 4292465862
0.060001135 0.1483517 0.82099998 4292465862
0.061524775 0.14834793 0.82099998 4292335557
0.063201956 0.1487055 0.82300001 4292335557
0.065201104 0.14978571 0.829 4292401093
0.066739388 0.14978176 0.829 4292006335
0.068442367 0.15013909 0.83099997 4291940290
0.069984242 0.150135 0.83099997 4291808448
0.071526073 0.15013088 0.83099997 4291546810
0.073067829 0.15012671 0.83099997 4291349432
0.074789084 0.1504838 0.833 4291545264
0.076700978 0.1512021 0.83700001 4291611057
0.078253657 0.15119775 0.83700001 4291610553
0.081141159 0.15372224 0.85100001 4291478967
0.082719684 0.15371771 0.85100001 4291150002
0.084793426 0.15461624 0.85600001 4290887086
0.086381093 0.15461159 0.85600001 4291017893
0.087968685 0.15460688 0.85600001 4288451710
0.089556202 0.1546021 0.85600001 4287268737
-0.045233026 0.15511066 0.84899998 4294967295
-0.043550823 0.15474501 0.847 4294967295
-0.041876119 0.15437929 0.84500003 4294967295
-0.040113509 0.15364815 0.84100002 4294967295
-0.038457494 0.15328233 0.83899999 4294967295
-0.03680896 0.15291645 0.83700001 4294967295
-0.035167925 0.15255053 0.83499998 4294967295
-0.033534374 0.15218456 0.833 4294967295
-0.031908303 0.15181853 0.83099997 4294967295
-0.030362802 0.15181786 0.83099997 4294967295
-0.028817341 0.15181711 0.83099997 4294967295
-0.027206298 0.15145096 0.829 4294967295
-0.025602741 0.15108474 0.82700002 4294967295
-0.024064869 0.15108387 0.82700002 4294967295
-0.022527043 0.15108292 0.82700002 4294967295
-0.020938504 0.15071656 0.82499999 4294967295
-0.019357454 0.15035014 0.82300001 4294967295
-0.017827213 0.15034905 0.82300001 4294967295
-0.016257418 0.14998253 0.82099998 4294967295
-0.014695109 0.14961597 0.81900001 4294967295
-0.013172451 0.14961475 0.81900001 4294967295
-0.011649846 0.14961343 0.81900001 4294967295
-0.010127289 0.14961208 0.81900001 4294967295
-0.0086047845 0.1496107 0.81900001 4294967295
-0.0070650345 0.14924388 0.81699997 4294967295
-0.0055463472 0.14924239 0.81699997 4294967295
-0.0040277126 0.14924084 0.81699997 4294967295
-0.0025029874 0.14887393 0.815 4294967295
-0.00098574813 0.14850694 0.81300002 4294967295
0.00052529701 0.14850523 0.81300002 4294967295
0.0020362905 0.1485035 0.81300002 4294967295
0.0035472314 0.14850168 0.81300002 4294967295
0.0050456766 0.14813451 0.81099999 4294967295
0.0065527945 0.14813261 0.81099999 4294967295
0.0080598611 0.14813064 0.81099999 4294967295
0.0095668733 0.14812866 0.81099999 4294967295
0.011073832 0.1481266 0.81099999 4294967295
0.012580737 0.1481245 0.81099999 4294967295
0.014052847 0.14775705 0.80900002 4294967295
0.01551747 0.14738958 0.80699998 4294967295
0.01701678 0.14738731 0.80699998 4294967295
0.018470149 0.14701976 0.80500001 4294967295
0.019965634 0.14701742 0.80500001 4294967295
0.021514382 0.14738026 0.80699998 4294967295
0.023070509 0.14774308 0.80900002 4294967294
0.024573257 0.14774056 0.80900002 4294967292
0.026140412 0.14810321 0.81099999 4294967291
0.027646763 0.1481006 0.81099999 4294967291
0.029153058 0.14809793 0.81099999 4294769652
0.030734908 0.14846043 0.81300002 4294704107
0.032244805 0.14845765 0.81300002 4294835693
0.033754636 0.14845482 0.81300002 4294112236
0.035264418 0.14845194 0.81300002 4293322976
0.036774136 0.148449 0.81300002 4293783007
0.038283799 0.14844602 0.81300002 4293585629
0.039793402 0.14844298 0.81300002 4293650402
0.041302949 0.1484399 0.81300002 4293584608
0.042707108 0.14807159 0.81099999 4293584345
0.044212822 0.1480684 0.81099999 4293518552
0.045831222 0.14843033 0.81300002 4293452761
0.047456987 0.14879215 0.815 4293386712
0.048969943 0.14878879 0.815 4293452759
0.05060672 0.14915052 0.81699997 4293255637
0.05225087 0.14951216 0.81900001 4293189319
0.053771067 0.14950866 0.81900001 4292926404
0.055291198 0.14950506 0.81900001 4292795334
0.05695001 0.14986652 0.82099998 4292466112
0.058473736 0.14986284 0.82099998 4292269505
0.059997398 0.1498591 0.82099998 4291414196
0.061670866 0.15022039 0.82300001 4291678649
0.063351691 0.15058157 0.82499999 4291876028
0.065197177 0.15130775 0.829 4291876030
0.066735424 0.15130375 0.829 4291612602
0.068273619 0.15129973 0.829 4291611586
0.069980152 0.15166065 0.83099997 4291545793
0.07152193 0.15165651 0.83099997 4291480504
0.073063642 0.15165231 0.83099997 4291217333
0.07478483 0.15201303 0.833 4291348403
0.076330118 0.15200876 0.833 4291414196
0.079558112 0.15528899 0.85100001 4291216297
0.081136659 0.15528448 0.85100001 4290756002
0.082715131 0.15527992 0.85100001 4290887338
0.084590681 0.15582269 0.85399997 4290360994
0.086174585 0.15581802 0.85399997 4290096789
0.087963946 0.15617818 0.85600001 4287464813
-0.0469229 0.1570399 0.85100001 4290357910
-0.045233272 0.15667059 0.84899998 4294967281
-0.043551128 0.15630123 0.847 4294967295
-0.041876476 0.15593183 0.84500003 4294967295
-0.040113911 0.15519331 0.84100002 4294967295
-0.038457949 0.15482378 0.83899999 4294967295
-0.036809471 0.15445422 0.83700001 4294967295
-0.035168476 0.15408461 0.83499998 4294967295
-0.033534981 0.15371495 0.833 4294967295
-0.031908963 0.15334524 0.83099997 4294967295
-0.030363515 0.15334454 0.83099997 4294967295
-0.028818104 0.15334378 0.83099997 4294967295
-0.027272752 0.15334299 0.83099997 4294967295
-0.025603605 0.15260404 0.82700002 4294967295
-0.024065783 0.15260312 0.82700002 4294967295
-0.022528009 0.15260218 0.82700002 4294967295
-0.020990286 0.15260115 0.82700002 4294967295
-0.019358521 0.15186201 0.82300001 4294967295
-0.017828332 0.15186091 0.82300001 4294967295
-0.016258586 0.15149069 0.82099998 4294967295
-0.014696326 0.15112045 0.81900001 4294967295
-0.013173721 0.15111919 0.81900001 4294967295
-0.011651168 0.15111788 0.81900001 4294967295
-0.010128662 0.15111652 0.81900001 4294967295
-0.0086062085 0.15111512 0.81900001 4294967295
-0.0070665064 0.1507446 0.81699997 4294967295
-0.0055478723 0.15074308 0.81699997 4294967295
-0.0040292898 0.15074153 0.81699997 4294967295
-0.0025046114 0.1503709 0.815 4294967295
-0.00098741974 0.15000023 0.81300002 4294967295
0.00052357418 0.14999852 0.81300002 4294967295
0.0020345163 0.14999676 0.81300002 4294967295
0.003545406 0.14999492 0.81300002 4294967295
0.0050562429 0.14999306 0.81300002 4294967295
0.0065508708 0.14962216 0.81099999 4294967295
0.0080578858 0.14962018 0.81099999 4294967295
0.0095648468 0.14961816 0.81099999 4294967295
0.011071756 0.14961609 0.81099999 4294967295
0.012578608 0.14961398 0.81099999 4294967295
0.014050672 0.14924283 0.80900002 4294967295
0.015553702 0.14924061 0.80900002 4294967293
0.017014509 0.1488694 0.80699998 4294967293
0.018467832 0.14849815 0.80500001 4294967295
0.019963268 0.14849578 0.80500001 4294967294
0.021511959 0.14886229 0.80699998 4294967291
0.023068028 0.14922875 0.80900002 4294835959
0.024570726 0.14922622 0.80900002 4294572787
0.026137823 0.14959253 0.81099999 4294375408
0.027644126 0.1495899 0.81099999 4294571756
0.029150367 0.14958721 0.81099999 4294308584
0.03073216 0.14995337 0.81300002 4294243045
0.032242004 0.14995056 0.81300002 4294177252
0.033751786 0.14994773 0.81300002 4293980389
0.035261516 0.14994481 0.81300002 4293519838
0.036861643 0.15031072 0.815 4294243045
0.038374964 0.15030771 0.815 4293716701
0.039790347 0.1499358 0.81300002 4293584345
0.041299839 0.1499327 0.81300002 4293650138
0.042914584 0.15029837 0.815 4293519067
0.044427671 0.15029515 0.815 4293190103
0.045940705 0.15029189 0.815 4292795597
0.047570117 0.15065736 0.81699997 4292795597
0.049086735 0.15065399 0.81699997 4292859595
0.05072717 0.15101935 0.81900001 4292990924
0.052247386 0.15101586 0.81900001 4292794048
0.053767528 0.15101232 0.81900001 4292991426
0.055287614 0.15100873 0.81900001 4292926665
0.056946367 0.15137385 0.82099998 4292926665
0.058470037 0.15137014 0.82099998 4292795595
0.059993647 0.15136637 0.82099998 4292006335
0.061667059 0.1517313 0.82300001 4291547833
0.063347824 0.15209614 0.82499999 4291613626
0.065193228 0.15282962 0.829 4291810248
0.066731431 0.15282562 0.829 4291020733
0.068269581 0.15282157 0.829 4291216564
0.069976054 0.15318614 0.83099997 4291216564
0.071517773 0.15318199 0.83099997 4291019186
0.073059432 0.15317778 0.83099997 4291019186
0.074601017 0.15317351 0.83099997 4290887852
0.077608593 0.1561183 0.847 4290756009
0.079179727 0.15611385 0.847 4290755496
0.080750786 0.15610933 0.847 4290821289
0.082710572 0.15684201 0.85100001 4290953143
0.084586054 0.15739024 0.85399997 4290163627
0.086169899 0.15738556 0.85399997 4289702810
0.087959193 0.15774937 0.85600001 4286807662
-0.048506178 0.1586035 0.85100001 4283716179
-0.046923116 0.15860331 0.85100001 4285293952
-0.04523354 0.15823032 0.84899998 4294241791
-0.043551441 0.15785727 0.847 4294967293
-0.041876845 0.15748417 0.84500003 4294967295
-0.040209725 0.15711103 0.84299999 4294967295
-0.038550094 0.15673782 0.84100002 4294967295
-0.03689795 0.15636456 0.83899999 4294967295
-0.035253294 0.15599129 0.83700001 4294967295
-0.033535603 0.1552452 0.833 4294967295
-0.031986441 0.15524453 0.833 4294967295
-0.030437322 0.1552438 0.833 4294967295
-0.028818889 0.1548703 0.83099997 4294967295
-0.027273584 0.15486948 0.83099997 4294967295
-0.025666408 0.15449587 0.829 4294967295
-0.024066716 0.15412223 0.82700002 4294967295
-0.022528995 0.15412126 0.82700002 4294967295
-0.020991324 0.15412024 0.82700002 4294967295
-0.019359607 0.15337372 0.82300001 4294967295
-0.017829472 0.15337259 0.82300001 4294967295
-0.016259771 0.1529987 0.82099998 4294967295
-0.01473345 0.15299746 0.82099998 4294967295
-0.013175009 0.1526235 0.81900001 4294967295
-0.011652505 0.15262216 0.81900001 4294967295
-0.010130052 0.15262078 0.81900001 4294967295
-0.0086076511 0.15261935 0.81900001 4294967295
-0.0070853001 0.15261786 0.81900001 4294967295
-0.0055629998 0.15261634 0.81900001 4294967295
-0.0040407507 0.15261473 0.81900001 4294967295
-0.0025124031 0.15224041 0.81699997 4294967295
-0.00099154143 0.15186605 0.815 4294967295
0.00052311795 0.15186429 0.815 4294967295
0.0020327247 0.15148985 0.81300002 4294967295
0.003543563 0.15148802 0.81300002 4294967295
0.0050543481 0.15148613 0.81300002 4294967295
0.006565081 0.15148418 0.81300002 4294967295
0.0080757607 0.15148219 0.81300002 4294967295
0.0095628034 0.1511075 0.81099999 4294967295
0.01106966 0.15110542 0.81099999 4294967295
0.012576462 0.15110327 0.81099999 4294967295
0.01404848 0.15072845 0.80900002 4294967295
0.015551458 0.15072623 0.80900002 4294835959
0.017054383 0.15072392 0.80900002 4294835959
0.018511375 0.15034898 0.80699998 4294835957
0.020010471 0.15034656 0.80699998 4294835957
0.021509519 0.15034415 0.80699998 4294901752
0.023065528 0.15071425 0.80900002 4294638580
0.024628909 0.15108429 0.81099999 4294638582
0.026135216 0.15108168 0.81099999 4294243824
0.027641471 0.15107904 0.81099999 4294571492
0.029147658 0.15107632 0.81099999 4294110941
0.030729393 0.15144613 0.81300002 4294110693
0.032239188 0.15144332 0.81300002 4294176487
0.033748917 0.15144044 0.81300002 4293848798
0.035258595 0.15143751 0.81300002 4293322454
0.036858659 0.15180707 0.815 4293323226
0.038371935 0.15180404 0.815 4293454556
0.039885152 0.15180098 0.815 4293387218
0.041398309 0.15179786 0.815 4293058253
0.042911403 0.15179466 0.815 4293058262
0.04453345 0.15216389 0.81699997 4292861140
0.046050142 0.15216061 0.81699997 4292926663
0.047566768 0.15215726 0.81699997 4292729540
0.049083337 0.15215386 0.81699997 4292926161
0.05072372 0.15252289 0.81900001 4292992210
0.05224387 0.15251938 0.81900001 4292597700
0.053763971 0.15251581 0.81900001 4292466114
0.055284008 0.15251221 0.81900001 4292137410
0.056942701 0.15288095 0.82099998 4292137410
0.058466312 0.15287723 0.82099998 4292072641
0.059989881 0.15287347 0.82099998 4292006848
0.061663233 0.15324205 0.82300001 4291612856
0.063190378 0.15323816 0.82300001 4291218098
0.065189265 0.15435134 0.829 4291217092
0.066727415 0.15434733 0.829 4290954176
0.068265513 0.15434325 0.829 4291085485
0.069971934 0.15471148 0.83099997 4291085485
0.071513608 0.15470731 0.83099997 4291216564
0.073055208 0.15470307 0.83099997 4291216564
0.07459674 0.15469879 0.83099997 4290624693
0.077420935 0.15730062 0.84500003 4290229936
0.078988306 0.15729617 0.84500003 4290558383
0.080746286 0.15766393 0.847 4290361004
0.082511596 0.15803161 0.84899998 4290096560
0.084779486 0.15932994 0.85600001 4289767851
0.086366989 0.1593252 0.85600001 4289242527
-0.048506353 0.16016679 0.85100001 4282599490
-0.046923343 0.16016658 0.85100001 4284833610
-0.045340382 0.16016632 0.85100001 4293781458
-0.043654613 0.15978958 0.84899998 4293916142
-0.041976348 0.15941279 0.847 4294967295
-0.040210165 0.15865955 0.84299999 4294967295
-0.038550586 0.15828265 0.84100002 4294967295
-0.036898494 0.15790571 0.83899999 4294967295
-0.035253886 0.15752871 0.83700001 4294967295
-0.033616766 0.15715165 0.83499998 4294967295
-0.031987138 0.15677458 0.833 4294967295
-0.030438069 0.15677385 0.833 4294967295
-0.028889049 0.15677306 0.833 4294967295
-0.027274435 0.15639582 0.83099997 4294967295
-0.025667308 0.15601853 0.829 4294967295
-0.024067666 0.15564118 0.82700002 4294967295
-0.022529999 0.1556402 0.82700002 4294967295
-0.02099238 0.15563916 0.82700002 4294967295
-0.019407757 0.15526168 0.82499999 4294967295
-0.017830623 0.15488413 0.82300001 4294967295
-0.016260976 0.15450655 0.82099998 4294967295
-0.014698813 0.15412891 0.81900001 4294967295
-0.013176311 0.15412763 0.81900001 4294967295
-0.011653861 0.15412629 0.81900001 4294967295
-0.01013146 0.15412489 0.81900001 4294967295
-0.0086091105 0.15412346 0.81900001 4294967295
-0.0070868093 0.15412194 0.81900001 4294967295
-0.0055645616 0.15412037 0.81900001 4294967295
-0.0040423651 0.15411878 0.81900001 4294967295
-0.0025140652 0.15374075 0.81699997 4294967295
-0.00099568872 0.15373905 0.81699997 4294967295
0.00052263582 0.15373729 0.81699997 4294967295
0.0020359121 0.15335914 0.815 4294967295
0.0035417026 0.15298097 0.81300002 4294967295
0.0050524366 0.15297905 0.81300002 4294967295
0.0065631177 0.15297709 0.81300002 4294967295
0.0080737453 0.15297508 0.81300002 4294967295
0.0095607424 0.15259671 0.81099999 4294967295
0.011067548 0.1525946 0.81099999 4294967295
0.012574299 0.15259244 0.81099999 4294967295
0.014046273 0.15221393 0.80900002 4294967295
0.015549199 0.15221167 0.80900002 4294704627
0.017009914 0.15183309 0.80699998 4294704627
0.018509019 0.15183072 0.80699998 4294901750
0.020008065 0.15182832 0.80699998 4294967287
0.021507058 0.15182586 0.80699998 4294967289
0.023120027 0.15257588 0.81099999 4294704629
0.024626339 0.15257332 0.81099999 4294638580
0.026132593 0.15257069 0.81099999 4294441201
0.027638791 0.15256801 0.81099999 4294899690
0.029216805 0.15294154 0.81300002 4294439139
0.030726606 0.15293875 0.81300002 4294307301
0.032236353 0.15293592 0.81300002 4294241507
0.033746034 0.15293303 0.81300002 4293717730
0.035255652 0.15293008 0.81300002 4293125593
0.03685566 0.1533033 0.815 4293191388
0.038368892 0.15330024 0.815 4293191388
0.039882053 0.15329714 0.815 4292993491
0.041395158 0.153294 0.815 4292796112
0.042908203 0.15329079 0.815 4292532940
0.044530191 0.15366371 0.81699997 4292664527
0.046046834 0.15366039 0.81699997 4292927435
0.047563408 0.15365702 0.81699997 4292664006
0.049200073 0.15402974 0.81900001 4292795597
0.050720245 0.15402628 0.81900001 4292795597
0.052240349 0.15402274 0.81900001 4292466886
0.053760391 0.15401916 0.81900001 4291874493
0.055280384 0.15401553 0.81900001 4291546297
0.056939013 0.15438795 0.82099998 4291743677
0.058462575 0.1543842 0.82099998 4291810500
0.059986085 0.15438041 0.82099998 4291744451
0.061659373 0.15475264 0.82300001 4291546810
0.063186474 0.15474875 0.82300001 4291086259
0.065185294 0.15587293 0.829 4291281592
0.066723384 0.15586889 0.829 4291215799
0.068261422 0.15586479 0.829 4291478965
0.070136182 0.15661269 0.833 4291478965
0.071853608 0.15698449 0.83499998 4291216562
0.073754221 0.15773223 0.83899999 4291019440
0.075490072 0.15810387 0.84100002 4290362800
0.07723327 0.15847544 0.84299999 4290362800
0.078796878 0.15847096 0.84299999 4290953391
0.080741741 0.15921836 0.847 4289966496
0.082506992 0.15958971 0.84899998 4290030755
0.084081545 0.15958506 0.84899998 4289570204
-0.046923589 0.16172972 0.85100001 4284045139
-0.045340676 0.16172944 0.85100001 4290229938
-0.043654963 0.16134901 0.84899998 4293321943
-0.04197675 0.16096851 0.847 4294967284
-0.040210623 0.16020791 0.84299999 4294967295
-0.038551092 0.15982734 0.84100002 4294967295
-0.036899045 0.15944667 0.83899999 4294967295
-0.035254497 0.15906599 0.83700001 4294967295
-0.033617426 0.15868528 0.83499998 4294967295
-0.032064643 0.15868458 0.83499998 4294967295
-0.030438837 0.15830374 0.833 4294967295
-0.028889863 0.15830295 0.833 4294967295
-0.027275302 0.15792201 0.83099997 4294967295
-0.025668226 0.15754104 0.829 4294967295
-0.024068635 0.15716001 0.82700002 4294967295
-0.022531018 0.157159 0.82700002 4294967295
-0.021044221 0.15753801 0.829 4294967295
-0.019408878 0.15677677 0.82499999 4294967295
-0.017831795 0.15639554 0.82300001 4294967295
-0.016262194 0.15601425 0.82099998 4294967295
-0.014700081 0.15563296 0.81900001 4294967295
-0.013177632 0.15563163 0.81900001 4294967295
-0.011655233 0.15563028 0.81900001 4294967295
-0.010132884 0.15562886 0.81900001 4294967295
-0.0086105857 0.15562738 0.81900001 4294967295
-0.007088338 0.15562588 0.81900001 4294967295
-0.005566142 0.1556243 0.81900001 4294967295
-0.0040341211 0.15524264 0.81699997 4294967295
-0.0025157444 0.15524097 0.81699997 4294967295
-0.00099741993 0.15523924 0.81699997 4294967295
0.0005208528 0.15523747 0.81699997 4294967295
0.0020390735 0.15523565 0.81699997 4294967295
0.0035485332 0.15485376 0.815 4294967295
0.0050505083 0.15447183 0.81300002 4294967295
0.0065611377 0.15446986 0.81300002 4294967295
0.0080717141 0.15446785 0.81300002 4294967295
0.0095586637 0.15408576 0.81099999 4294967295
0.011065418 0.15408364 0.81099999 4294967295
0.012572118 0.15408146 0.81099999 4294967295
0.014044043 0.15369926 0.80900002 4294967295
0.015546922 0.15369698 0.80900002 4294704627
0.017007589 0.15331468 0.80699998 4294573041
0.018506642 0.15331231 0.80699998 4294835957
0.020005642 0.15330991 0.80699998 4294967287
0.021504583 0.15330742 0.80699998 4294967280
0.023117488 0.15406479 0.81099999 4294572008
0.024623746 0.1540622 0.81099999 4294571754
0.02612995 0.15405956 0.81099999 4294243045
0.027636096 0.15405686 0.81099999 4294570724
0.029142184 0.15405412 0.81099999 4294439139
0.030723805 0.15443124 0.81300002 4293913056
0.032233495 0.15442838 0.81300002 4293255383
0.033743124 0.15442547 0.81300002 4292993241
0.035252701 0.15442251 0.81300002 4292795606
0.03685265 0.15479939 0.815 4292664790
0.038365822 0.1547963 0.815 4292598997
0.039878935 0.15479319 0.815 4292861392
0.041391991 0.15479003 0.815 4292861392
0.042904977 0.1547868 0.815 4292597448
0.044526912 0.15516336 0.81699997 4292597448
0.04615622 0.15553987 0.81900001 4292729540
0.047676455 0.15553649 0.81900001 4292729540
0.049196631 0.15553303 0.81900001 4292597954
0.050716747 0.15552951 0.81900001 4292203196
0.052236803 0.15552598 0.81900001 4292268737
0.0537568 0.15552239 0.81900001 4291939516
0.055276737 0.15551873 0.81900001 4291939518
0.056935307 0.1558948 0.82099998 4291939518
0.058458824 0.15589105 0.82099998 4291085756
0.059982277 0.15588722 0.82099998 4290888633
0.061655506 0.15626311 0.82300001 4291019447
0.063182548 0.15625918 0.82300001 4291085496
0.065338545 0.15777408 0.83099997 4291216047
0.066880301 0.15777002 0.83099997 4290821289
0.068421997 0.1577659 0.83099997 4290887338
0.070132017 0.15814142 0.833 4290887338
0.072021469 0.15889657 0.83700001 4290822056
0.073749907 0.15927191 0.83899999 4290822056
0.075485706 0.15964721 0.84100002 4290230439
0.077228852 0.16002244 0.84299999 4290032804
0.078792401 0.16001794 0.84299999 4290294684
0.080737188 0.16077267 0.847 4290031255
0.08250238 0.16114764 0.84899998 4289965466
0.084076859 0.16114296 0.84899998 4288583813
-0.050089706 0.16329312 0.85100001 4283256393
-0.04692385 0.16329268 0.85100001 4283583305
-0.045340993 0.16329236 0.85100001 4288386450
-0.043655332 0.16290826 0.84899998 4291150508
-0.041977171 0.16252409 0.847 4294637537
-0.040211089 0.16175611 0.84299999 4294638582
-0.038551614 0.16137186 0.84100002 4294967295
-0.036899623 0.16098753 0.83899999 4294967295
-0.035255123 0.16060315 0.83700001 4294967295
-0.03369863 0.16060251 0.83700001 4294967295
-0.03206538 0.16021802 0.83499998 4294967295
-0.030512696 0.16021724 0.83499998 4294967295
-0.028890701 0.15983269 0.833 4294967295
-0.027341835 0.15983179 0.833 4294967295
-0.025731089 0.15944712 0.83099997 4294967295
-0.024127828 0.1590624 0.829 4294967295
-0.022586545 0.15906139 0.829 4294967295
-0.02104531 0.1590603 0.829 4294967295
-0.019410018 0.15829168 0.82499999 4294967295
-0.017832981 0.1579068 0.82300001 4294967295
-0.016263433 0.15752181 0.82099998 4294967295
-0.014737266 0.15752053 0.82099998 4294967295
-0.013178971 0.15713549 0.81900001 4294967295
-0.011656621 0.1571341 0.81900001 4294967295
-0.010134324 0.15713266 0.81900001 4294967295
-0.0086120786 0.1571312 0.81900001 4294967295
-0.0070725689 0.15674593 0.81699997 4294967295
-0.0055541419 0.15674435 0.81699997 4294967295
-0.0040357658 0.15674272 0.81699997 4294967295
-0.0025174411 0.15674102 0.81699997 4294967295
-0.00099916838 0.15673928 0.81699997 4294967295
0.00051905261 0.15673748 0.81699997 4294967295
0.0020372213 0.15673564 0.81699997 4294967295
0.0035466342 0.15635006 0.815 4294967295
0.0050609815 0.15634812 0.815 4294967295
0.0065591396 0.15596247 0.81300002 4294967295
0.0080696642 0.15596043 0.81300002 4294967295
0.0095565692 0.15557466 0.81099999 4294967295
0.011063271 0.15557252 0.81099999 4294967295
0.012569919 0.15557033 0.81099999 4294967295
0.014041801 0.15518443 0.80900002 4294967292
0.015544627 0.15518217 0.80900002 4294638834
0.017047394 0.1551798 0.80900002 4294573041
0.018504253 0.15479378 0.80699998 4293782757
0.020003196 0.15479134 0.80699998 4294309101
0.021502089 0.15478885 0.80699998 4294373859
0.023114931 0.15555352 0.81099999 4293847515
0.02462114 0.15555093 0.81099999 4293913056
0.026127292 0.15554824 0.81099999 4293847263
0.027633389 0.15554555 0.81099999 4293847517
0.029139424 0.15554278 0.81099999 4293913310
0.030720981 0.15592356 0.81300002 4293584345
0.032230619 0.15592068 0.81300002 4293189587
0.033740204 0.15591775 0.81300002 4293189591
0.035336439 0.15629834 0.815 4293057749
0.036849614 0.1562953 0.815 4292729554
0.038362738 0.15629221 0.815 4292729554
0.039875802 0.15628909 0.815 4292992208
0.041388799 0.1562859 0.815 4292729036
0.042901743 0.15628265 0.815 4292333508
0.044523619 0.15666287 0.81699997 4292465351
0.046152864 0.15704302 0.81900001 4292794313
0.047673043 0.1570396 0.81900001 4292794313
0.049193174 0.15703613 0.81900001 4292269251
0.050837077 0.15741609 0.82099998 4292006335
0.052360799 0.15741253 0.82099998 4292202692
0.053884447 0.15740889 0.82099998 4291939520
0.055408046 0.15740521 0.82099998 4291610040
0.056931581 0.15740149 0.82099998 4291544247
0.05845505 0.15739769 0.82099998 4291412660
0.059978459 0.15739387 0.82099998 4291346867
0.061801445 0.15815683 0.82499999 4290887859
0.063485682 0.15853627 0.82700002 4290953908
0.065491758 0.15968244 0.833 4291347637
0.06703718 0.15967831 0.833 4290887086
0.068582535 0.15967417 0.833 4290821289
0.070296191 0.16005333 0.83499998 4290821289
0.072017215 0.16043243 0.83700001 4290822056
0.073745593 0.16081144 0.83899999 4290427299
0.075481318 0.16119038 0.84100002 4290163359
0.077224389 0.16156925 0.84299999 4290163359
0.078787901 0.16156474 0.84299999 4290294432
0.080732599 0.16232675 0.847 4290031259
0.082497746 0.16270542 0.84899998 4289504932
-0.046924129 0.1648555 0.85100001 4283585872
-0.04534132 0.16485518 0.85100001 4284704352
-0.043655716 0.16446736 0.84899998 4288714868
-0.042076729 0.16446695 0.84899998 4293649600
-0.040306978 0.16369161 0.84500003 4294505708
-0.038552154 0.16291621 0.84100002 4294967287
-0.036988176 0.16291563 0.84100002 4294967295
-0.03525576 0.16214013 0.83700001 4294967295
-0.033699326 0.16213945 0.83700001 4294967295
-0.032066122 0.16175129 0.83499998 4294967295
-0.030513495 0.1617505 0.83499998 4294967295
-0.028891545 0.16136225 0.833 4294967295
-0.027277086 0.16097394 0.83099997 4294967295
-0.02573204 0.160973 0.83099997 4294967295
-0.024128832 0.16058457 0.829 4294967295
-0.022587599 0.16058354 0.829 4294967295
-0.021046419 0.16058242 0.829 4294967295
-0.019411171 0.15980646 0.82499999 4294967295
-0.017834185 0.15941787 0.82300001 4294967295
-0.016264684 0.15902922 0.82099998 4294967295
-0.014738571 0.15902792 0.82099998 4294967295
-0.013180323 0.15863918 0.81900001 4294967295
-0.011658028 0.15863779 0.81900001 4294967295
-0.010135783 0.15863632 0.81900001 4294967295
-0.0086135892 0.15863484 0.81900001 4294967295
-0.0070741279 0.15824589 0.81699997 4294967295
-0.0055557522 0.15824428 0.81699997 4294967295
-0.0040374277 0.15824264 0.81699997 4294967295
-0.0025191547 0.15824093 0.81699997 4294967295
-0.0010009339 0.15823917 0.81699997 4294967295
0.00051723525 0.15823737 0.81699997 4294967295
0.0020353522 0.15823551 0.81699997 4294967295
0.0035447176 0.15784623 0.815 4294967295
0.0050590131 0.15784429 0.815 4294967295
0.0065571256 0.15745492 0.81300002 4294967295
0.0080675986 0.15745285 0.81300002 4294967295
0.0095780184 0.15745075 0.81300002 4294967295
0.011061108 0.15706123 0.81099999 4294967295
0.012567704 0.15705904 0.81099999 4294967295
0.014039541 0.15666947 0.80900002 4294703605
0.015542313 0.15666716 0.80900002 4294769135
0.01704503 0.1566648 0.80900002 4294966513
0.018547695 0.15666239 0.80900002 4294112240
0.020050306 0.15665992 0.80900002 4294178033
0.021552861 0.1566574 0.80900002 4294110941
0.023169352 0.1574294 0.81300002 4293847769
0.02461851 0.15703948 0.81099999 4293782757
0.026124611 0.15703683 0.81099999 4292927448
0.027630655 0.15703408 0.81099999 4293650138
0.029208496 0.15741855 0.81300002 4293913310
0.030718146 0.15741573 0.81300002 4293518550
0.032227732 0.15741283 0.81300002 4292992206
0.033737257 0.15740991 0.81300002 4293189587
0.035333436 0.15779412 0.815 4293386966
0.036846567 0.15779106 0.815 4292598736
0.038359635 0.15778796 0.815 4292532942
0.039872643 0.1577848 0.815 4292598734
0.041385595 0.1577816 0.815 4292401354
0.042898484 0.15777834 0.815 4292268489
0.044520296 0.15816221 0.81699997 4292268489
0.046149485 0.15854602 0.81900001 4292333510
0.047669623 0.15854259 0.81900001 4292136388
0.049309816 0.15892625 0.82099998 4292136386
0.050833542 0.1589227 0.82099998 4291675835
0.052357204 0.15891911 0.82099998 4291872959
0.053880807 0.15891546 0.82099998 4291872959
0.055539325 0.15929891 0.82300001 4291281594
0.057066511 0.15929514 0.82300001 4291215545
0.058736034 0.15967843 0.82499999 4291085492
0.060412917 0.16006164 0.82700002 4291546043
0.062097155 0.1604448 0.829 4290953393
0.06363523 0.1604408 0.829 4290756013
0.065330468 0.16082382 0.83099997 4291017641
0.067033067 0.16120677 0.833 4291017641
0.06857837 0.16120261 0.833 4290886053
0.070291966 0.16158541 0.83499998 4290820260
0.072012931 0.16196816 0.83700001 4290689442
0.073741242 0.16235082 0.83899999 4290163098
0.075476907 0.16273342 0.84100002 4290097050
0.077219926 0.16311592 0.84299999 4289636499
0.078970298 0.16349837 0.84500003 4289833113
0.080728017 0.16388074 0.847 4289175439
0.082493089 0.16426305 0.84899998 4288912288
-0.045341667 0.16641782 0.85100001 4283125838
-0.043656122 0.16602631 0.84899998 4287067467
-0.04207718 0.16602588 0.84899998 4293054630
-0.040307485 0.16524316 0.84500003 4293452509
-0.038644392 0.16485152 0.84299999 4294307818
-0.036988787 0.16445982 0.84100002 4294440690
-0.035340667 0.16406804 0.83899999 4294967294
-0.033700034 0.16367628 0.83700001 4294967295
-0.032066889 0.16328441 0.83499998 4294967295
-0.030514313 0.1632836 0.83499998 4294967295
-0.028892413 0.16289166 0.833 4294967295
-0.027278002 0.16249964 0.83099997 4294967295
-0.025733009 0.16249868 0.83099997 4294967295
-0.024129851 0.1621066 0.829 4294967295
-0.022588672 0.16210553 0.829 4294967295
-0.021047546 0.16210443 0.829 4294967295
-0.019459404 0.16171217 0.82700002 4294967295
-0.017878748 0.16131988 0.82499999 4294967295
-0.016305577 0.16092755 0.82300001 4294967295
-0.014739893 0.16053517 0.82099998 4294967295
-0.013181693 0.16014272 0.81900001 4294967295
-0.011659452 0.16014132 0.81900001 4294967295
-0.010137258 0.16013984 0.81900001 4294967295
-0.0086151157 0.16013831 0.81900001 4294967295
-0.0070930244 0.16013674 0.81900001 4294967295
-0.005570984 0.16013512 0.81900001 4294967295
-0.0040391064 0.15974241 0.81699997 4294967295
-0.0025208856 0.15974067 0.81699997 4294967295
-0.0010027166 0.15973891 0.81699997 4294967295
0.00051540066 0.15973708 0.81699997 4294967295
0.0020334658 0.1597352 0.81699997 4294967295
0.0035427839 0.15934224 0.815 4294967295
0.005057028 0.15934028 0.815 4294967295
0.0065712179 0.15933824 0.815 4294967295
0.0080853561 0.15933615 0.815 4294967295
0.0095758829 0.15894303 0.81300002 4294967295
0.011086199 0.15894084 0.81300002 4294967295
0.012596459 0.15893862 0.81300002 4294967291
0.014106666 0.15893632 0.81300002 4294506483
0.015578398 0.15854299 0.81099999 4294505449
0.017084781 0.15854061 0.81099999 4294439656
0.01859111 0.15853818 0.81099999 4294243054
0.020097382 0.15853567 0.81099999 4293980139
0.021656876 0.15892412 0.81300002 4293651937
0.023223743 0.15931246 0.815 4293586144
0.024676573 0.15891887 0.81300002 4293848296
0.026186338 0.15891615 0.81300002 4293124830
0.027696043 0.15891342 0.81300002 4293322204
0.029205691 0.15891059 0.81300002 4293256411
0.030715285 0.15890773 0.81300002 4293125593
0.032224823 0.15890484 0.81300002 4292599249
0.033734307 0.15890189 0.81300002 4292991956
0.035243724 0.15889886 0.81300002 4292991956
0.036753081 0.15889581 0.81300002 4292532690
0.038356517 0.15928356 0.815 4292401104
0.039869469 0.1592804 0.815 4292138948
0.041382369 0.15927717 0.815 4292073155
0.042895209 0.15927389 0.815 4291940549
0.044516966 0.15966141 0.81699997 4291940549
0.046146091 0.16004886 0.81900001 4292267704
0.047666173 0.16004542 0.81900001 4292333497
0.049306311 0.16043273 0.82099998 4292530112
0.050829981 0.16042916 0.82099998 4292069561
0.052353598 0.16042556 0.82099998 4292135100
0.053877141 0.16042191 0.82099998 4292069307
0.055535611 0.16080898 0.82300001 4291019447
0.057201412 0.16119596 0.82499999 4290756532
0.058732197 0.16119212 0.82499999 4290954424
0.060409024 0.16157901 0.82700002 4290954424
0.062093202 0.1619658 0.829 4290756532
0.063784726 0.16235255 0.83099997 4290558896
0.0653264 0.16234845 0.83099997 4290951074
0.067189872 0.16312577 0.83499998 4291082916
0.068738841 0.16312157 0.83499998 4291016871
0.070287727 0.16311733 0.83499998 4290819493
0.072180696 0.16389441 0.83899999 4290361255
0.073912643 0.16428071 0.84100002 4289966498
0.075651951 0.16466694 0.84299999 4290359459
0.077215426 0.16466244 0.84299999 4289964701
0.078965738 0.16504855 0.84500003 4289898908
0.080723397 0.16543455 0.847 4289109392
-0.045342032 0.1679803 0.85100001 4283125332
-0.043656535 0.16758509 0.84899998 4285226319
-0.042077649 0.16758463 0.84899998 4289700500
-0.040403411 0.16718936 0.847 4292398524
-0.038736656 0.16679403 0.84500003 4294240728
-0.037077378 0.16639863 0.84299999 4294308588
-0.035341345 0.16560841 0.83899999 4294834932
-0.03378129 0.16560771 0.83899999 4294967295
-0.032144472 0.16521217 0.83700001 4294967295
-0.030515144 0.16481657 0.83499998 4294967295
-0.028962668 0.16481568 0.83499998 4294967295
-0.027344592 0.16442002 0.833 4294967295
-0.025795931 0.16441904 0.833 4294967295
