# .PCD v0.7 - Point Cloud Data file format
VERSION 0.7
FIELDS x y z rgba
SIZE 4 4 4 4
TYPE F F F U
COUNT 1 1 1 1
WIDTH 1076
HEIGHT 1
VIEWPOINT 0 0 0 1 0 0 0
POINTS 1076
DATA ascii
0.090756685 -0.18294212 0.74400002 4294967295
0.092144571 -0.18294206 0.74400002 4294967295
0.093280971 -0.18245026 0.74199998 4294967295
0.094665013 -0.18245028 0.74199998 4294967295
0.096048988 -0.18245031 0.74199998 4294967295
0.056418177 -0.18278223 0.74900001 4294967295
0.058048371 -0.18351348 0.75199997 4294967295
0.059452549 -0.18351267 0.75199997 4294967295
0.060613889 -0.18277982 0.74900001 4294967295
0.062012341 -0.18277906 0.74900001 4294967295
0.063410744 -0.18277834 0.74900001 4294967295
0.064809091 -0.18277764 0.74900001 4294967295
0.066207379 -0.182777 0.74900001 4294967295
0.0676056 -0.18277639 0.74900001 4294967295
0.068543144 -0.18155566 0.74400002 4294967295
0.069931924 -0.18155511 0.74400002 4294967295
0.071320646 -0.18155459 0.74400002 4294967295
0.072513863 -0.18106605 0.74199998 4294967295
0.073898733 -0.18106557 0.74199998 4294967295
0.075182095 -0.18082112 0.741 4294967295
0.076564997 -0.18082073 0.741 4294967295
0.078053027 -0.1810644 0.74199998 4294967295
0.079009451 -0.18008797 0.73799998 4294967295
0.080386557 -0.18008767 0.73799998 4294967295
0.081763633 -0.18008742 0.73799998 4294967295
0.083140641 -0.18008718 0.73799998 4294967295
0.084632128 -0.18033102 0.73900002 4294967295
0.086010903 -0.18033084 0.73900002 4294967295
0.087389588 -0.18033069 0.73900002 4294967295
0.089128591 -0.18106265 0.74199998 4294967295
0.090512767 -0.18106258 0.74199998 4294967295
0.091896899 -0.18106253 0.74199998 4294967295
0.093280949 -0.18106252 0.74199998 4294967295
0.094664969 -0.18106256 0.74199998 4294967295
0.096048921 -0.18106261 0.74199998 4294967295
0.097958058 -0.1820388 0.74599999 4294967295
0.09934935 -0.18203892 0.74599999 4294967295
0.057817619 -0.18138027 0.74900001 4294967295
0.059058033 -0.18089513 0.74699998 4294967295
0.060452774 -0.18089436 0.74699998 4294967295
0.061764676 -0.1806515 0.74599999 4294967295
0.063157447 -0.1806508 0.74599999 4294967295
0.064550161 -0.18065012 0.74599999 4294967295
0.065766029 -0.1801652 0.74400002 4294967295
0.066974364 -0.17968027 0.74199998 4294967295
0.068359442 -0.17967971 0.74199998 4294967295
0.069744453 -0.17967916 0.74199998 4294967295
0.071129419 -0.17967866 0.74199998 4294967295
0.072514325 -0.17967819 0.74199998 4294967295
0.073799573 -0.17943558 0.741 4294967295
0.075182505 -0.17943519 0.741 4294967295
0.07656537 -0.17943481 0.741 4294967295
0.07805337 -0.17967661 0.74199998 4294967295
0.079009742 -0.17870767 0.73799998 4294967295
0.080386832 -0.17870738 0.73799998 4294967295
0.081763871 -0.17870714 0.73799998 4294967295
0.083140858 -0.17870694 0.73799998 4294967295
0.084517784 -0.17870675 0.73799998 4294967295
0.085894644 -0.17870659 0.73799998 4294967295
0.087271444 -0.17870647 0.73799998 4294967295
0.089008555 -0.17943284 0.741 4294967295
0.090512812 -0.17967491 0.74199998 4294967295
0.091773063 -0.17943275 0.741 4294967295
0.093155228 -0.17943276 0.741 4294967295
0.094664924 -0.17967495 0.74199998 4294967295
0.096048832 -0.17967504 0.74199998 4294967295
0.097695328 -0.18015945 0.74400002 4294967295
0.099082857 -0.18015958 0.74400002 4294967295
0.10047033 -0.18015975 0.74400002 4294967295
0.053837318 -0.18070263 0.75199997 4294967295
0.055241607 -0.18070178 0.75199997 4294967295
0.056419846 -0.17998005 0.74900001 4294967295
0.057664022 -0.17949866 0.74699998 4294967295
0.058979739 -0.17925759 0.74599999 4294967295
0.060372587 -0.17925684 0.74599999 4294967295
0.06176538 -0.17925613 0.74599999 4294967295
0.062988788 -0.17877489 0.74400002 4294967295
0.06437774 -0.17877422 0.74400002 4294967295
0.065589838 -0.17829303 0.74199998 4294967295
0.066884674 -0.17805217 0.741 4294967295
0.068267852 -0.17805161 0.741 4294967295
0.06965097 -0.17805108 0.741 4294967295
0.071034044 -0.17805061 0.741 4294967295
0.072417051 -0.17805016 0.741 4294967295
0.07379999 -0.17804973 0.741 4294967295
0.074979968 -0.17756876 0.73900002 4294967295
0.076359063 -0.17756841 0.73900002 4294967295
0.077738114 -0.17756806 0.73900002 4294967295
0.079010032 -0.17732748 0.73799998 4294967295
0.080387101 -0.17732722 0.73799998 4294967295
0.081764102 -0.17732699 0.73799998 4294967295
0.083141044 -0.17732678 0.73799998 4294967295
0.084288895 -0.17684606 0.736 4294967295
0.085662 -0.17684592 0.736 4294967295
0.087035038 -0.17684582 0.736 4294967295
0.08864826 -0.17732631 0.73799998 4294967295
0.090146907 -0.17756656 0.73900002 4294967295
0.091525361 -0.17756654 0.73900002 4294967295
0.09315519 -0.17804711 0.741 4294967295
0.094537266 -0.17804717 0.741 4294967295
0.096048743 -0.17828755 0.74199998 4294967295
0.097432569 -0.17828766 0.74199998 4294967295
0.098816335 -0.17828782 0.74199998 4294967295
0.10020003 -0.17828801 0.74199998 4294967295
0.05116526 -0.17977472 0.75400001 4294967295
0.052573353 -0.17977379 0.75400001 4294967295
0.053838197 -0.17929603 0.75199997 4294967295
0.055022076 -0.17857993 0.74900001 4294967295
0.05619467 -0.17786382 0.74599999 4294967295
0.057587601 -0.17786303 0.74599999 4294967295
0.058822364 -0.17738545 0.74400002 4294967295
0.060211442 -0.17738472 0.74400002 4294967295
0.061600477 -0.17738402 0.74400002 4294967295
0.062820114 -0.17690651 0.74199998 4294967295
0.064205296 -0.17690587 0.74199998 4294967295
0.065590434 -0.17690527 0.74199998 4294967295
0.066885225 -0.17666629 0.741 4294967295
0.068268374 -0.17666577 0.741 4294967295
0.069651455 -0.17666526 0.741 4294967295
0.071034491 -0.17666477 0.741 4294967295
0.072222017 -0.17618752 0.73900002 4294967295
0.073601201 -0.17618711 0.73900002 4294967295
0.074878864 -0.17594831 0.73799998 4294967295
0.076256067 -0.17594796 0.73799998 4294967295
0.077633217 -0.17594767 0.73799998 4294967295
0.079010308 -0.17594738 0.73799998 4294967295
0.080169491 -0.17547032 0.736 4294967295
0.08154273 -0.1754701 0.736 4294967295
0.08291591 -0.17546991 0.736 4294967295
0.084059998 -0.17499293 0.73400003 4294967295
0.08531294 -0.17475438 0.73299998 4294967295
0.086680353 -0.17475432 0.73299998 4294967295
0.088047706 -0.17475425 0.73299998 4294967295
0.089536995 -0.17499267 0.73400003 4294967295
0.090906106 -0.17499265 0.73400003 4294967295
0.09252657 -0.1754695 0.736 4294967295
0.093516551 -0.17475435 0.73299998 4294967295
0.094883606 -0.17475444 0.73299998 4294967295
0.09743242 -0.17690028 0.74199998 4294967295
0.098816149 -0.17690046 0.74199998 4294967295
0.10019982 -0.17690067 0.74199998 4294967295
0.048349891 -0.17836636 0.75400001 4294967295
0.049626075 -0.17789227 0.75199997 4294967295
0.051030464 -0.17789133 0.75199997 4294967295
0.052434795 -0.17789042 0.75199997 4294967295
0.053695872 -0.17741646 0.75 4294967295
0.05487597 -0.17670594 0.74699998 4294967295
0.056044802 -0.17599548 0.74400002 4294967295
0.05743397 -0.17599471 0.74400002 4294967295
0.058823083 -0.17599398 0.74400002 4294967295
0.060212139 -0.17599326 0.74400002 4294967295
0.061435536 -0.17551948 0.74199998 4294967295
0.062736079 -0.17528227 0.741 4294967295
0.064119376 -0.17528169 0.741 4294967295
0.065502599 -0.17528111 0.741 4294967295
0.066705242 -0.17480746 0.73900002 4294967295
0.068084627 -0.17480694 0.73900002 4294967295
0.069369949 -0.17456989 0.73799998 4294967295
0.070747353 -0.17456944 0.73799998 4294967295
0.072222434 -0.17480558 0.73900002 4294967295
0.073601581 -0.17480518 0.73900002 4294967295
0.074879214 -0.17456827 0.73799998 4294967295
0.076256387 -0.17456794 0.73799998 4294967295
0.077633493 -0.17456764 0.73799998 4294967295
0.079010561 -0.17456737 0.73799998 4294967295
0.080169708 -0.17409405 0.736 4294967295
0.081542917 -0.17409384 0.736 4294967295
0.082916074 -0.17409369 0.736 4294967295
0.084060125 -0.17362049 0.73400003 4294967295
0.085080266 -0.17291075 0.73100001 4294967295
0.086325653 -0.17267413 0.73000002 4294967295
0.087687396 -0.17267409 0.73000002 4294967295
0.089049056 -0.17267409 0.73000002 4294967295
0.090410672 -0.1726741 0.73000002 4294967295
0.091897927 -0.17291071 0.73100001 4294967295
0.093133718 -0.17267425 0.73000002 4294967295
0.094495155 -0.17267437 0.73000002 4294967295
0.095856532 -0.17267455 0.73000002 4294967295
0.097351037 -0.17291126 0.73100001 4294967295
0.098714143 -0.17291147 0.73100001 4294967295
0.10625071 -0.17409576 0.736 4294967295
0.10762281 -0.1740962 0.736 4294967295
0.10929102 -0.17456974 0.73799998 4294967295
0.11081669 -0.17480677 0.73900002 4294967295
0.11249784 -0.17528038 0.741 4294967295
0.11387901 -0.17528093 0.741 4294967295
0.04553441 -0.17695814 0.75400001 4294967295
0.046942659 -0.17695713 0.75400001 4294967295
0.048222609 -0.17648678 0.75199997 4294967295
0.049627017 -0.17648582 0.75199997 4294967295
0.05103137 -0.1764849 0.75199997 4294967295
0.052296214 -0.17601465 0.75 4294967295
0.053625122 -0.1757791 0.74900001 4294967295
0.054803316 -0.17507423 0.74599999 4294967295
0.056045581 -0.17460409 0.74400002 4294967295
0.057434727 -0.17460334 0.74400002 4294967295
0.058823802 -0.17460261 0.74400002 4294967295
0.060050957 -0.17413253 0.74199998 4294967295
0.061353393 -0.17389721 0.741 4294967295
0.062567368 -0.17342724 0.73900002 4294967295
0.063946895 -0.17342664 0.73900002 4294967295
0.065326355 -0.17342606 0.73900002 4294967295
0.0666155 -0.17319085 0.73799998 4294967295
0.067992978 -0.17319034 0.73799998 4294967295
0.068994425 -0.17225119 0.73400003 4294967295
0.070364334 -0.17225075 0.73400003 4294967295
0.071734183 -0.17225036 0.73400003 4294967295
0.073004365 -0.17201529 0.73299998 4294967295
0.074372239 -0.17201497 0.73299998 4294967295
0.075843379 -0.17224933 0.73400003 4294967295
0.077423386 -0.17271838 0.736 4294967295
0.078475505 -0.17201412 0.73299998 4294967295
0.079625286 -0.17154455 0.73100001 4294967295
0.080989137 -0.17154437 0.73100001 4294967295
0.082352936 -0.17154422 0.73100001 4294967295
0.083716668 -0.17154409 0.73100001 4294967295
0.084963962 -0.17130934 0.73000002 4294967295
0.086089194 -0.17083994 0.72799999 4294967295
0.087447166 -0.17083992 0.72799999 4294967295
0.088805072 -0.17083992 0.72799999 4294967295
0.090162918 -0.17083997 0.72799999 4294967295
0.091772139 -0.17130938 0.73000002 4294967295
0.093133613 -0.1713095 0.73000002 4294967295
0.094495013 -0.17130962 0.73000002 4294967295
0.095856369 -0.17130978 0.73000002 4294967295
0.097217657 -0.17130998 0.73000002 4294967295
0.098713912 -0.17154488 0.73100001 4294967295
0.10171746 -0.17201479 0.73299998 4294967295
0.10459321 -0.17225018 0.73400003 4294967295
0.10596158 -0.17225057 0.73400003 4294967295
0.10732992 -0.17225102 0.73400003 4294967295
0.10899437 -0.17272082 0.736 4294967295
0.11036631 -0.17272133 0.736 4294967295
0.11219365 -0.1734259 0.73900002 4294967295
0.11357106 -0.17342646 0.73900002 4294967295
0.11679794 -0.17413175 0.74199998 4294967295
0.11818077 -0.17413244 0.74199998 4294967295
0.11988582 -0.17460252 0.74400002 4294967295
0.12127225 -0.17460327 0.74400002 4294967295
0.12265861 -0.17460404 0.74400002 4294967295
0.045535423 -0.17554803 0.75400001 4294967295
0.046819124 -0.17508137 0.75199997 4294967295
0.048223563 -0.17508042 0.75199997 4294967295
0.04962793 -0.17507946 0.75199997 4294967295
0.051032264 -0.17507859 0.75199997 4294967295
0.051878694 -0.17321518 0.74400002 4294967295
0.053267967 -0.17321435 0.74400002 4294967295
0.054436784 -0.17251511 0.741 4294967295
0.055594351 -0.17181589 0.73799998 4294967295
0.056972258 -0.17181516 0.73799998 4294967295
0.05842917 -0.17204729 0.73900002 4294967295
0.059808832 -0.17204662 0.73900002 4294967295
0.061105628 -0.17181316 0.73799998 4294967295
0.062313978 -0.17134692 0.736 4294967295
0.063687868 -0.17134637 0.736 4294967295
0.065061703 -0.1713458 0.736 4294967295
0.066435486 -0.17134531 0.736 4294967295
0.067624934 -0.17087919 0.73400003 4294967295
0.068994865 -0.17087874 0.73400003 4294967295
0.070364743 -0.17087834 0.73400003 4294967295
0.07173457 -0.17087796 0.73400003 4294967295
0.073004715 -0.17064478 0.73299998 4294967295
0.074372552 -0.17064443 0.73299998 4294967295
0.075843669 -0.17087696 0.73400003 4294967295
0.07721325 -0.1708767 0.73400003 4294967295
0.078475729 -0.17064364 0.73299998 4294967295
0.07962548 -0.17017785 0.73100001 4294967295
0.080989301 -0.17017768 0.73100001 4294967295
0.082353063 -0.17017756 0.73100001 4294967295
0.083602242 -0.16994463 0.73000002 4294967295
0.084731236 -0.16947897 0.72799999 4294967295
0.085970968 -0.16924612 0.727 4294967295
0.087327048 -0.16924611 0.727 4294967295
0.088683046 -0.16924615 0.727 4294967295
0.090039007 -0.1692462 0.727 4294967295
0.091394894 -0.16924627 0.727 4294967295
0.092750736 -0.16924641 0.727 4294967295
0.094235957 -0.16947934 0.72799999 4294967295
0.095593549 -0.16947953 0.72799999 4294967295
0.097217426 -0.16994536 0.73000002 4294967295
0.098578602 -0.1699456 0.73000002 4294967295
0.10007666 -0.1701787 0.73100001 4294967295
0.10171714 -0.17064461 0.73299998 4294967295
0.10308374 -0.17064495 0.73299998 4294967295
0.10459282 -0.17087816 0.73400003 4294967295
0.10596116 -0.17087856 0.73400003 4294967295
0.10732945 -0.17087902 0.73400003 4294967295
0.10899388 -0.1713451 0.736 4294967295
0.11036579 -0.17134564 0.736 4294967295
0.11173764 -0.17134617 0.736 4294967295
0.11341678 -0.17181237 0.73799998 4294967295
0.11525887 -0.17251143 0.741 4294967295
0.11663986 -0.1725121 0.741 4294967295
0.11818007 -0.1727456 0.74199998 4294967295
0.11988508 -0.17321196 0.74400002 4294967295
0.12127148 -0.17321272 0.74400002 4294967295
0.12232807 -0.1727479 0.74199998 4294967295
0.12371063 -0.17274873 0.74199998 4294967295
0.041475885 -0.17483398 0.75700003 4294967295
0.042889845 -0.1748329 0.75700003 4294967295
0.044186696 -0.17436993 0.755 4294967295
0.045596816 -0.17436892 0.755 4294967295
0.046695568 -0.17321318 0.75 4294967295
0.048032109 -0.17298128 0.74900001 4294967295
0.04929886 -0.17251849 0.74699998 4294967295
0.050354496 -0.17136288 0.74199998 4294967295
0.051740061 -0.17136201 0.74199998 4294967295
0.053125568 -0.17136121 0.74199998 4294967295
0.054437555 -0.17112948 0.741 4294967295
0.055595081 -0.17043589 0.73799998 4294967295
0.056972958 -0.17043521 0.73799998 4294967295
0.058350772 -0.1704345 0.73799998 4294967295
0.059809469 -0.1706648 0.73900002 4294967295
0.060940642 -0.16997135 0.736 4294967295
0.062060554 -0.16927795 0.73299998 4294967295
0.063428812 -0.16927737 0.73299998 4294967295
0.064797021 -0.16927685 0.73299998 4294967295
0.066255428 -0.16950728 0.73400003 4294967295
0.067533255 -0.16927589 0.73299998 4294967295
0.068901278 -0.16927545 0.73299998 4294967295
0.070269264 -0.16927505 0.73299998 4294967295
0.071637191 -0.16927467 0.73299998 4294967295
0.073005043 -0.16927435 0.73299998 4294967295
0.074372858 -0.16927402 0.73299998 4294967295
0.075740598 -0.16927373 0.73299998 4294967295
0.077108294 -0.16927348 0.73299998 4294967295
0.078475922 -0.16927327 0.73299998 4294967295
0.079625651 -0.16881125 0.73100001 4294967295
0.080878645 -0.16858014 0.73000002 4294967295
0.082240514 -0.16858004 0.73000002 4294967295
0.083258741 -0.16788714 0.727 4294967295
0.084614895 -0.16788709 0.727 4294967295
0.08597099 -0.16788706 0.727 4294967295
0.087086797 -0.16742522 0.72500002 4294967295
0.08843904 -0.16742525 0.72500002 4294967295
0.089791231 -0.1674253 0.72500002 4294967295
0.091143355 -0.16742542 0.72500002 4294967295
0.092750609 -0.16788742 0.727 4294967295
0.094106339 -0.16788758 0.727 4294967295
0.095462024 -0.16788778 0.727 4294967295
0.096950822 -0.16811894 0.72799999 4294967295
0.098308258 -0.16811921 0.72799999 4294967295
0.099939443 -0.16858137 0.73000002 4294967295
0.1013005 -0.16858172 0.73000002 4294967295
0.10266148 -0.16858207 0.73000002 4294967295
0.10402242 -0.16858245 0.73000002 4294967295
0.10552763 -0.16881382 0.73100001 4294967295
0.10718276 -0.16927616 0.73299998 4294967295
0.1085491 -0.16927665 0.73299998 4294967295
0.1099154 -0.16927719 0.73299998 4294967295
0.11143344 -0.16950873 0.73400003 4294967295
0.11341617 -0.17043306 0.73799998 4294967295
0.11494715 -0.17066464 0.73900002 4294967295
0.1166392 -0.1711272 0.741 4294967295
0.11817934 -0.17135885 0.74199998 4294967295
0.11956206 -0.1713596 0.74199998 4294967295
0.12094469 -0.17136039 0.74199998 4294967295
0.12232726 -0.17136119 0.74199998 4294967295
0.12370977 -0.17136204 0.74199998 4294967295
0.12509224 -0.17136292 0.74199998 4294967295
0.12647463 -0.17136386 0.74199998 4294967295
0.12785695 -0.1713648 0.74199998 4294967295
0.041203 -0.17227294 0.75199997 4294967295
0.042607594 -0.17227189 0.75199997 4294967295
0.044012133 -0.17227086 0.75199997 4294967295
0.045295827 -0.1718117 0.75 4294967295
0.046634253 -0.17158167 0.74900001 4294967295
0.047840636 -0.17089351 0.74599999 4294967295
0.049101751 -0.17043446 0.74400002 4294967295
0.050287478 -0.16974637 0.741 4294967295
0.051671144 -0.16974553 0.741 4294967295
0.05283995 -0.1690575 0.73799998 4294967295
0.054217909 -0.16905674 0.73799998 4294967295
0.055445142 -0.16859788 0.736 4294967295
0.056819245 -0.16859718 0.736 4294967295
0.0581933 -0.16859651 0.736 4294967295
0.059567295 -0.16859587 0.736 4294967295
0.060692832 -0.16790804 0.73299998 4294967295
0.061807111 -0.16722028 0.73000002 4294967295
0.063169748 -0.16721974 0.73000002 4294967295
0.064532325 -0.16721922 0.73000002 4294967295
0.065985106 -0.16744782 0.73100001 4294967295
0.067349434 -0.16744736 0.73100001 4294967295
0.068713702 -0.16744697 0.73100001 4294967295
0.070077918 -0.16744655 0.73100001 4294967295
0.071442075 -0.1674462 0.73100001 4294967295
0.072806172 -0.16744587 0.73100001 4294967295
0.074170217 -0.16744559 0.73100001 4294967295
0.075534202 -0.16744532 0.73100001 4294967295
0.076898128 -0.16744508 0.73100001 4294967295
0.078262001 -0.1674449 0.73100001 4294967295
0.079516888 -0.16721568 0.73000002 4294967295
0.080657184 -0.16675739 0.72799999 4294967295
0.082015291 -0.16675727 0.72799999 4294967295
0.083258815 -0.16652817 0.727 4294967295
0.084382154 -0.16607 0.72500002 4294967295
0.085734494 -0.16607 0.72500002 4294967295
0.087086767 -0.16607001 0.72500002 4294967295
0.088438973 -0.16607006 0.72500002 4294967295
0.089791134 -0.16607015 0.72500002 4294967295
0.091143228 -0.16607027 0.72500002 4294967295
0.092495278 -0.16607042 0.72500002 4294967295
0.094106145 -0.16652872 0.727 4294967295
0.095461808 -0.16652894 0.727 4294967295
0.096817411 -0.16652919 0.727 4294967295
0.098172933 -0.16652946 0.727 4294967295
0.099665321 -0.16675884 0.72799999 4294967295
0.1010226 -0.16675919 0.72799999 4294967295
0.10237984 -0.16675957 0.72799999 4294967295
0.104022 -0.16721812 0.73000002 4294967295
0.10538283 -0.16721855 0.73000002 4294967295
0.10688983 -0.16744809 0.73100001 4294967295
0.10825241 -0.16744861 0.73100001 4294967295
0.10961493 -0.16744916 0.73100001 4294967295
0.1109774 -0.16744974 0.73100001 4294967295
0.11280083 -0.16813757 0.73400003 4294967295
0.11416876 -0.16813822 0.73400003 4294967295
0.11616626 -0.16905519 0.73799998 4294967295
0.11801935 -0.16974314 0.741 4294967295
0.11956128 -0.16997296 0.74199998 4294967295
0.12094387 -0.16997376 0.74199998 4294967295
0.12216157 -0.16974552 0.741 4294967295
0.12354218 -0.16974638 0.741 4294967295
0.12492274 -0.16974728 0.741 4294967295
0.12630324 -0.16974823 0.741 4294967295
0.12768367 -0.1697492 0.741 4294967295
0.12906404 -0.1697502 0.741 4294967295
0.039799444 -0.17086786 0.75199997 4294967295
0.041094474 -0.17041235 0.75 4294967295
0.042438645 -0.17018411 0.74900001 4294967295
0.043837544 -0.17018312 0.74900001 4294967295
0.045236394 -0.17018214 0.74900001 4294967295
0.046448391 -0.16949956 0.74599999 4294967295
0.047585007 -0.16858982 0.74199998 4294967295
0.04890462 -0.16836172 0.741 4294967295
0.050152581 -0.16790648 0.73900002 4294967295
0.051532481 -0.16790567 0.73900002 4294967295
0.052840713 -0.16767767 0.73799998 4294967295
0.054071706 -0.16722253 0.736 4294967295
0.055295177 -0.16676742 0.73400003 4294967295
0.056665521 -0.16676673 0.73400003 4294967295
0.058035813 -0.16676609 0.73400003 4294967295
0.059406046 -0.16676548 0.73400003 4294967295
0.060445014 -0.16585606 0.73000002 4294967295
0.061638322 -0.16540112 0.72799999 4294967295
0.062997192 -0.16540059 0.72799999 4294967295
0.064356007 -0.16540009 0.72799999 4294967295
0.065714754 -0.16539964 0.72799999 4294967295
0.067073449 -0.16539921 0.72799999 4294967295
0.068432085 -0.16539881 0.72799999 4294967295
0.069790676 -0.16539843 0.72799999 4294967295
0.071344674 -0.1658525 0.73000002 4294967295
0.072706871 -0.16585219 0.73000002 4294967295
0.073866092 -0.16539752 0.72799999 4294967295
0.075224437 -0.16539729 0.72799999 4294967295
0.076582737 -0.16539705 0.72799999 4294967295
0.078155123 -0.16585128 0.73000002 4294967295
0.079299174 -0.16539672 0.72799999 4294967295
0.080657296 -0.1653966 0.72799999 4294967295
0.081902713 -0.16516933 0.727 4294967295
0.083029814 -0.16471489 0.72500002 4294967295
0.084382184 -0.16471486 0.72500002 4294967295
0.085734472 -0.16471486 0.72500002 4294967295
0.087086722 -0.1647149 0.72500002 4294967295
0.088438898 -0.16471498 0.72500002 4294967295
0.08979103 -0.16471507 0.72500002 4294967295
0.091143101 -0.1647152 0.72500002 4294967295
0.092495114 -0.16471538 0.72500002 4294967295
0.093847059 -0.16471557 0.72500002 4294967295
0.095461577 -0.16517019 0.727 4294967295
0.096817143 -0.16517045 0.727 4294967295
0.098172642 -0.16517074 0.727 4294967295
0.099528074 -0.16517107 0.727 4294967295
0.10088348 -0.16517143 0.727 4294967295
0.1022388 -0.16517183 0.727 4294967295
0.10359407 -0.16517226 0.727 4294967295
0.10509363 -0.16539991 0.72799999 4294967295
0.1067431 -0.16585481 0.73000002 4294967295
0.10810379 -0.16585535 0.73000002 4294967295
0.10961436 -0.1660831 0.73100001 4294967295
0.11097681 -0.16608369 0.73100001 4294967295
0.11264652 -0.16653873 0.73299998 4294967295
0.11401255 -0.16653939 0.73299998 4294967295
0.11553593 -0.1667673 0.73400003 4294967295
0.11722226 -0.16722244 0.736 4294967295
0.11907711 -0.16790484 0.73900002 4294967295
0.12078005 -0.16836005 0.741 4294967295
0.12183099 -0.16790648 0.73900002 4294967295
0.12320784 -0.16790736 0.73900002 4294967295
0.12458464 -0.16790828 0.73900002 4294967295
0.12596139 -0.16790922 0.73900002 4294967295
0.12733805 -0.16791023 0.73900002 4294967295
0.12871467 -0.16791123 0.73900002 4294967295
0.038293757 -0.16901217 0.75 4294967295
0.039694656 -0.16901109 0.75 4294967295
0.041040719 -0.16878471 0.74900001 4294967295
0.04232632 -0.16833298 0.74699998 4294967295
0.04372146 -0.168332 0.74699998 4294967295
0.044935353 -0.16765502 0.74400002 4294967295
0.046200242 -0.16720341 0.74199998 4294967295
0.047393486 -0.16652653 0.73900002 4294967295
0.048773468 -0.16652568 0.73900002 4294967295
0.050085519 -0.16629951 0.73799998 4294967295
0.051463526 -0.1662987 0.73799998 4294967295
0.052698273 -0.16584729 0.736 4294967295
0.053925496 -0.1653959 0.73400003 4294967295
0.055295862 -0.1653952 0.73400003 4294967295
0.05658897 -0.16516919 0.73299998 4294967295
0.057957366 -0.16516855 0.73299998 4294967295
0.059082888 -0.16449195 0.73000002 4294967295
0.060279965 -0.16404071 0.72799999 4294967295
0.061554186 -0.16381486 0.727 4294967295
0.062911153 -0.16381437 0.727 4294967295
0.064356461 -0.16403921 0.72799999 4294967295
0.065624915 -0.16381344 0.727 4294967295
0.066981725 -0.16381302 0.727 4294967295
0.068338469 -0.16381264 0.727 4294967295
0.06969516 -0.16381229 0.727 4294967295
0.071149521 -0.16403729 0.72799999 4294967295
0.072507955 -0.164037 0.72799999 4294967295
0.073764876 -0.16381143 0.727 4294967295
0.075121336 -0.16381118 0.727 4294967295
0.076477744 -0.16381097 0.727 4294967295
0.077834085 -0.16381082 0.727 4294967295
0.079190373 -0.16381069 0.727 4294967295
0.080325022 -0.16335993 0.72500002 4294967295
0.081677459 -0.16335988 0.72500002 4294967295
0.083029851 -0.16335984 0.72500002 4294967295
0.084382184 -0.16335982 0.72500002 4294967295
0.085734449 -0.16335985 0.72500002 4294967295
0.087086663 -0.1633599 0.72500002 4294967295
0.088438809 -0.16335997 0.72500002 4294967295
0.089790903 -0.16336009 0.72500002 4294967295
0.091142938 -0.16336024 0.72500002 4294967295
0.09249492 -0.16336043 0.72500002 4294967295
0.093846843 -0.16336064 0.72500002 4294967295
0.095198698 -0.16336089 0.72500002 4294967295
0.096550517 -0.16336118 0.72500002 4294967295
0.097632162 -0.16291082 0.72299999 4294967295
0.098980114 -0.16291118 0.72299999 4294967295
0.10060555 -0.16336221 0.72500002 4294967295
0.10223838 -0.16381326 0.727 4294967295
0.10359362 -0.16381371 0.727 4294967295
0.10509314 -0.16403949 0.72799999 4294967295
0.10645014 -0.16404 0.72799999 4294967295
0.10810324 -0.16449122 0.73000002 4294967295
0.10946384 -0.1644918 0.73000002 4294967295
0.11097617 -0.16471775 0.73100001 4294967295
0.1123385 -0.16471839 0.73100001 4294967295
0.11370078 -0.16471907 0.73100001 4294967295
0.11537782 -0.16517046 0.73299998 4294967295
0.11674368 -0.16517119 0.73299998 4294967295
0.11859292 -0.165848 0.736 4294967295
0.12029023 -0.16629949 0.73799998 4294967295
0.12166526 -0.16630036 0.73799998 4294967295
0.12304021 -0.16630124 0.73799998 4294967295
0.12441511 -0.16630216 0.73799998 4294967295
0.12578997 -0.16630314 0.73799998 4294967295
0.12716474 -0.16630414 0.73799998 4294967295
0.12871362 -0.16653052 0.73900002 4294967295
0.13044222 -0.16698229 0.741 4294967295
0.1320003 -0.16720875 0.74199998 4294967295
0.036893912 -0.167611 0.75 4294967295
0.038294841 -0.16760992 0.75 4294967295
0.039642785 -0.16738537 0.74900001 4294967295
0.040932141 -0.16693738 0.74699998 4294967295
0.042270645 -0.1667129 0.74599999 4294967295
0.043546822 -0.166265 0.74400002 4294967295
0.044755075 -0.16559364 0.741 4294967295
0.046138868 -0.16559274 0.741 4294967295
0.047394339 -0.16514494 0.73900002 4294967295
0.048708282 -0.16492063 0.73799998 4294967295
0.049950574 -0.16447288 0.736 4294967295
0.051324822 -0.16447212 0.736 4294967295
0.052555799 -0.16402444 0.73400003 4294967295
0.053852718 -0.16380027 0.73299998 4294967295
0.055221189 -0.16379958 0.73299998 4294967295
0.056435198 -0.16335201 0.73100001 4294967295
0.057799827 -0.1633514 0.73100001 4294967295
0.058921587 -0.16268042 0.72799999 4294967295
0.060280506 -0.16267987 0.72799999 4294967295
0.061554693 -0.1624559 0.727 4294967295
0.062911637 -0.16245539 0.727 4294967295
0.064356923 -0.16267841 0.72799999 4294967295
0.06562534 -0.1624545 0.727 4294967295
0.066982113 -0.16245413 0.727 4294967295
0.068338819 -0.16245374 0.727 4294967295
0.06969548 -0.16245341 0.727 4294967295
0.071052082 -0.1624531 0.727 4294967295
0.072408624 -0.16245283 0.727 4294967295
0.073765114 -0.16245258 0.727 4294967295
0.075121537 -0.16245238 0.727 4294967295
0.076267526 -0.16200528 0.72500002 4294967295
0.077620104 -0.16200514 0.72500002 4294967295
0.07897263 -0.16200502 0.72500002 4294967295
0.080325104 -0.16200495 0.72500002 4294967295
0.081677504 -0.16200489 0.72500002 4294967295
0.083029866 -0.16200484 0.72500002 4294967295
0.084382154 -0.16200486 0.72500002 4294967295
0.085734397 -0.1620049 0.72500002 4294967295
0.086846337 -0.16155805 0.72299999 4294967295
0.088194728 -0.16155815 0.72299999 4294967295
0.089790761 -0.16200522 0.72500002 4294967295
0.090891331 -0.16155845 0.72299999 4294967295
0.092239551 -0.16155864 0.72299999 4294967295
0.093587704 -0.16155888 0.72299999 4294967295
0.094935827 -0.16155915 0.72299999 4294967295
0.096283853 -0.16155943 0.72299999 4294967295
0.097631842 -0.16155976 0.72299999 4294967295
0.098979749 -0.16156013 0.72299999 4294967295
0.10060516 -0.16200744 0.72500002 4294967295
0.10223796 -0.16245478 0.727 4294967295
0.10373565 -0.16267869 0.72799999 4294967295
0.10509266 -0.16267918 0.72799999 4294967295
0.10644961 -0.16267973 0.72799999 4294967295
0.10810268 -0.16312718 0.73000002 4294967295
0.10946323 -0.16312781 0.73000002 4294967295
0.11082374 -0.16312842 0.73000002 4294967295
0.11233784 -0.16335255 0.73100001 4294967295
0.11370008 -0.16335323 0.73100001 4294967295
0.11537707 -0.16380091 0.73299998 4294967295
0.11674292 -0.16380166 0.73299998 4294967295
0.11826986 -0.16402595 0.73400003 4294967295
0.11996341 -0.16447371 0.736 4294967295
0.12133469 -0.16447459 0.736 4294967295
0.12270588 -0.1644755 0.736 4294967295
0.12407701 -0.16447644 0.736 4294967295
0.12544809 -0.16447741 0.736 4294967295
0.12716372 -0.16492538 0.73799998 4294967295
0.12853839 -0.16492642 0.73799998 4294967295
0.13044111 -0.16559796 0.741 4294967295
0.13199918 -0.16582257 0.74199998 4294967295
0.035494056 -0.16620994 0.75 4294967295
0.036845811 -0.16598722 0.74900001 4294967295
0.03824484 -0.16598615 0.74900001 4294967295
0.039537955 -0.16554187 0.74699998 4294967295
0.040878344 -0.16531926 0.74599999 4294967295
0.042158287 -0.16487508 0.74400002 4294967295
0.043430693 -0.16443092 0.74199998 4294967295
0.04463518 -0.16376519 0.73900002 4294967295
0.045952935 -0.16354269 0.73799998 4294967295
0.047331046 -0.16354185 0.73799998 4294967295
0.048577085 -0.16309784 0.736 4294967295
0.049815618 -0.16265386 0.73400003 4294967295
0.051186096 -0.16265312 0.73400003 4294967295
0.052484903 -0.16243078 0.73299998 4294967295
0.053853396 -0.16243008 0.73299998 4294967295
0.055071164 -0.16198625 0.73100001 4294967295
0.056358621 -0.16176403 0.73000002 4294967295
0.057721347 -0.16176341 0.73000002 4294967295
0.058922146 -0.16131966 0.72799999 4294967295
0.060281035 -0.16131912 0.72799999 4294967295
0.061555192 -0.16109702 0.727 4294967295
0.062912092 -0.16109654 0.727 4294967295
0.064357348 -0.16131771 0.72799999 4294967295
0.065625742 -0.16109569 0.727 4294967295
0.066982485 -0.16109531 0.727 4294967295
0.068339169 -0.16109496 0.727 4294967295
0.069695793 -0.16109465 0.727 4294967295
0.071052365 -0.16109435 0.727 4294967295
0.072209671 -0.16065092 0.72500002 4294967295
0.073562399 -0.1606507 0.72500002 4294967295
0.074915066 -0.16065051 0.72500002 4294967295
0.076267675 -0.16065033 0.72500002 4294967295
0.077620238 -0.16065021 0.72500002 4294967295
0.078972727 -0.1606501 0.72500002 4294967295
0.080325164 -0.16065001 0.72500002 4294967295
0.081677541 -0.16064997 0.72500002 4294967295
0.083029866 -0.16064999 0.72500002 4294967295
0.084382132 -0.16065001 0.72500002 4294967295
0.085734338 -0.16065007 0.72500002 4294967295
0.086846247 -0.16020697 0.72299999 4294967295
0.088194601 -0.16020708 0.72299999 4294967295
0.089542903 -0.16020724 0.72299999 4294967295
0.090891138 -0.16020741 0.72299999 4294967295
0.092239328 -0.16020764 0.72299999 4294967295
0.093587466 -0.16020788 0.72299999 4294967295
0.094935521 -0.16020817 0.72299999 4294967295
0.09628354 -0.16020846 0.72299999 4294967295
0.097631477 -0.16020881 0.72299999 4294967295
0.098979369 -0.16020918 0.72299999 4294967295
0.10060474 -0.16065277 0.72500002 4294967295
0.10195624 -0.1606532 0.72500002 4294967295
0.10359268 -0.16109686 0.727 4294967295
0.10494778 -0.16109738 0.727 4294967295
0.10630285 -0.16109791 0.727 4294967295
0.10780592 -0.16132009 0.72799999 4294967295
0.10916272 -0.16132069 0.72799999 4294967295
0.11082308 -0.16176455 0.73000002 4294967295
0.11218347 -0.1617652 0.73000002 4294967295
0.11354382 -0.16176593 0.73000002 4294967295
0.11506151 -0.16198826 0.73100001 4294967295
0.1164236 -0.16198905 0.73100001 4294967295
0.11778563 -0.16198985 0.73100001 4294967295
0.11947357 -0.16243391 0.73299998 4294967295
0.12083919 -0.16243479 0.73299998 4294967295
0.12237151 -0.16265732 0.73400003 4294967295
0.12407605 -0.16310148 0.736 4294967295
0.12544709 -0.16310248 0.736 4294967295
0.12681808 -0.16310352 0.736 4294967295
0.12853733 -0.1635478 0.73799998 4294967295
0.13044 -0.16421373 0.741 4294967295
0.13199803 -0.16443649 0.74199998 4294967295
0.13337995 -0.16443768 0.74199998 4294967295
0.13476177 -0.16443889 0.74199998 4294967295
0.035495162 -0.16480784 0.75 4294967295
0.036846891 -0.16458701 0.74900001 4294967295
0.038143761 -0.16414648 0.74699998 4294967295
0.039486043 -0.16392571 0.74599999 4294967295
0.040769733 -0.16348524 0.74400002 4294967295
0.042045899 -0.16304481 0.74199998 4294967295
0.043373074 -0.16282414 0.741 4294967295
0.044575658 -0.16216403 0.73799998 4294967295
0.045953788 -0.16216318 0.73799998 4294967295
0.047203597 -0.16172288 0.736 4294967295
0.048577882 -0.16172208 0.736 4294967295
0.049816377 -0.16128187 0.73400003 4294967295
0.051186826 -0.16128112 0.73400003 4294967295
0.052342393 -0.16062123 0.73100001 4294967295
0.053707123 -0.16062056 0.73100001 4294967295
0.054996457 -0.16040018 0.73000002 4294967295
0.056359224 -0.16039959 0.73000002 4294967295
0.057721924 -0.16039899 0.73000002 4294967295
0.058922686 -0.15995899 0.72799999 4294967295
0.060281541 -0.15995847 0.72799999 4294967295
0.061555669 -0.15973826 0.727 4294967295
0.062912539 -0.15973778 0.727 4294967295
0.064357772 -0.1599571 0.72799999 4294967295
0.065626137 -0.15973698 0.727 4294967295
0.06698285 -0.1597366 0.727 4294967295
0.068151489 -0.15929684 0.72500002 4294967295
0.069504358 -0.15929654 0.72500002 4294967295
0.070857167 -0.15929626 0.72500002 4294967295
0.07220991 -0.15929602 0.72500002 4294967295
0.073562607 -0.15929581 0.72500002 4294967295
0.074915245 -0.15929563 0.72500002 4294967295
0.076057427 -0.15885605 0.72299999 4294967295
0.077406213 -0.15885593 0.72299999 4294967295
0.078972802 -0.15929528 0.72500002 4294967295
0.080325209 -0.15929523 0.72500002 4294967295
0.081677556 -0.1592952 0.72500002 4294967295
0.083029851 -0.1592952 0.72500002 4294967295
0.084382087 -0.15929526 0.72500002 4294967295
0.085734263 -0.15929532 0.72500002 4294967295
0.086846128 -0.15885597 0.72299999 4294967295
0.088194452 -0.15885612 0.72299999 4294967295
0.089542739 -0.15885627 0.72299999 4294967295
0.090890944 -0.15885648 0.72299999 4294967295
0.092239089 -0.1588567 0.72299999 4294967295
0.093587182 -0.15885697 0.72299999 4294967295
0.094803929 -0.15863755 0.722 4294967295
0.096150041 -0.15863788 0.722 4294967295
0.097631119 -0.15885796 0.72299999 4294967295
0.098978974 -0.15885834 0.72299999 4294967295
0.10032678 -0.15885876 0.72299999 4294967295
0.10167453 -0.15885922 0.72299999 4294967295
0.10330721 -0.15929917 0.72500002 4294967295
0.10465854 -0.15929969 0.72500002 4294967295
0.10630228 -0.15973969 0.727 4294967295
0.10765724 -0.15974028 0.727 4294967295
0.10916208 -0.15996061 0.72799999 4294967295
0.1105188 -0.1599613 0.72799999 4294967295
0.11187544 -0.15996198 0.72799999 4294967295
0.11354309 -0.16040218 0.73000002 4294967295
0.11490335 -0.16040292 0.73000002 4294967295
0.11626354 -0.16040373 0.73000002 4294967295
0.11778481 -0.1606243 0.73100001 4294967295
0.11914674 -0.16062514 0.73100001 4294967295
0.1205086 -0.16062605 0.73100001 4294967295
0.12220385 -0.16106646 0.73299998 4294967295
0.12356933 -0.16106743 0.73299998 4294967295
0.1251052 -0.1612882 0.73400003 4294967295
0.126817 -0.16172868 0.736 4294967295
0.12853622 -0.16216925 0.73799998 4294967295
0.13043889 -0.16282961 0.741 4294967295
0.13199684 -0.1630505 0.74199998 4294967295
0.13337873 -0.16305171 0.74199998 4294967295
0.13476053 -0.16305295 0.74199998 4294967295
0.03409531 -0.16340694 0.75 4294967295
0.035448927 -0.16318798 0.74900001 4294967295
0.036847949 -0.16318689 0.74900001 4294967295
0.038093727 -0.16253224 0.74599999 4294967295
0.039487038 -0.16253123 0.74599999 4294967295
0.040661093 -0.16165878 0.74199998 4294967295
0.041990161 -0.16143997 0.741 4294967295
0.043256909 -0.16100334 0.73900002 4294967295
0.044576526 -0.16078457 0.73799998 4294967295
0.045830086 -0.16034801 0.736 4294967295
0.047204398 -0.16034719 0.736 4294967295
0.048446648 -0.15991069 0.73400003 4294967295
0.049817115 -0.15990995 0.73400003 4294967295
0.051117796 -0.15969135 0.73299998 4294967295
0.052343067 -0.15925494 0.73100001 4294967295
0.053634297 -0.15903644 0.73000002 4294967295
0.054997079 -0.15903582 0.73000002 4294967295
0.056205392 -0.1585995 0.72799999 4294967295
0.057564333 -0.15859893 0.72799999 4294967295
0.058923207 -0.15859839 0.72799999 4294967295
0.060199231 -0.15838003 0.727 4294967295
0.061386794 -0.15794387 0.72500002 4294967295
0.062739909 -0.15794343 0.72500002 4294967295
0.064269766 -0.15837872 0.727 4294967295
0.065626502 -0.15837833 0.727 4294967295
0.06679891 -0.1579423 0.72500002 4294967295
0.068151794 -0.15794197 0.72500002 4294967295
0.069312893 -0.15750597 0.72299999 4294967295
0.07066194 -0.15750572 0.72299999 4294967295
0.072010919 -0.1575055 0.72299999 4294967295
0.073359855 -0.1575053 0.72299999 4294967295
0.07470873 -0.15750514 0.72299999 4294967295
0.076057553 -0.15750501 0.72299999 4294967295
0.07740631 -0.15750492 0.72299999 4294967295
0.078755006 -0.15750483 0.72299999 4294967295
0.080103651 -0.1575048 0.72299999 4294967295
0.081452236 -0.1575048 0.72299999 4294967295
0.082800768 -0.15750481 0.72299999 4294967295
0.084149241 -0.15750486 0.72299999 4294967295
0.085734166 -0.15794066 0.72500002 4294967295
0.087086253 -0.15794079 0.72500002 4294967295
0.088438272 -0.15794094 0.72500002 4294967295
0.089542545 -0.15750542 0.72299999 4294967295
0.09089072 -0.15750562 0.72299999 4294967295
0.092238843 -0.15750585 0.72299999 4294967295
0.09345746 -0.1572883 0.722 4294967295
0.094803602 -0.15728861 0.722 4294967295
0.09614969 -0.15728895 0.722 4294967295
0.097495705 -0.15728934 0.722 4294967295
0.098841652 -0.15728974 0.722 4294967295
0.10032634 -0.15750803 0.72299999 4294967295
0.10167405 -0.15750849 0.72299999 4294967295
0.1033067 -0.15794472 0.72500002 4294967295
0.10465801 -0.15794526 0.72500002 4294967295
0.10600925 -0.15794584 0.72500002 4294967295
0.10765662 -0.15838213 0.727 4294967295
0.10916144 -0.15860064 0.72799999 4294967295
0.11051811 -0.15860131 0.72799999 4294967295
0.11187471 -0.15860201 0.72799999 4294967295
0.11323126 -0.15860277 0.72799999 4294967295
0.11458775 -0.15860353 0.72799999 4294967295
0.11626272 -0.15904009 0.73000002 4294967295
0.11778395 -0.1592588 0.73100001 4294967295
0.11914585 -0.15925969 0.73100001 4294967295
0.12050768 -0.15926059 0.73100001 4294967295
0.12186946 -0.15926152 0.73100001 4294967295
0.12356835 -0.15969826 0.73299998 4294967295
0.12510416 -0.15991716 0.73400003 4294967295
0.12647134 -0.15991822 0.73400003 4294967295
0.12818679 -0.16035505 0.736 4294967295
0.13008568 -0.16100983 0.73900002 4294967295
0.13181779 -0.16144675 0.741 4294967295
0.13337752 -0.16166584 0.74199998 4294967295
0.13475929 -0.16166708 0.74199998 4294967295
0.13614102 -0.16166838 0.74199998 4294967295
0.03278264 -0.16243817 0.75199997 4294967295
0.034096416 -0.16200504 0.75 4294967295
0.035450004 -0.16178794 0.74900001 4294967295
0.036750596 -0.16135485 0.74699998 4294967295
0.038094733 -0.16113785 0.74599999 4294967295
0.039382149 -0.16070487 0.74400002 4294967295
0.040662039 -0.1602719 0.74199998 4294967295
0.041877739 -0.15962298 0.73900002 4294967295
0.043199249 -0.15940608 0.73799998 4294967295
0.044456564 -0.15897325 0.736 4294967295
0.045830902 -0.15897241 0.736 4294967295
0.047205187 -0.15897161 0.736 4294967295
0.048447404 -0.15853886 0.73400003 4294967295
0.049817838 -0.15853813 0.73400003 4294967295
0.051118482 -0.15832141 0.73299998 4294967295
0.052272122 -0.15767279 0.73000002 4294967295
0.053634938 -0.15767214 0.73000002 4294967295
0.054847002 -0.15723956 0.72799999 4294967295
0.056205962 -0.15723898 0.72799999 4294967295
0.057485793 -0.15702243 0.727 4294967295
0.058842774 -0.15702192 0.727 4294967295
0.060034104 -0.15658948 0.72500002 4294967295
0.061217885 -0.15615705 0.72299999 4294967295
0.062567241 -0.15615663 0.72299999 4294967295
0.064093351 -0.1565882 0.72500002 4294967295
0.065446325 -0.15658784 0.72500002 4294967295
0.066799238 -0.15658751 0.72500002 4294967295
0.067964084 -0.15615524 0.72299999 4294967295
0.069313154 -0.15615496 0.72299999 4294967295
0.070662171 -0.15615472 0.72299999 4294967295
0.072011128 -0.15615453 0.72299999 4294967295
0.073360026 -0.15615433 0.72299999 4294967295
0.074708864 -0.15615419 0.72299999 4294967295
0.07605765 -0.15615407 0.72299999 4294967295
0.077406377 -0.15615399 0.72299999 4294967295
0.078755051 -0.15615395 0.72299999 4294967295
0.080103666 -0.15615392 0.72299999 4294967295
0.081452221 -0.15615393 0.72299999 4294967295
0.082686201 -0.15593798 0.722 4294967295
0.084032781 -0.15593807 0.722 4294967295
0.085497543 -0.15615414 0.72299999 4294967295
0.08684586 -0.15615427 0.72299999 4294967295
0.088438101 -0.15658642 0.72500002 4294967295
0.089418486 -0.15593867 0.722 4294967295
0.090764768 -0.15593889 0.722 4294967295
0.092110984 -0.15593916 0.722 4294967295
0.093457162 -0.15593944 0.722 4294967295
0.094803274 -0.15593979 0.722 4294967295
0.096149325 -0.15594015 0.722 4294967295
0.09749531 -0.15594053 0.722 4294967295
0.098841235 -0.15594095 0.722 4294967295
0.10032587 -0.15615739 0.72299999 4294967295
0.10167355 -0.15615788 0.72299999 4294967295
0.10330616 -0.15659039 0.72500002 4294967295
0.10465744 -0.15659094 0.72500002 4294967295
0.10600866 -0.15659153 0.72500002 4294967295
0.10735984 -0.15659216 0.72500002 4294967295
0.10901083 -0.15702477 0.727 4294967295
0.1103656 -0.15702549 0.727 4294967295
0.11187398 -0.15724218 0.72799999 4294967295
0.11307497 -0.15702696 0.727 4294967295
0.11442957 -0.15702775 0.727 4294967295
0.1157841 -0.15702857 0.727 4294967295
0.11762195 -0.15767741 0.73000002 4294967295
0.11898194 -0.15767832 0.73000002 4294967295
0.1203419 -0.15767926 0.73000002 4294967295
0.12170178 -0.15768021 0.73000002 4294967295
0.12323018 -0.15789722 0.73100001 4294967295
0.1245918 -0.15789825 0.73100001 4294967295
0.12629795 -0.15833133 0.73299998 4294967295
0.12783737 -0.15854846 0.73400003 4294967295
0.12990849 -0.15941361 0.73799998 4294967295
0.1318166 -0.16006283 0.741 4294967295
0.13319653 -0.16006406 0.741 4294967295
0.13475801 -0.16028135 0.74199998 4294967295
0.13613972 -0.16028266 0.74199998 4294967295
0.13789201 -0.16071601 0.74400002 4294967295
0.030093838 -0.16167732 0.755 4294967295
0.031295579 -0.16060545 0.75 4294967295
0.032696571 -0.16060431 0.75 4294967295
0.034052044 -0.16038908 0.74900001 4294967295
0.035451062 -0.16038801 0.74900001 4294967295
0.036702424 -0.15974456 0.74599999 4294967295
0.037993599 -0.1593153 0.74400002 4294967295
0.039277241 -0.15888605 0.74199998 4294967295
0.040608164 -0.15867098 0.741 4294967295
0.041878633 -0.15824182 0.73900002 4294967295
0.043200113 -0.1580268 0.73799998 4294967295
0.044457398 -0.15759772 0.736 4294967295
0.045707162 -0.15716866 0.73400003 4294967295
0.047077678 -0.15716788 0.73400003 4294967295
0.048448134 -0.15716712 0.73400003 4294967295
0.049750663 -0.15695228 0.73299998 4294967295
0.050979678 -0.15652336 0.73100001 4294967295
0.052272771 -0.15630858 0.73000002 4294967295
0.053415123 -0.15566559 0.727 4294967295
0.054772243 -0.155665 0.727 4294967295
0.056129303 -0.15566444 0.727 4294967295
0.057328172 -0.15523568 0.72500002 4294967295
0.058681384 -0.15523516 0.72500002 4294967295
0.060034554 -0.15523471 0.72500002 4294967295
0.06121831 -0.15480602 0.72299999 4294967295
0.062567636 -0.15480563 0.72299999 4294967295
0.064093716 -0.15523347 0.72500002 4294967295
0.065446652 -0.15523314 0.72500002 4294967295
0.066799536 -0.15523283 0.72500002 4294967295
0.067964353 -0.1548043 0.72299999 4294967295
0.069313399 -0.15480404 0.72299999 4294967295
0.070662387 -0.15480383 0.72299999 4294967295
0.072011307 -0.15480363 0.72299999 4294967295
0.073360175 -0.15480348 0.72299999 4294967295
0.074708991 -0.15480334 0.72299999 4294967295
0.076057747 -0.15480325 0.72299999 4294967295
0.077299379 -0.15458907 0.722 4294967295
0.078646153 -0.15458904 0.722 4294967295
0.079992875 -0.15458903 0.722 4294967295
0.081339531 -0.15458906 0.722 4294967295
0.082457088 -0.15416089 0.72000003 4294967295
0.083799899 -0.15416098 0.72000003 4294967295
0.085497417 -0.15480343 0.72299999 4294967295
0.086365238 -0.15394713 0.71899998 4294967295
0.087706 -0.15394731 0.71899998 4294967295
0.089170575 -0.15416165 0.72000003 4294967295
0.090513103 -0.15416189 0.72000003 4294967295
0.091855563 -0.15416215 0.72000003 4294967295
0.093456849 -0.1545907 0.722 4294967295
0.094934233 -0.15480515 0.72299999 4294967295
0.09628211 -0.15480554 0.72299999 4294967295
0.097629935 -0.15480594 0.72299999 4294967295
0.098977678 -0.15480638 0.72299999 4294967295
0.10032541 -0.15480685 0.72299999 4294967295
0.10167304 -0.15480736 0.72299999 4294967295
0.10302062 -0.1548079 0.72299999 4294967295
0.10436814 -0.15480846 0.72299999 4294967295
0.10571562 -0.15480909 0.72299999 4294967295
0.10706303 -0.15480971 0.72299999 4294967295
0.10871026 -0.15523863 0.72500002 4294967295
0.11006129 -0.15523934 0.72500002 4294967295
0.11141224 -0.15524007 0.72500002 4294967295
0.11276312 -0.15524083 0.72500002 4294967295
0.11411396 -0.15524165 0.72500002 4294967295
0.11546474 -0.15524249 0.72500002 4294967295
0.11729882 -0.15588574 0.72799999 4294967295
0.11898103 -0.15631492 0.73000002 4294967295
0.12034094 -0.15631586 0.73000002 4294967295
0.12170079 -0.15631685 0.73000002 4294967295
0.12306058 -0.15631787 0.73000002 4294967295
0.12459075 -0.15653305 0.73100001 4294967295
0.12595227 -0.15653414 0.73100001 4294967295
0.12766206 -0.15696354 0.73299998 4294967295
0.12955527 -0.15760711 0.736 4294967295
0.1312817 -0.15803659 0.73799998 4294967295
0.13319528 -0.15868028 0.741 4294967295
0.13475673 -0.15889569 0.74199998 4294967295
0.13613838 -0.15889703 0.74199998 4294967295
0.13789065 -0.15932667 0.74400002 4294967295
0.028684601 -0.16026738 0.755 4294967295
0.030055147 -0.16005394 0.75400001 4294967295
0.031296715 -0.15920368 0.75 4294967295
0.032654081 -0.15899031 0.74900001 4294967295
0.034053117 -0.15898921 0.74900001 4294967295
0.035357434 -0.15856361 0.74699998 4294967295
0.036605034 -0.15792581 0.74400002 4294967295
0.037892435 -0.1575003 0.74199998 4294967295
0.039278183 -0.15749933 0.74199998 4294967295
0.040499471 -0.15686165 0.73900002 4294967295
0.041822836 -0.15664849 0.73799998 4294967295
0.04308388 -0.15622312 0.736 4294967295
0.04445821 -0.1562223 0.736 4294967295
0.045707941 -0.15579697 0.73400003 4294967295
0.047078427 -0.15579621 0.73400003 4294967295
0.048382849 -0.15558323 0.73299998 4294967295
0.049751356 -0.15558252 0.73299998 4294967295
0.050980337 -0.15515736 0.73100001 4294967295
0.052130178 -0.15451995 0.72799999 4294967295
0.053268768 -0.15388261 0.72500002 4294967295
0.054622121 -0.15388201 0.72500002 4294967295
0.055975426 -0.15388148 0.72500002 4294967295
0.057170525 -0.15345645 0.72299999 4294967295
0.058519982 -0.15345597 0.72299999 4294967295
0.059869379 -0.15345553 0.72299999 4294967295
0.061218731 -0.15345511 0.72299999 4294967295
0.062568016 -0.15345471 0.72299999 4294967295
0.063917249 -0.15345436 0.72299999 4294967295
0.065266423 -0.15345404 0.72299999 4294967295
0.066799834 -0.15387823 0.72500002 4294967295
0.067964613 -0.15345345 0.72299999 4294967295
0.06931363 -0.15345322 0.72299999 4294967295
0.07066258 -0.15345302 0.72299999 4294967295
0.072011471 -0.15345284 0.72299999 4294967295
0.073258847 -0.15324046 0.722 4294967295
0.074605763 -0.15324034 0.722 4294967295
0.075952627 -0.15324026 0.722 4294967295
0.077299424 -0.15324019 0.722 4294967295
0.078428313 -0.15281571 0.72000003 4294967295
0.079771273 -0.15281571 0.72000003 4294967295
0.081114165 -0.15281576 0.72000003 4294967295
0.082342483 -0.15260358 0.71899998 4294967295
0.083450623 -0.15217918 0.71700001 4294967295
0.084787749 -0.15217933 0.71700001 4294967295
0.086365059 -0.15260398 0.71899998 4294967295
0.087705798 -0.15260418 0.71899998 4294967295
0.089046486 -0.15260442 0.71899998 4294967295
0.090387113 -0.15260468 0.71899998 4294967295
0.091727674 -0.15260498 0.71899998 4294967295
0.093197636 -0.15281756 0.72000003 4294967295
0.094802558 -0.15324241 0.722 4294967295
0.096148543 -0.15324278 0.722 4294967295
0.097494461 -0.15324323 0.722 4294967295
0.098840334 -0.15324366 0.722 4294967295
0.1003249 -0.1534564 0.72299999 4294967295
0.10167252 -0.15345694 0.72299999 4294967295
0.10302006 -0.15345749 0.72299999 4294967295
0.10436756 -0.15345807 0.72299999 4294967295
0.10571499 -0.1534587 0.72299999 4294967295
0.10706237 -0.15345936 0.72299999 4294967295
0.10870957 -0.15388454 0.72500002 4294967295
0.10975693 -0.15346076 0.72299999 4294967295
0.11110412 -0.15346152 0.72299999 4294967295
0.11245126 -0.15346231 0.72299999 4294967295
0.11364093 -0.15325086 0.722 4294967295
0.11498609 -0.15325172 0.722 4294967295
0.11681456 -0.15388939 0.72500002 4294967295
