# .PCD v0.7 - Point Cloud Data file format
VERSION 0.7
FIELDS x y z rgba
SIZE 4 4 4 4
TYPE F F F U
COUNT 1 1 1 1
WIDTH 1062
HEIGHT 1
VIEWPOINT 0 0 0 1 0 0 0
POINTS 1062
DATA ascii
0.16378386 -0.0053408188 0.91299999 4294967295
0.16584148 -0.0053570624 0.91500002 4294967295
0.16808952 -0.005379233 0.91799998 4294967295
0.17016369 -0.0053956178 0.92000002 4294967295
0.17243198 -0.0054179388 0.92299998 4294967295
0.1745227 -0.0054344656 0.92500001 4294967295
0.17681122 -0.0054569407 0.92799997 4294967295
0.17853367 -0.0054618395 0.92799997 4294967295
0.048308976 -0.0035748736 0.94599998 4286294174
0.050070923 -0.0035762051 0.94599998 4290627031
0.05166842 -0.0035662402 0.94300002 4294967295
0.053254671 -0.0035563156 0.94 4294967295
0.055005223 -0.0035577849 0.94 4294967295
0.056634948 -0.0035517307 0.93800002 4294967295
0.058194909 -0.0035419301 0.935 4294967295
0.059807733 -0.003535958 0.93300003 4294967295
0.061347067 -0.0035262355 0.93000001 4294967295
0.062942982 -0.0035203442 0.92799997 4294967295
0.064461701 -0.0035106984 0.92500001 4294967295
0.066040702 -0.0035048868 0.92299998 4294967295
0.067391969 -0.0034877176 0.91799998 4294967295
0.069100909 -0.0034895821 0.91799998 4294967295
0.070578367 -0.0034800847 0.91500002 4294967295
0.072281584 -0.0034820389 0.91500002 4294967295
0.073984705 -0.00348404 0.91500002 4294967295
0.075522326 -0.0034784689 0.91299999 4294967295
0.077221587 -0.0034805611 0.91299999 4294967295
0.078920774 -0.0034827003 0.91299999 4294967295
0.080619894 -0.0034848875 0.91299999 4294967295
0.082048431 -0.0034756637 0.91000003 4294967295
0.08355777 -0.0034702942 0.90799999 4294967295
0.085059576 -0.0034649619 0.90600002 4294967295
0.086745359 -0.0034673207 0.90600002 4294967295
0.088138252 -0.003458237 0.903 4294967295
0.089818306 -0.0034606822 0.903 4294967295
0.091498286 -0.003463174 0.903 4294967295
0.092971809 -0.0034580368 0.90100002 4294967295
0.094647907 -0.0034606168 0.90100002 4294967295
0.096323945 -0.0034632438 0.90100002 4294967295
0.097999886 -0.0034659177 0.90100002 4294967295
0.09967576 -0.0034686381 0.90100002 4294967295
0.10101408 -0.0034598471 0.898 4294967295
0.10268422 -0.0034626517 0.898 4294967295
0.10435428 -0.0034655035 0.898 4294967295
0.10602425 -0.003468402 0.898 4294967295
0.10769416 -0.0034713475 0.898 4294967295
0.10936398 -0.0034743394 0.898 4294967295
0.11103373 -0.003477378 0.898 4294967295
0.1127034 -0.0034804633 0.898 4294967295
0.11437299 -0.0034835956 0.898 4294967295
0.1160425 -0.0034867746 0.898 4294967295
0.11771193 -0.00349 0.898 4294967295
0.11938128 -0.0034932725 0.898 4294967295
0.12105054 -0.0034965915 0.898 4294967295
0.12271973 -0.0034999573 0.898 4294967295
0.12438884 -0.0035033701 0.898 4294967295
0.12605786 -0.0035068295 0.898 4294967295
0.12772679 -0.0035103357 0.898 4294967295
0.12939568 -0.0035138885 0.898 4294967295
0.13106447 -0.003517488 0.898 4294967295
0.13273318 -0.0035211344 0.898 4294967295
0.1344018 -0.0035248271 0.898 4294967295
0.13607034 -0.0035285677 0.898 4294967295
0.13773878 -0.0035323538 0.898 4294967295
0.13940717 -0.0035361873 0.898 4294967295
0.14154677 -0.0035518941 0.90100002 4294967295
0.14322056 -0.0035558343 0.90100002 4294967295
0.14521588 -0.0035677231 0.903 4294967295
0.14738123 -0.0035836326 0.90600002 4294967295
0.14939313 -0.0035956562 0.90799999 4294967295
0.15141235 -0.003607745 0.91000003 4294967295
0.15310244 -0.0036119614 0.91000003 4294967295
0.15479246 -0.0036162257 0.91000003 4294967295
0.15648237 -0.003620537 0.91000003 4294967295
0.15817222 -0.0036248956 0.91000003 4294967295
0.15986197 -0.0036293019 0.91000003 4294967295
0.16155164 -0.0036337555 0.91000003 4294967295
0.16324121 -0.0036382561 0.91000003 4294967295
0.16547444 -0.0036548141 0.91299999 4294967295
0.16753563 -0.0036674414 0.91500002 4294967295
0.16978909 -0.0036841494 0.91799998 4294967295
0.17186682 -0.003696918 0.92000002 4294967295
0.17414053 -0.0037137792 0.92299998 4294967295
0.17585374 -0.0037186334 0.92299998 4294967295
0.17756687 -0.0037235352 0.92299998 4294967295
0.050069563 -0.0018228113 0.94599998 4293455098
0.051502645 -0.0018126456 0.94 4294967295
0.053253226 -0.0018140901 0.94 4294967295
0.054886699 -0.0018117205 0.93800002 4294967295
0.056452274 -0.0018074603 0.935 4294967295
0.058068845 -0.0018051737 0.93300003 4294967295
0.059806097 -0.0018068019 0.93300003 4294967295
0.061345391 -0.0018026636 0.93000001 4294967295
0.062737793 -0.0017946826 0.92500001 4294967295
0.064320557 -0.0017925572 0.92299998 4294967295
0.065824248 -0.0017885284 0.92000002 4294967295
0.067390129 -0.0017864815 0.91799998 4294967295
0.069099009 -0.0017883704 0.91799998 4294967295
0.070576429 -0.0017844569 0.91500002 4294967295
0.072279595 -0.0017864353 0.91500002 4294967295
0.073982678 -0.0017884613 0.91500002 4294967295
0.075520255 -0.0017866211 0.91299999 4294967295
0.077219471 -0.001788738 0.91299999 4294967295
0.078918606 -0.0017909023 0.91299999 4294967295
0.080617674 -0.0017931141 0.91299999 4294967295
0.082046174 -0.0017894745 0.91000003 4294967295
0.083555467 -0.0017878362 0.90799999 4294967295
0.085057236 -0.0017862349 0.90600002 4294967295
0.086742982 -0.0017886189 0.90600002 4294967295
0.088135831 -0.0017851193 0.903 4294967295
0.089815833 -0.0017875896 0.903 4294967295
0.091495767 -0.001790107 0.903 4294967295
0.092969246 -0.0017887009 0.90100002 4294967295
0.094645314 -0.0017913065 0.90100002 4294967295
0.096321292 -0.0017939593 0.90100002 4294967295
0.097997189 -0.001796659 0.90100002 4294967295
0.099341132 -0.001793414 0.898 4294967295
0.1010113 -0.0017961983 0.898 4294967295
0.10268139 -0.0017990295 0.898 4294967295
0.10435141 -0.0018019073 0.898 4294967295
0.10602133 -0.0018048319 0.898 4294967295
0.1076912 -0.0018078036 0.898 4294967295
0.10936097 -0.0018108222 0.898 4294967295
0.11103068 -0.0018138873 0.898 4294967295
0.11270029 -0.0018169993 0.898 4294967295
0.11436985 -0.0018201582 0.898 4294967295
0.11603928 -0.0018233637 0.898 4294967295
0.11744653 -0.0018225482 0.89600003 4294967295
0.11911212 -0.0018258404 0.89600003 4294967295
0.12077761 -0.0018291791 0.89600003 4294967295
0.12244302 -0.0018325645 0.89600003 4294967295
0.12438542 -0.001840095 0.898 4294967295
0.12605439 -0.0018435817 0.898 4294967295
0.12772329 -0.0018471152 0.898 4294967295
0.12939212 -0.0018506957 0.898 4294967295
0.13106084 -0.0018543229 0.898 4294967295
0.13272952 -0.0018579968 0.898 4294967295
0.13439807 -0.0018617177 0.898 4294967295
0.13606659 -0.0018654856 0.898 4294967295
0.13773498 -0.0018693003 0.898 4294967295
0.13940331 -0.0018731615 0.898 4294967295
0.14107156 -0.0018770699 0.898 4294967295
0.1432166 -0.0018873092 0.90100002 4294967295
0.14489026 -0.0018913246 0.90100002 4294967295
0.14656383 -0.0018953871 0.90100002 4294967295
0.14856637 -0.0019037125 0.903 4294967295
0.15107541 -0.0019184424 0.90799999 4294967295
0.15276173 -0.0019226786 0.90799999 4294967295
0.15444799 -0.0019269619 0.90799999 4294967295
0.15613413 -0.0019312928 0.90799999 4294967295
0.15816784 -0.0019399346 0.91000003 4294967295
0.15985756 -0.00194437 0.91000003 4294967295
0.16154717 -0.0019488529 0.91000003 4294967295
0.16323671 -0.001953383 0.91000003 4294967295
0.16492614 -0.0019579609 0.91000003 4294967295
0.1671648 -0.001969056 0.91299999 4294967295
0.16922955 -0.0019780681 0.91500002 4294967295
0.17186207 -0.0019936492 0.92000002 4294967295
0.17356977 -0.0019984695 0.92000002 4294967295
0.17527734 -0.0020033375 0.92000002 4294967295
0.17698485 -0.0020082539 0.92000002 4294967295
0.050068177 -6.9563634e-05 0.94599998 4294967295
0.051501218 -7.0541479e-05 0.94 4294967295
0.053138454 -7.1856448e-05 0.93800002 4294967295
0.054885183 -7.3370502e-05 0.93800002 4294967295
0.056450713 -7.4693926e-05 0.935 4294967295
0.058067236 -7.6137643e-05 0.93300003 4294967295
0.059804451 -7.7789889e-05 0.93300003 4294967295
0.061343692 -7.9235295e-05 0.93000001 4294967295
0.062736057 -8.0544036e-05 0.92500001 4294967295
0.064318776 -8.2149105e-05 0.92299998 4294967295
0.065822437 -8.3703613e-05 0.92000002 4294967295
0.067388259 -8.5387168e-05 0.91799998 4294967295
0.068871289 -8.7015353e-05 0.91500002 4294967295
0.070574477 -8.8970395e-05 0.91500002 4294967295
0.072277598 -9.0973255e-05 0.91500002 4294967295
0.073818922 -9.2820577e-05 0.91299999 4294967295
0.075518169 -9.4914467e-05 0.91299999 4294967295
0.077217333 -9.7056058e-05 0.91299999 4294967295
0.078916416 -9.9245357e-05 0.91299999 4294967295
0.080350548 -0.00010114891 0.91000003 4294967295
0.082043909 -0.00010342611 0.91000003 4294967295
0.083553165 -0.00010551845 0.90799999 4294967295
0.085054889 -0.0001076479 0.90600002 4294967295
0.086740583 -0.00011005712 0.90600002 4294967295
0.088133387 -0.00011214113 0.903 4294967295
0.089813337 -0.00011463672 0.903 4294967295
0.091290593 -0.00011691997 0.90100002 4294967295
0.092966668 -0.00011950422 0.90100002 4294967295
0.094642684 -0.00012213553 0.90100002 4294967295
0.09631861 -0.00012481393 0.90100002 4294967295
0.097994469 -0.0001275394 0.90100002 4294967295
0.099338382 -0.00012987807 0.898 4294967295
0.10100849 -0.00013268829 0.898 4294967295
0.10267854 -0.00013554549 0.898 4294967295
0.1043485 -0.00013844957 0.898 4294967295
0.10601839 -0.00014140057 0.898 4294967295
0.10768821 -0.00014439852 0.898 4294967295
0.10935793 -0.00014744337 0.898 4294967295
0.11102758 -0.00015053515 0.898 4294967295
0.11269715 -0.00015367384 0.898 4294967295
0.11436666 -0.00015685947 0.898 4294967295
0.11603607 -0.00016009204 0.898 4294967295
0.11744326 -0.00016300766 0.89600003 4294967295
0.1191088 -0.00016632666 0.89600003 4294967295
0.12077424 -0.00016969244 0.89600003 4294967295
0.12243963 -0.00017310506 0.89600003 4294967295
0.12438194 -0.00017695862 0.898 4294967295
0.12605087 -0.00018047272 0.898 4294967295
0.12771975 -0.00018403375 0.898 4294967295
0.1293885 -0.00018764164 0.898 4294967295
0.1310572 -0.00019129651 0.898 4294967295
0.13272582 -0.0001949983 0.898 4294967295
0.13439435 -0.00019874702 0.898 4294967295
0.13606277 -0.00020254264 0.898 4294967295
0.13773115 -0.00020638517 0.898 4294967295
0.13939942 -0.00021027464 0.898 4294967295
0.14106764 -0.00021421103 0.898 4294967295
0.14273575 -0.00021819437 0.898 4294967295
0.14440382 -0.00022222463 0.898 4294967295
0.14607176 -0.00022630178 0.898 4294967295
0.14823319 -0.00023119566 0.90100002 4294967295
0.1502393 -0.00023590311 0.903 4294967295
0.1527575 -0.00024147423 0.90799999 4294967295
0.15444368 -0.00024578659 0.90799999 4294967295
0.15612978 -0.00025014638 0.90799999 4294967295
0.15781581 -0.0002545536 0.90799999 4294967295
0.15950175 -0.00025900832 0.90799999 4294967295
0.16118762 -0.00026351045 0.90799999 4294967295
0.16287342 -0.00026806004 0.90799999 4294967295
0.16492155 -0.00027325764 0.91000003 4294967295
0.16661088 -0.00027791233 0.91000003 4294967295
0.16885497 -0.00028354628 0.91299999 4294967295
0.17148368 -0.00028989068 0.91799998 4294967295
0.17356493 -0.00029537233 0.92000002 4294967295
0.17527245 -0.00030027048 0.92000002 4294967295
0.17697991 -0.00030521673 0.92000002 4294967295
0.049749225 0.0016728597 0.94 4294967295
0.051390197 0.0016678607 0.93800002 4294967295
0.05313696 0.0016663721 0.93800002 4294967295
0.054883637 0.0016648342 0.93800002 4294967295
0.056449126 0.0016579275 0.935 4294967295
0.058065604 0.0016527538 0.93300003 4294967295
0.059802771 0.0016510774 0.93300003 4294967295
0.061341967 0.0016440488 0.93000001 4294967295
0.062734291 0.0016334511 0.92500001 4294967295
0.064316973 0.0016281158 0.92299998 4294967295
0.06582059 0.0016209785 0.92000002 4294967295
0.067386366 0.0016155649 0.91799998 4294967295
0.06886936 0.0016083537 0.91500002 4294967295
0.070572495 0.0016063743 0.91500002 4294967295
0.072275564 0.0016043469 0.91500002 4294967295
0.073816858 0.0015987694 0.91299999 4294967295
0.075267911 0.0015914044 0.91000003 4294967295
0.076961443 0.0015892452 0.91000003 4294967295
0.078914203 0.0015922701 0.91299999 4294967295
0.080348298 0.0015847835 0.91000003 4294967295
0.081861295 0.0015790033 0.90799999 4294967295
0.083550811 0.0015766586 0.90799999 4294967295
0.085052498 0.0015707987 0.90600002 4294967295
0.086738147 0.0015683642 0.90600002 4294967295
0.088130921 0.0015606973 0.903 4294967295
0.089810826 0.0015581762 0.903 4294967295
0.091288023 0.0015521625 0.90100002 4294967295
0.092964068 0.0015495528 0.90100002 4294967295
0.094640031 0.0015468959 0.90100002 4294967295
0.095995218 0.0015390499 0.898 4294967295
0.097665437 0.0015363079 0.898 4294967295
0.099335596 0.0015335187 0.898 4294967295
0.10100567 0.0015306826 0.898 4294967295
0.10267566 0.0015277992 0.898 4294967295
0.10434559 0.0015248689 0.898 4294967295
0.10601541 0.0015218916 0.898 4294967295
0.10768519 0.0015188674 0.898 4294967295
0.10935487 0.0015157962 0.898 4294967295
0.11102448 0.0015126778 0.898 4294967295
0.112694 0.0015095124 0.898 4294967295
0.11436346 0.0015063001 0.898 4294967295
0.11603281 0.0015030404 0.898 4294967295
0.11743997 0.0014963942 0.89600003 4294967295
0.11910547 0.0014930482 0.89600003 4294967295
0.12077087 0.0014896552 0.89600003 4294967295
0.12270948 0.0014895329 0.898 4294967295
0.12437848 0.0014860386 0.898 4294967295
0.12604737 0.0014824971 0.898 4294967295
0.12771615 0.0014789086 0.898 4294967295
0.12938489 0.0014752733 0.898 4294967295
0.13105352 0.0014715907 0.898 4294967295
0.13272209 0.0014678611 0.898 4294967295
0.13439058 0.0014640846 0.898 4294967295
0.13605897 0.0014602612 0.898 4294967295
0.13742056 0.0014531472 0.89600003 4294967295
0.13908507 0.0014492383 0.89600003 4294967295
0.14074953 0.0014452826 0.89600003 4294967295
0.14273177 0.0014444974 0.898 4294967295
0.14439976 0.0014404387 0.898 4294967295
0.14606768 0.0014363333 0.898 4294967295
0.14773549 0.0014321809 0.898 4294967295
0.14990236 0.001432752 0.90100002 4294967295
0.15275322 0.0014395892 0.90799999 4294967295
0.15443936 0.0014352482 0.90799999 4294967295
0.15612541 0.0014308593 0.90799999 4294967295
0.1578114 0.0014264231 0.90799999 4294967295
0.15949731 0.0014219393 0.90799999 4294967295
0.16118312 0.001417408 0.90799999 4294967295
0.16286884 0.001412829 0.90799999 4294967295
0.16455448 0.0014082028 0.90799999 4294967295
0.16660622 0.0014066205 0.91000003 4294967295
0.1682954 0.0014018887 0.91000003 4294967295
0.17091849 0.0014047858 0.91500002 4294967295
0.17318274 0.0014045222 0.91799998 4294967295
0.17526755 0.0014026541 0.92000002 4294967295
0.17697495 0.0013976778 0.92000002 4294967295
0.049747802 0.0034146954 0.94 4294967295
0.051388729 0.003405967 0.93800002 4294967295
0.053135443 0.0034044543 0.93800002 4294967295
0.054882072 0.003402893 0.93800002 4294967295
0.056447517 0.0033904032 0.935 4294967295
0.058063954 0.0033815003 0.93300003 4294967295
0.059801061 0.0033797997 0.93300003 4294967295
0.06134022 0.0033671884 0.93000001 4294967295
0.06273251 0.0033473026 0.92500001 4294967295
0.064106107 0.0033273874 0.92000002 4294967295
0.065675631 0.0033182881 0.91799998 4294967295
0.067384452 0.003316374 0.91799998 4294967295
0.068867408 0.0033035807 0.91500002 4294967295
0.070570491 0.0033015765 0.91500002 4294967295
0.072115541 0.0032923124 0.91299999 4294967295
0.073572204 0.0032794063 0.91000003 4294967295
0.075265773 0.0032772701 0.91000003 4294967295
0.07695926 0.0032750859 0.91000003 4294967295
0.078652687 0.003272854 0.91000003 4294967295
0.080346026 0.0032705748 0.91000003 4294967295
0.08185897 0.0032610644 0.90799999 4294967295
0.08336442 0.0032515167 0.90600002 4294967295
0.084768467 0.0032383455 0.903 4294967295
0.086448483 0.0032358943 0.903 4294967295
0.088128418 0.0032333951 0.903 4294967295
0.089609377 0.0032236932 0.90100002 4294967295
0.091285437 0.0032211049 0.90100002 4294967295
0.092961431 0.0032184697 0.90100002 4294967295
0.094637342 0.0032157872 0.90100002 4294967295
0.095992513 0.0032023592 0.898 4294967295
0.09766268 0.0031995906 0.898 4294967295
0.099332787 0.0031967757 0.898 4294967295
0.1010028 0.0031939137 0.898 4294967295
0.10267276 0.0031910043 0.898 4294967295
0.10434264 0.0031880478 0.898 4294967295
0.10601242 0.0031850443 0.898 4294967295
0.10768215 0.0031819937 0.898 4294967295
0.10935178 0.0031788961 0.898 4294967295
0.11102134 0.0031757508 0.898 4294967295
0.11269083 0.003172559 0.898 4294967295
0.11436024 0.0031693201 0.898 4294967295
0.11602955 0.0031660339 0.898 4294967295
0.11743665 0.0031556564 0.89600003 4294967295
0.11910211 0.0031522836 0.89600003 4294967295
0.12103702 0.0031558922 0.898 4294967295
0.12270603 0.003152418 0.898 4294967295
0.12437496 0.0031488962 0.898 4294967295
0.12604381 0.0031453271 0.898 4294967295
0.12771255 0.003141711 0.898 4294967295
0.12938124 0.0031380483 0.898 4294967295
0.13104983 0.0031343382 0.898 4294967295
0.13271835 0.003130581 0.898 4294967295
0.13408747 0.0031198128 0.89600003 4294967295
0.13575214 0.0031159704 0.89600003 4294967295
0.13741668 0.0031120805 0.89600003 4294967295
0.13908117 0.0031081438 0.89600003 4294967295
0.14074557 0.0031041598 0.89600003 4294967295
0.14240988 0.0031001293 0.89600003 4294967295
0.1440741 0.0030960517 0.89600003 4294967295
0.14606354 0.0030988287 0.898 4294967295
0.14773133 0.0030946478 0.898 4294967295
0.14939903 0.00309042 0.898 4294967295
0.1515713 0.003096455 0.90100002 4294967295
0.1535846 0.0030989822 0.903 4294967295
0.15577714 0.00310487 0.90600002 4294967295
0.15745936 0.0031004143 0.90600002 4294967295
0.15914151 0.0030959116 0.90600002 4294967295
0.16117857 0.0030981852 0.90799999 4294967295
0.16286424 0.0030935768 0.90799999 4294967295
0.16454986 0.0030889215 0.90799999 4294967295
0.16623536 0.0030842184 0.90799999 4294967295
0.16829067 0.0030862505 0.91000003 4294967295
0.17054009 0.0030916 0.91299999 4294967295
0.17317787 0.0031036315 0.91799998 4294967295
0.1752626 0.0031054355 0.92000002 4294967295
0.17696998 0.0031004292 0.92000002 4294967295
0.047995836 0.0051578246 0.94 4294967295
0.049746361 0.0051563848 0.94 4294967295
0.051387239 0.0051439269 0.93800002 4294967295
0.053133901 0.0051423907 0.93800002 4294967295
0.054704957 0.0051243631 0.935 4294967295
0.056445885 0.0051227338 0.935 4294967295
0.058062278 0.0051101013 0.93300003 4294967295
0.059799336 0.0051083765 0.93300003 4294967295
0.061338454 0.0050901831 0.93000001 4294967295
0.062595062 0.0050500664 0.92299998 4294967295
0.064104259 0.0050318073 0.92000002 4294967295
0.065673739 0.0050189788 0.91799998 4294967295
0.067162313 0.0050006453 0.91500002 4294967295
0.068865426 0.0049986648 0.91500002 4294967295
0.070414208 0.0049857143 0.91299999 4294967295
0.072113469 0.0049836431 0.91299999 4294967295
0.073570102 0.0049651545 0.91000003 4294967295
0.075098202 0.0049520861 0.90799999 4294967295
0.076787911 0.0049498822 0.90799999 4294967295
0.078650422 0.0049585286 0.91000003 4294967295
0.080167145 0.0049453313 0.90799999 4294967295
0.081676327 0.0049320962 0.90600002 4294967295
0.083362035 0.0049297065 0.90600002 4294967295
0.084766038 0.0049109538 0.903 4294967295
0.086446002 0.004908477 0.903 4294967295
0.087930717 0.0048950864 0.90100002 4294967295
0.089606814 0.0048925206 0.90100002 4294967295
0.09128283 0.0048899073 0.90100002 4294967295
0.092649251 0.0048709735 0.898 4294967295
0.094319545 0.0048682736 0.898 4294967295
0.095989764 0.0048655281 0.898 4294967295
0.097659886 0.0048627341 0.898 4294967295
0.099329948 0.0048598931 0.898 4294967295
0.10099993 0.0048570051 0.898 4294967295
0.10266983 0.0048540691 0.898 4294967295
0.10410728 0.0048402827 0.89600003 4294967295
0.1057733 0.0048372601 0.89600003 4294967295
0.10743926 0.00483419 0.89600003 4294967295
0.10910512 0.0048310719 0.89600003 4294967295
0.11077093 0.0048279078 0.89600003 4294967295
0.11243664 0.0048246961 0.89600003 4294967295
0.11410227 0.0048214379 0.89600003 4294967295
0.11576784 0.0048181321 0.89600003 4294967295
0.1174333 0.0048147794 0.89600003 4294967295
0.1190987 0.0048113796 0.89600003 4294967295
0.12076402 0.0048079328 0.89600003 4294967295
0.12242925 0.0048044389 0.89600003 4294967295
0.12437141 0.0048116134 0.898 4294967295
0.12604022 0.0048080175 0.898 4294967295
0.12770893 0.0048043742 0.898 4294967295
0.12937754 0.0048006838 0.898 4294967295
0.1310461 0.0047969455 0.898 4294967295
0.13271458 0.0047931611 0.898 4294967295
0.13408369 0.0047786627 0.89600003 4294967295
0.13574827 0.0047747917 0.89600003 4294967295
0.13741277 0.004770874 0.89600003 4294967295
0.1390772 0.0047669094 0.89600003 4294967295
0.14074154 0.0047628982 0.89600003 4294967295
0.14240581 0.004758839 0.89600003 4294967295
0.14407 0.0047547328 0.89600003 4294967295
0.14573409 0.0047505805 0.89600003 4294967295
0.14772713 0.0047569755 0.898 4294967295
0.1493948 0.0047527188 0.898 4294967295
0.15106235 0.0047484152 0.898 4294967295
0.15324007 0.0047599128 0.90100002 4294967295
0.15525691 0.0047660563 0.903 4294967295
0.1569335 0.0047615869 0.903 4294967295
0.15913698 0.0047728741 0.90600002 4294967295
0.16081898 0.0047682947 0.90600002 4294967295
0.1625009 0.0047636675 0.90600002 4294967295
0.16418274 0.0047589932 0.90600002 4294967295
0.16623065 0.004764766 0.90799999 4294967295
0.16791604 0.004759986 0.90799999 4294967295
0.17053525 0.004781343 0.91299999 4294967295
0.17260703 0.004786904 0.91500002 4294967295
0.17487662 0.0047976216 0.91799998 4294967295
0.17696494 0.0048030377 0.92000002 4294967295
0.1792548 0.004813598 0.92299998 4294967295
0.047994412 0.0068993913 0.94 4294967295
0.049744885 0.0068979268 0.94 4294967295
0.051385727 0.0068817413 0.93800002 4294967295
0.053132337 0.0068801809 0.93800002 4294967295
0.054703347 0.0068565719 0.935 4294967295
0.056444228 0.0068549183 0.935 4294967295
0.058060572 0.0068385564 0.93300003 4294967295
0.059605315 0.0068148244 0.93000001 4294967295
0.061204743 0.006798381 0.92799997 4294967295
0.062389791 0.0067379531 0.92000002 4294967295
0.064102381 0.0067360834 0.92000002 4294967295
0.065671824 0.0067195254 0.91799998 4294967295
0.067160353 0.00669561 0.91500002 4294967295
0.068712898 0.0066789757 0.91299999 4294967295
0.070412166 0.0066769267 0.91299999 4294967295
0.071874417 0.0066528977 0.91000003 4294967295
0.073567964 0.0066507603 0.91000003 4294967295
0.075096019 0.0066339625 0.90799999 4294967295
0.076785691 0.0066317343 0.90799999 4294967295
0.078475282 0.0066294582 0.90799999 4294967295
0.080164813 0.0066271336 0.90799999 4294967295
0.081673965 0.0066101695 0.90600002 4294967295
0.083083592 0.0065858751 0.903 4294967295
0.084575854 0.0065688393 0.90100002 4294967295
0.086252049 0.0065663429 0.90100002 4294967295
0.087928183 0.0065637995 0.90100002 4294967295
0.089604229 0.0065612081 0.90100002 4294967295
0.090976268 0.006536731 0.898 4294967295
0.092646584 0.0065340539 0.898 4294967295
0.094316825 0.0065313284 0.898 4294967295
0.095986992 0.0065285563 0.898 4294967295
0.09765707 0.0065257372 0.898 4294967295
0.099327095 0.0065228702 0.898 4294967295
0.10077208 0.0065054349 0.89600003 4294967295
0.10243822 0.0065024807 0.89600003 4294967295
0.10410428 0.0064994781 0.89600003 4294967295
0.10577027 0.006496429 0.89600003 4294967295
0.10743617 0.0064933328 0.89600003 4294967295
0.10910199 0.0064901891 0.89600003 4294967295
0.11076774 0.0064869979 0.89600003 4294967295
0.11243339 0.0064837607 0.89600003 4294967295
0.114099 0.006480475 0.89600003 4294967295
0.11576451 0.0064771418 0.89600003 4294967295
0.11742993 0.0064737624 0.89600003 4294967295
0.1190953 0.0064703356 0.89600003 4294967295
0.12076055 0.0064668623 0.89600003 4294967295
0.12242574 0.0064633405 0.89600003 4294967295
0.12409087 0.0064597721 0.89600003 4294967295
0.12575591 0.0064561567 0.89600003 4294967295
0.12742086 0.0064524943 0.89600003 4294967295
0.12908569 0.0064487844 0.89600003 4294967295
0.13075051 0.0064450279 0.89600003 4294967295
0.13241519 0.0064412234 0.89600003 4294967295
0.13407983 0.006437372 0.89600003 4294967295
0.13574439 0.0064334734 0.89600003 4294967295
0.13740884 0.0064295288 0.89600003 4294967295
0.13907322 0.0064255358 0.89600003 4294967295
0.1407375 0.0064214957 0.89600003 4294967295
0.14208388 0.0064030844 0.89399999 4294967295
0.1437443 0.0063989591 0.89399999 4294967295
0.14540462 0.0063947882 0.89399999 4294967295
0.1473939 0.0064048655 0.89600003 4294967295
0.14905779 0.0064005908 0.89600003 4294967295
0.15072161 0.006396268 0.89600003 4294967295
0.15323572 0.0064275684 0.90100002 4294967295
0.15490861 0.0064231264 0.90100002 4294967295
0.15692905 0.0064328858 0.903 4294967295
0.1586055 0.00642834 0.903 4294967295
0.16081439 0.0064450875 0.90600002 4294967295
0.16249628 0.0064404318 0.90600002 4294967295
0.16417806 0.0064357282 0.90600002 4294967295
0.16585977 0.0064309761 0.90600002 4294967295
0.16791125 0.0064403629 0.90799999 4294967295
0.16997005 0.0064496808 0.91000003 4294967295
0.17260212 0.006480176 0.91500002 4294967295
0.17487165 0.0064964155 0.91799998 4294967295
0.17753695 0.0065267156 0.92299998 4294967295
0.17924969 0.0065215845 0.92299998 4294967295
0.18135448 0.0065305252 0.92500001 4294967295
0.049743395 0.0086393217 0.94 4294967295
0.051384188 0.0086194081 0.93800002 4294967295
0.05313075 0.0086178239 0.93800002 4294967295
0.054701719 0.0085886335 0.935 4294967295
0.056321815 0.0085685886 0.93300003 4294967295
0.057872165 0.008539319 0.93000001 4294967295
0.059603546 0.0085375523 0.93000001 4294967295
0.06120294 0.0085173808 0.92799997 4294967295
0.062387951 0.0084421104 0.92000002 4294967295
0.063961141 0.0084218672 0.91799998 4294967295
0.065455273 0.0083924131 0.91500002 4294967295
0.067158379 0.0083904332 0.91500002 4294967295
0.068710871 0.0083700689 0.91299999 4294967295
0.070410095 0.0083679957 0.91299999 4294967295
0.071872316 0.0083383862 0.91000003 4294967295
0.073404111 0.0083179027 0.90799999 4294967295
0.075093813 0.0083156973 0.90799999 4294967295
0.076783434 0.0083134444 0.90799999 4294967295
0.078472994 0.0083111441 0.90799999 4294967295
0.080162466 0.0083087943 0.90799999 4294967295
0.081401139 0.0082606571 0.903 4294967295
0.083081163 0.0082582245 0.903 4294967295
0.084573373 0.0082374606 0.90100002 4294967295
0.086249538 0.0082349395 0.90100002 4294967295
0.087925613 0.00823237 0.90100002 4294967295
0.08930327 0.0082023516 0.898 4294967295
0.090973623 0.0081996955 0.898 4294967295
0.092643887 0.0081969928 0.898 4294967295
0.094314076 0.0081942426 0.898 4294967295
0.095770434 0.0081732003 0.89600003 4294967295
0.097436748 0.0081703616 0.89600003 4294967295
0.099102989 0.0081674764 0.89600003 4294967295
0.10076916 0.0081645418 0.89600003 4294967295
0.1022066 0.008143343 0.89399999 4294967295
0.10386889 0.0081403228 0.89399999 4294967295
0.1055311 0.0081372531 0.89399999 4294967295
0.10719324 0.0081341378 0.89399999 4294967295
0.1088553 0.0081309741 0.89399999 4294967295
0.11051729 0.0081277648 0.89399999 4294967295
0.11243015 0.0081426827 0.89600003 4294967295
0.11409569 0.0081393709 0.89600003 4294967295
0.11576116 0.0081360117 0.89600003 4294967295
0.11742654 0.0081326058 0.89600003 4294967295
0.11909185 0.0081291515 0.89600003 4294967295
0.12075707 0.0081256507 0.89600003 4294967295
0.12242222 0.0081221024 0.89600003 4294967295
0.12408727 0.0081185065 0.89600003 4294967295
0.12575227 0.0081148641 0.89600003 4294967295
0.12741716 0.0081111742 0.89600003 4294967295
0.12908198 0.0081074359 0.89600003 4294967295
0.13074672 0.0081036519 0.89600003 4294967295
0.13241138 0.0080998214 0.89600003 4294967295
0.13407598 0.0080959415 0.89600003 4294967295
0.13574047 0.0080920151 0.89600003 4294967295
0.13709816 0.0080699874 0.89399999 4294967295
0.13875879 0.0080659762 0.89399999 4294967295
0.14073348 0.0080799535 0.89600003 4294967295
0.14207979 0.0080578113 0.89399999 4294967295
0.14374015 0.0080536585 0.89399999 4294967295
0.14540045 0.0080494592 0.89399999 4294967295
0.14706066 0.0080452124 0.89399999 4294967295
0.1487208 0.008040918 0.89399999 4294967295
0.15071727 0.0080545563 0.89600003 4294967295
0.15272108 0.0080681266 0.898 4294967295
0.15490416 0.0080906115 0.90100002 4294967295
0.15692452 0.0081040422 0.903 4294967295
0.15860094 0.0080994675 0.903 4294967295
0.16080977 0.0081217391 0.90600002 4294967295
0.1624916 0.0081170537 0.90600002 4294967295
0.16417335 0.0081123207 0.90600002 4294967295
0.16585501 0.0081075393 0.90600002 4294967295
0.16790642 0.0081205973 0.90799999 4294967295
0.16996516 0.0081335874 0.91000003 4294967295
0.17259717 0.0081733046 0.91500002 4294967295
0.17486663 0.0081950659 0.91799998 4294967295
0.17753184 0.0082345875 0.92299998 4294967295
0.17924455 0.0082294261 0.92299998 4294967295
0.18095715 0.0082242163 0.92299998 4294967295
0.04829783 0.01044835 0.94599998 4294967295
0.049741879 0.010380571 0.94 4294967295
0.051382627 0.010356927 0.93800002 4294967295
0.053129137 0.01035532 0.93800002 4294967295
0.054700062 0.010320549 0.935 4294967295
0.05632012 0.010296775 0.93300003 4294967295
0.057745967 0.010239855 0.92799997 4294967295
0.059473574 0.01023807 0.92799997 4294967295
0.061003253 0.010203143 0.92500001 4294967295
0.062250454 0.010124065 0.91799998 4294967295
0.063959219 0.01012215 0.91799998 4294967295
0.065453321 0.010087118 0.91500002 4294967295
0.067009576 0.010063068 0.91299999 4294967295
0.068483055 0.01002796 0.91000003 4294967295
0.070176654 0.010025871 0.91000003 4294967295
0.071712218 0.010001702 0.90799999 4294967295
0.073401935 0.0099995192 0.90799999 4294967295
0.07492619 0.0099752704 0.90600002 4294967295
0.076612033 0.0099729989 0.90600002 4294967295
0.078470655 0.0099926861 0.90799999 4294967295
0.079983532 0.0099683069 0.90600002 4294967295
0.081398726 0.0099328915 0.903 4294967295
0.083078705 0.0099304346 0.903 4294967295
0.084570892 0.0099059418 0.90100002 4294967295
0.086246982 0.0099033946 0.90100002 4294967295
0.08792302 0.0099008009 0.90100002 4294967295
0.08930064 0.0098652011 0.898 4294967295
0.090970941 0.0098625198 0.898 4294967295
0.092434838 0.0098378332 0.89600003 4294967295
0.094101258 0.0098350616 0.89600003 4294967295
0.095767617 0.0098322444 0.89600003 4294967295
0.09743388 0.0098293805 0.89600003 4294967295
0.099100091 0.0098264692 0.89600003 4294967295
0.10054126 0.0098015806 0.89399999 4294967295
0.10220361 0.0097985817 0.89399999 4294967295
0.10386585 0.0097955344 0.89399999 4294967295
0.10552801 0.0097924396 0.89399999 4294967295
0.10719012 0.0097892974 0.89399999 4294967295
0.10885212 0.0097861076 0.89399999 4294967295
0.11051405 0.0097828712 0.89399999 4294967295
0.11217589 0.0097795865 0.89399999 4294967295
0.11409236 0.0097981272 0.89600003 4294967295
0.11549938 0.0097728781 0.89399999 4294967295
0.11716101 0.0097694518 0.89399999 4294967295
0.11908837 0.0097878268 0.89600003 4294967295
0.12075354 0.0097842989 0.89600003 4294967295
0.12241864 0.0097807236 0.89600003 4294967295
0.12408367 0.0097771017 0.89600003 4294967295
0.12546791 0.0097516151 0.89399999 4294967295
0.12712906 0.0097479057 0.89399999 4294967295
0.1287901 0.0097441496 0.89399999 4294967295
0.13045107 0.0097403452 0.89399999 4294967295
0.13240753 0.0097582778 0.89600003 4294967295
0.13407208 0.0097543718 0.89600003 4294967295
0.13543354 0.0097286524 0.89399999 4294967295
0.13709417 0.0097246598 0.89399999 4294967295
0.13875476 0.0097206198 0.89399999 4294967295
0.14072938 0.0097382711 0.89600003 4294967295
0.14207567 0.0097123999 0.89399999 4294967295
0.14373599 0.0097082183 0.89399999 4294967295
0.14539623 0.0097039919 0.89399999 4294967295
0.1470564 0.0096997162 0.89399999 4294967295
0.14871648 0.009695393 0.89399999 4294967295
0.15071289 0.0097127045 0.89600003 4294967295
0.15271665 0.0097299479 0.898 4294967295
0.15489969 0.0097579556 0.90100002 4294967295
0.15657242 0.0097534079 0.90100002 4294967295
0.15824509 0.0097488137 0.90100002 4294967295
0.16027264 0.0097658029 0.903 4294967295
0.16248691 0.0097935339 0.90600002 4294967295
0.1641686 0.0097887702 0.90600002 4294967295
0.16585021 0.0097839618 0.90600002 4294967295
0.16790156 0.0098006912 0.90799999 4294967295
0.16996026 0.0098173507 0.91000003 4294967295
0.17221491 0.009844725 0.91299999 4294967295
0.17429015 0.0098612411 0.91500002 4294967295
0.17694974 0.0099100014 0.92000002 4294967295
0.17865682 0.0099048261 0.92000002 4294967295
0.18095195 0.0099318838 0.92299998 4294967295
0.048296336 0.012200586 0.94599998 4294967295
0.049899083 0.012160356 0.94300002 4294967295
0.051381044 0.012094298 0.93800002 4294967295
0.053127501 0.012092669 0.93800002 4294967295
0.054698389 0.012052316 0.935 4294967295
0.056318395 0.012024816 0.93300003 4294967295
0.057557531 0.011919952 0.92500001 4294967295
0.059279501 0.011918147 0.92500001 4294967295
0.061001401 0.011916293 0.92500001 4294967295
0.062248558 0.011824227 0.91799998 4294967295
0.063748278 0.011783655 0.91500002 4294967295
0.065451339 0.011781675 0.91500002 4294967295
0.067007549 0.011753899 0.91299999 4294967295
0.068480983 0.011713211 0.91000003 4294967295
0.070174538 0.011711097 0.91000003 4294967295
0.071710058 0.0116832 0.90799999 4294967295
0.07339973 0.011680994 0.90799999 4294967295
0.07492394 0.011653015 0.90600002 4294967295
0.076609731 0.011650718 0.90600002 4294967295
0.078468315 0.011674086 0.90799999 4294967295
0.079981141 0.011645979 0.90600002 4294967295
0.081396297 0.011604982 0.903 4294967295
0.083076231 0.0116025 0.903 4294967295
0.084568359 0.01157428 0.90100002 4294967295
0.086244419 0.011571707 0.90100002 4294967295
0.087627664 0.011530568 0.898 4294967295
0.089297988 0.011527908 0.898 4294967295
0.090968244 0.011525203 0.898 4294967295
0.092432089 0.011496786 0.89600003 4294967295
0.094098471 0.011493991 0.89600003 4294967295
0.095764779 0.011491148 0.89600003 4294967295
0.097430997 0.011488257 0.89600003 4294967295
0.098875955 0.011459683 0.89399999 4294967295
0.1005383 0.011456704 0.89399999 4294967295
0.10220058 0.011453679 0.89399999 4294967295
0.10386278 0.011450605 0.89399999 4294967295
0.10552491 0.011447485 0.89399999 4294967295
0.10718695 0.011444315 0.89399999 4294967295
0.10884891 0.011441099 0.89399999 4294967295
0.1105108 0.011437837 0.89399999 4294967295
0.1121726 0.011434526 0.89399999 4294967295
0.11383433 0.011431169 0.89399999 4294967295
0.11549599 0.011427763 0.89399999 4294967295
0.11715756 0.011424311 0.89399999 4294967295
0.11881906 0.011420812 0.89399999 4294967295
0.12048046 0.011417264 0.89399999 4294967295
0.12214179 0.011413669 0.89399999 4294967295
0.12380306 0.011410027 0.89399999 4294967295
0.12546425 0.011406339 0.89399999 4294967295
0.12712534 0.011402602 0.89399999 4294967295
0.12878633 0.011398818 0.89399999 4294967295
0.13044727 0.011394988 0.89399999 4294967295
0.13210812 0.011391111 0.89399999 4294967295
0.13406816 0.011412659 0.89600003 4294967295
0.13542959 0.01138321 0.89399999 4294967295
0.13709018 0.011379191 0.89399999 4294967295
0.1387507 0.011375124 0.89399999 4294967295
0.14072528 0.011396447 0.89600003 4294967295
0.14207153 0.011366847 0.89399999 4294967295
0.14373179 0.011362637 0.89399999 4294967295
0.145392 0.011358381 0.89399999 4294967295
0.14705211 0.011354079 0.89399999 4294967295
0.14937751 0.011400509 0.898 4294967295
0.15104492 0.011396092 0.898 4294967295
0.1532224 0.011429683 0.90100002 4294967295
0.15489516 0.011425157 0.90100002 4294967295
0.15656786 0.011420581 0.90100002 4294967295
0.15824048 0.011415958 0.90100002 4294967295
0.16026801 0.011436619 0.903 4294967295
0.16248217 0.011469871 0.90600002 4294967295
0.16416383 0.01146508 0.90600002 4294967295
0.16584539 0.01146024 0.90600002 4294967295
0.16789669 0.011480641 0.90799999 4294967295
0.16995531 0.011500972 0.91000003 4294967295
0.17220992 0.011533867 0.91299999 4294967295
0.17428508 0.011554053 0.91500002 4294967295
0.17694458 0.011612033 0.92000002 4294967295
0.17865162 0.011606827 0.92000002 4294967295
0.18094671 0.011639405 0.92299998 4294967295
0.048294812 0.013952673 0.94599998 4294967295
0.05005626 0.013951106 0.94599998 4294967295
0.051379438 0.013831523 0.93800002 4294967295
0.053125843 0.013829868 0.93800002 4294967295
0.054696679 0.013783936 0.935 4294967295
0.056135554 0.013708485 0.93000001 4294967295
0.057555746 0.013633006 0.92500001 4294967295
0.059277669 0.013631177 0.92500001 4294967295
0.060867626 0.01359983 0.92299998 4294967295
0.062246643 0.013524245 0.91799998 4294967295
0.063746326 0.013478093 0.91500002 4294967295
0.065449335 0.013476091 0.91500002 4294967295
0.067005508 0.013444585 0.91299999 4294967295
0.068478905 0.013398319 0.91000003 4294967295
0.070172392 0.013396179 0.91000003 4294967295
0.071707875 0.013364556 0.90799999 4294967295
0.073397495 0.013362325 0.90799999 4294967295
0.074921668 0.013330619 0.90600002 4294967295
0.076607421 0.013328297 0.90600002 4294967295
0.078465946 0.013355345 0.90799999 4294967295
0.079713896 0.013279391 0.903 4294967295
0.081393845 0.013276934 0.903 4294967295
0.082889736 0.013245026 0.90100002 4294967295
0.084565818 0.013242476 0.90100002 4294967295
0.086241826 0.013239881 0.90100002 4294967295
0.087625027 0.013193158 0.898 4294967295
0.089295305 0.013190475 0.898 4294967295
0.090965509 0.013187744 0.898 4294967295
0.092429325 0.013155598 0.89600003 4294967295
0.094095655 0.013152778 0.89600003 4294967295
0.095761918 0.013149912 0.89600003 4294967295
0.097210608 0.013117648 0.89399999 4294967295
0.098872997 0.013114692 0.89399999 4294967295
0.1005353 0.013111686 0.89399999 4294967295
0.10219754 0.013108634 0.89399999 4294967295
0.10385969 0.013105535 0.89399999 4294967295
0.10552176 0.013102389 0.89399999 4294967295
0.10718375 0.013099194 0.89399999 4294967295
0.10848042 0.013052006 0.89099997 4294967295
0.11013668 0.013048727 0.89099997 4294967295
0.11216927 0.013089325 0.89399999 4294967295
0.11344896 0.013042028 0.89099997 4294967295
0.115105 0.013038607 0.89099997 4294967295
0.11676095 0.013035141 0.89099997 4294967295
0.11841683 0.013031623 0.89099997 4294967295
0.12007261 0.013028063 0.89099997 4294967295
0.1221382 0.013068307 0.89399999 4294967295
0.12338395 0.013020798 0.89099997 4294967295
0.12503952 0.013017094 0.89099997 4294967295
0.12669499 0.013013342 0.89099997 4294967295
0.12878253 0.013053346 0.89399999 4294967295
0.13044342 0.013049489 0.89399999 4294967295
0.13210423 0.013045584 0.89399999 4294967295
0.13406421 0.013070807 0.89600003 4294967295
0.1354256 0.013037629 0.89399999 4294967295
0.13708614 0.013033582 0.89399999 4294967295
0.13874662 0.013029485 0.89399999 4294967295
0.14072114 0.013054484 0.89600003 4294967295
0.14206734 0.013021154 0.89399999 4294967295
0.14372759 0.013016917 0.89399999 4294967295
0.14538771 0.013012633 0.89399999 4294967295
0.14737678 0.013037402 0.89600003 4294967295
0.14937316 0.013062105 0.898 4294967295
0.15104048 0.013057659 0.898 4294967295
0.1532179 0.013096773 0.90100002 4294967295
0.15489064 0.013092218 0.90100002 4294967295
0.1565633 0.013087614 0.90100002 4294967295
0.15823586 0.013082962 0.90100002 4294967295
0.1602633 0.013107293 0.903 4294967295
0.16247743 0.013146067 0.90600002 4294967295
0.164159 0.013141246 0.90600002 4294967295
0.16584054 0.013136378 0.90600002 4294967295
0.16789179 0.013160449 0.90799999 4294967295
0.16995035 0.01318445 0.91000003 4294967295
0.17220488 0.013222865 0.91299999 4294967295
0.17427999 0.013246721 0.91500002 4294967295
0.17693943 0.013313921 0.92000002 4294967295
0.17864642 0.013308686 0.92000002 4294967295
0.18094142 0.013346783 0.92299998 4294967295
0.18304959 0.013370343 0.92500001 4294967287
0.18476559 0.013364934 0.92500001 4293255637
0.04829327 0.015704611 0.94599998 4294967295
0.049895931 0.015653221 0.94300002 4294967295
0.051487345 0.015601791 0.94 4294967295
0.053124163 0.01556692 0.93800002 4294967295
0.054577965 0.015482222 0.93300003 4294967295
0.056133792 0.015430674 0.93000001 4294967295
0.057553943 0.015345911 0.92500001 4294967295
0.059275813 0.015344059 0.92500001 4294967295
0.060536005 0.015226054 0.91799998 4294967295
0.06224471 0.015224118 0.91799998 4294967295
0.063744351 0.015172388 0.91500002 4294967295
0.065447308 0.015170358 0.91500002 4294967295
0.067003436 0.015135127 0.91299999 4294967295
0.068476781 0.01508328 0.91000003 4294967295
0.070170231 0.015081119 0.91000003 4294967295
0.071705669 0.015045766 0.90799999 4294967295
0.073395237 0.01504351 0.90799999 4294967295
0.075084761 0.015041208 0.90799999 4294967295
0.07677418 0.015038855 0.90799999 4294967295
0.078463547 0.015036455 0.90799999 4294967295
0.079711467 0.014951221 0.903 4294967295
0.081391357 0.014948738 0.903 4294967295
0.082887217 0.014913104 0.90100002 4294967295
0.08456324 0.014910529 0.90100002 4294967295
0.086239211 0.014907906 0.90100002 4294967295
0.087622374 0.014855608 0.898 4294967295
0.089292601 0.014852898 0.898 4294967295
0.090962768 0.014850141 0.898 4294967295
0.092426524 0.014814272 0.89600003 4294967295
0.094092816 0.014811425 0.89600003 4294967295
0.095545262 0.014775474 0.89399999 4294967295
0.096881479 0.014722967 0.89099997 4294967295
0.098538242 0.014719993 0.89099997 4294967295
0.10053228 0.014766526 0.89399999 4294967295
0.10219446 0.014763447 0.89399999 4294967295
0.10385656 0.014760323 0.89399999 4294967295
0.10551859 0.01475715 0.89399999 4294967295
0.10682087 0.014704418 0.89099997 4294967295
0.10847717 0.014701161 0.89099997 4294967295
0.11013339 0.014697855 0.89099997 4294967295
0.11216591 0.014743979 0.89399999 4294967295
0.11344557 0.014691103 0.89099997 4294967295
0.11510157 0.014687656 0.89099997 4294967295
0.11675748 0.014684163 0.89099997 4294967295
0.1184133 0.014680621 0.89099997 4294967295
0.12006904 0.014677034 0.89099997 4294967295
0.1217247 0.014673395 0.89099997 4294967295
0.12338028 0.014669711 0.89099997 4294967295
0.12503579 0.014665984 0.89099997 4294967295
0.12669122 0.014662204 0.89099997 4294967295
0.12834656 0.014658379 0.89099997 4294967295
0.13000181 0.014654506 0.89099997 4294967295
0.13210031 0.014699914 0.89399999 4294967295
0.13376099 0.014695933 0.89399999 4294967295
0.13542157 0.014691905 0.89399999 4294967295
0.1370821 0.014687831 0.89399999 4294967295
0.13874252 0.014683706 0.89399999 4294967295
0.14071697 0.014712377 0.89600003 4294967295
0.14206314 0.014675318 0.89399999 4294967295
0.14372334 0.014671052 0.89399999 4294967295
0.14538343 0.014666741 0.89399999 4294967295
0.14737241 0.014695182 0.89600003 4294967295
0.14936873 0.014723555 0.898 4294967295
0.15103602 0.014719083 0.898 4294967295
0.15321337 0.014763718 0.90100002 4294967295
0.15488605 0.014759132 0.90100002 4294967295
0.15655866 0.014754499 0.90100002 4294967295
0.15823118 0.01474982 0.90100002 4294967295
0.16025858 0.014777821 0.903 4294967295
0.16247265 0.01482212 0.90600002 4294967295
0.16415419 0.014817268 0.90600002 4294967295
0.16583565 0.014812371 0.90600002 4294967295
0.16788684 0.014840113 0.90799999 4294967295
0.16994536 0.014867784 0.91000003 4294967295
0.17219985 0.014911719 0.91299999 4294967295
0.17389393 0.014906591 0.91299999 4294967295
0.17654958 0.014983021 0.91799998 4294967295
0.17864117 0.015010399 0.92000002 4294967295
0.1809361 0.015054015 0.92299998 4294967294
0.18304422 0.015081245 0.92500001 4294966772
0.18476017 0.015075804 0.92500001 4293452761
0.046530284 0.017457966 0.94599998 4293454056
0.048291698 0.017456401 0.94599998 4294967295
0.049894318 0.017399432 0.94300002 4294967295
0.051485684 0.017342422 0.94 4294967295
0.053122457 0.017303823 0.93800002 4294967295
0.054576218 0.017209843 0.93300003 4294967295
0.056132004 0.017152717 0.93000001 4294967295
0.057552114 0.017058674 0.92500001 4294967295
0.05882537 0.016927719 0.91799998 4294967295
0.060534097 0.016925804 0.91799998 4294967295
0.062039342 0.016868539 0.91500002 4294967295
0.06374234 0.016866537 0.91500002 4294967295
0.065302193 0.016827621 0.91299999 4294967295
0.067001335 0.016825525 0.91299999 4294967295
0.068700381 0.016823379 0.91299999 4294967295
0.070168048 0.016765913 0.91000003 4294967295
0.071703434 0.016726835 0.90799999 4294967295
0.073392972 0.016724555 0.90799999 4294967295
0.075082429 0.016722227 0.90799999 4294967295
0.076771796 0.016719852 0.90799999 4294967295
0.078461118 0.016717426 0.90799999 4294967295
0.079708993 0.016622908 0.903 4294967295
0.081208594 0.016583592 0.90100002 4294967295
0.082884662 0.016581042 0.90100002 4294967295
0.084560655 0.016578443 0.90100002 4294967295
0.086236559 0.016575795 0.90100002 4294967295
0.087619692 0.016517915 0.898 4294967295
0.089289874 0.016515184 0.898 4294967295
0.090757407 0.016475625 0.89600003 4294967295
0.092423707 0.016472802 0.89600003 4294967295
0.094089948 0.016469929 0.89600003 4294967295
0.095542371 0.016430251 0.89399999 4294967295
0.096878536 0.016372167 0.89099997 4294967295
0.098535255 0.01636917 0.89099997 4294967295
0.10019188 0.016366122 0.89099997 4294967295
0.10184844 0.016363028 0.89099997 4294967295
0.10385342 0.01641497 0.89399999 4294967295
0.1055154 0.016411772 0.89399999 4294967295
0.10681765 0.016353462 0.89099997 4294967295
0.1084739 0.01635018 0.89099997 4294967295
0.11050088 0.016401887 0.89399999 4294967295
0.11216255 0.016398499 0.89399999 4294967295
0.11344216 0.016340042 0.89099997 4294967295
0.11509811 0.016336571 0.89099997 4294967295
0.11675396 0.016333049 0.89099997 4294967295
0.11840974 0.01632948 0.89099997 4294967295
0.12006541 0.016325867 0.89099997 4294967295
0.12172106 0.016322199 0.89099997 4294967295
0.12337659 0.016318489 0.89099997 4294967295
0.12503204 0.016314734 0.89099997 4294967295
0.12668744 0.016310927 0.89099997 4294967295
0.1283427 0.016307075 0.89099997 4294967295
0.12999794 0.016303174 0.89099997 4294967295
0.13165307 0.016299225 0.89099997 4294967295
0.13330813 0.016295232 0.89099997 4294967295
0.13496311 0.01629119 0.89099997 4294967295
0.13661799 0.0162871 0.89099997 4294967295
0.13873838 0.016337786 0.89399999 4294967295
0.14039868 0.016333589 0.89399999 4294967295
0.14205889 0.016329342 0.89399999 4294967295
0.14371905 0.016325049 0.89399999 4294967295
0.1453791 0.016320711 0.89399999 4294967295
0.14736803 0.016352823 0.89600003 4294967295
0.14903164 0.016348379 0.89600003 4294967295
0.15103154 0.016380368 0.898 4294967295
0.15320884 0.016430523 0.90100002 4294967295
0.15488146 0.016425909 0.90100002 4294967295
0.15690152 0.016457701 0.903 4294967295
0.15857773 0.016452981 0.903 4294967295
0.16025384 0.016448213 0.903 4294967295
0.16192986 0.016443398 0.903 4294967295
0.16414931 0.016493149 0.90600002 4294967295
0.16583075 0.016488221 0.90600002 4294967295
0.16788186 0.016519634 0.90799999 4294967295
0.16994035 0.016550977 0.91000003 4294967295
0.17219473 0.016600428 0.91299999 4294967295
0.17388879 0.01659527 0.91299999 4294967295
0.17654434 0.016680919 0.91799998 4294967295
0.1792184 0.016766461 0.92299998 4294967295
0.18093078 0.0167611 0.92299998 4294638580
0.18303883 0.016791999 0.92500001 4294834160
0.18475473 0.016786529 0.92500001 4293715936
0.046528742 0.019209623 0.94599998 4293716458
0.048136968 0.019147122 0.94300002 4294967295
0.049892679 0.019145492 0.94300002 4294967295
0.051484004 0.019082904 0.94 4294967295
0.053120725 0.019040577 0.93800002 4294967295
0.054574445 0.018937316 0.93300003 4294967295
0.056130189 0.018874612 0.93000001 4294967295
0.057550263 0.018771285 0.92500001 4294967295
0.058823481 0.018627347 0.91799998 4294967295
0.060334343 0.018564543 0.91500002 4294967295
0.061901752 0.018521989 0.91299999 4294967295
0.063600987 0.01851997 0.91299999 4294967295
0.065300129 0.018517898 0.91299999 4294967295
0.066779055 0.018454935 0.91000003 4294967295
0.068472475 0.018452777 0.91000003 4294967295
0.070011631 0.018410014 0.90799999 4294967295
0.071701184 0.018407756 0.90799999 4294967295
0.073390663 0.018405454 0.90799999 4294967295
0.075080074 0.018403102 0.90799999 4294967295
0.076769412 0.018400701 0.90799999 4294967295
0.078458667 0.01839825 0.90799999 4294967295
0.07970652 0.018294454 0.903 4294967295
0.081206068 0.018251406 0.90100002 4294967295
0.082882091 0.018248832 0.90100002 4294967295
0.084558018 0.018246209 0.90100002 4294967295
0.086233892 0.018243534 0.90100002 4294967295
0.08761698 0.01818008 0.898 4294967295
0.089287117 0.018177323 0.898 4294967295
0.090754598 0.018134037 0.89600003 4294967295
0.092420861 0.018131185 0.89600003 4294967295
0.09387704 0.018087825 0.89399999 4294967295
0.09521883 0.018024199 0.89099997 4294967295
0.096875571 0.01802122 0.89099997 4294967295
0.09853223 0.018018199 0.89099997 4294967295
0.10018881 0.018015126 0.89099997 4294967295
0.10184532 0.018012006 0.89099997 4294967295
