# .PCD v0.7 - Point Cloud Data file format
VERSION 0.7
FIELDS x y z rgba
SIZE 4 4 4 4
TYPE F F F U
COUNT 1 1 1 1
WIDTH 1037
HEIGHT 1
VIEWPOINT 0 0 0 1 0 0 0
POINTS 1037
DATA ascii
0.081027783 -0.056473266 0.67500001 4294967295
0.089222528 -0.056900561 0.68000001 4294967295
0.090488084 -0.056902166 0.68000001 4294967295
0.091753542 -0.056903813 0.68000001 4294967295
0.093018986 -0.056905482 0.68000001 4294967295
0.094284348 -0.056907192 0.68000001 4294967295
0.095549665 -0.056908928 0.68000001 4294967295
0.096814916 -0.056910701 0.68000001 4294967295
0.097935863 -0.056828812 0.67900002 4294967295
0.099199131 -0.056830652 0.67900002 4294967295
0.10046234 -0.056832526 0.67900002 4294967295
0.10172549 -0.056834422 0.67900002 4294967295
0.10314023 -0.05692007 0.68000001 4294967295
0.10440511 -0.05692203 0.68000001 4294967295
0.10566994 -0.056924041 0.68000001 4294967295
0.10724922 -0.057093501 0.68199998 4294967295
0.10867676 -0.057179302 0.68300003 4294967295
0.11010796 -0.057265129 0.68400002 4294967295
0.11137996 -0.057267282 0.68400002 4294967295
0.11265192 -0.057269458 0.68400002 4294967295
0.11392382 -0.057271678 0.68400002 4294967295
0.11519563 -0.057273924 0.68400002 4294967295
0.11680795 -0.05744369 0.68599999 4294967295
0.11808337 -0.057446003 0.68599999 4294967295
0.11935874 -0.057448365 0.68599999 4294967295
0.12080988 -0.057534505 0.68699998 4294967295
0.12208699 -0.057536926 0.68699998 4294967295
0.12390274 -0.057790659 0.69 4294967295
0.12518527 -0.057793166 0.69 4294967295
0.12665103 -0.057879463 0.69099998 4294967295
0.12830561 -0.058049574 0.69300002 4294967295
0.13015455 -0.058303509 0.69599998 4294967295
0.131448 -0.058306169 0.69599998 4294967295
0.13293211 -0.058392651 0.69700003 4294967295
0.13422729 -0.058395397 0.69700003 4294967295
0.13571683 -0.058481954 0.69800001 4294967295
0.13701375 -0.058484774 0.69800001 4294967295
0.13870689 -0.058655202 0.69999999 4294967295
0.14000738 -0.058658097 0.69999999 4294967295
0.0059677265 -0.059524927 0.72799999 4283650136
0.0073162527 -0.059442647 0.727 4291611089
0.0086490689 -0.059278645 0.72500002 4294241507
0.010001965 -0.059278209 0.72500002 4294967288
0.011323486 -0.059114266 0.72299999 4294967295
0.012655026 -0.059032131 0.722 4294967295
0.013963389 -0.058868274 0.72000003 4294967295
0.015285498 -0.058786202 0.71899998 4294967295
0.01655758 -0.058540646 0.71600002 4294967295
0.017768435 -0.058131613 0.71100003 4294967295
0.019068008 -0.058049634 0.70999998 4294967295
0.020277638 -0.057722431 0.70599997 4294967295
0.021533467 -0.057558771 0.704 4294967295
0.022846691 -0.057558671 0.704 4294967295
0.02412555 -0.057476837 0.70300001 4294967295
0.025436806 -0.0574768 0.70300001 4294967295
0.02667192 -0.057313275 0.70099998 4294967295
0.027939435 -0.057231542 0.69999999 4294967295
0.02916139 -0.057068083 0.69800001 4294967295
0.030419476 -0.056986418 0.69700003 4294967295
0.031582769 -0.056741264 0.69400001 4294967295
0.032876939 -0.056741416 0.69400001 4294967295
0.03417106 -0.056741603 0.69400001 4294967295
0.035414025 -0.056660067 0.69300002 4294967295
0.036600236 -0.056496792 0.69099998 4294967295
0.037833773 -0.056415312 0.69 4294967295
0.039120231 -0.056415632 0.69 4294967295
0.040406629 -0.056415983 0.69 4294967295
0.041572131 -0.056252837 0.68800002 4294967295
0.0428547 -0.056253247 0.68800002 4294967295
0.044137213 -0.05625369 0.68800002 4294967295
0.045353655 -0.056172401 0.68699998 4294967295
0.046634197 -0.056172904 0.68699998 4294967295
0.047705457 -0.055928152 0.68400002 4294967295
0.048980296 -0.055928715 0.68400002 4294967295
0.050181616 -0.055847544 0.68300003 4294967295
0.051454492 -0.055848181 0.68300003 4294967295
0.052727316 -0.055848844 0.68300003 4294967295
0.053921018 -0.055767771 0.68199998 4294967295
0.055191863 -0.055768497 0.68199998 4294967295
0.056462657 -0.055769261 0.68199998 4294967295
0.057733387 -0.055770047 0.68199998 4294967295
0.059004072 -0.055770874 0.68199998 4294967295
0.06009794 -0.055608176 0.68000001 4294967295
0.06127454 -0.055527281 0.67900002 4294967295
0.062539473 -0.055528201 0.67900002 4294967295
0.063710362 -0.055447362 0.67799997 4294967295
0.064973317 -0.055448335 0.67799997 4294967295
0.06623622 -0.055449348 0.67799997 4294967295
0.067499049 -0.055450395 0.67799997 4294967295
0.068761833 -0.055451468 0.67799997 4294967295
0.070024557 -0.055452574 0.67799997 4294967295
0.07139238 -0.055535506 0.67900002 4294967295
0.072656862 -0.05553668 0.67900002 4294967295
0.073812403 -0.055456087 0.67799997 4294967295
0.075074896 -0.05545732 0.67799997 4294967295
0.07633733 -0.055458594 0.67799997 4294967295
0.077599712 -0.055459898 0.67799997 4294967295
0.078629412 -0.055297624 0.676 4294967295
0.079769768 -0.055217177 0.67500001 4294967295
0.081026398 -0.05521857 0.67500001 4294967295
0.089220926 -0.055636693 0.68000001 4294967295
0.090353385 -0.055556498 0.67900002 4294967295
0.091616958 -0.055558156 0.67900002 4294967295
0.092880502 -0.055559848 0.67900002 4294967295
0.094143979 -0.055561576 0.67900002 4294967295
0.095407404 -0.055563327 0.67900002 4294967295
0.096670754 -0.055565119 0.67900002 4294967295
0.097934037 -0.055566944 0.67900002 4294967295
0.099197268 -0.055568796 0.67900002 4294967295
0.10046045 -0.055570692 0.67900002 4294967295
0.10172357 -0.05557261 0.67900002 4294967295
0.10313828 -0.055656414 0.68000001 4294967295
0.10440313 -0.055658408 0.68000001 4294967295
0.1059787 -0.055824131 0.68199998 4294967295
0.10724717 -0.055826202 0.68199998 4294967295
0.10867467 -0.055910159 0.68300003 4294967295
0.11010583 -0.055994157 0.68400002 4294967295
0.1113778 -0.055996317 0.68400002 4294967295
0.11264972 -0.055998523 0.68400002 4294967295
0.11392158 -0.056000754 0.68400002 4294967295
0.11519338 -0.05600303 0.68400002 4294967295
0.11697593 -0.056250967 0.68699998 4294967295
0.11825316 -0.056253318 0.68699998 4294967295
0.11953036 -0.056255702 0.68699998 4294967295
0.12098333 -0.056340005 0.68800002 4294967295
0.12261767 -0.056506246 0.69 4294967295
0.1240798 -0.056590628 0.69099998 4294967295
0.12572703 -0.05675697 0.69300002 4294967295
0.12701505 -0.056759547 0.69300002 4294967295
0.12885843 -0.057007868 0.69599998 4294967295
0.13033892 -0.057092439 0.69700003 4294967295
0.13220076 -0.057340875 0.69999999 4294967295
0.13350153 -0.057343613 0.69999999 4294967295
0.13480227 -0.057346385 0.69999999 4294967295
0.1361029 -0.057349201 0.69999999 4294967295
0.1374035 -0.057352044 0.69999999 4294967295
0.13870402 -0.05735492 0.69999999 4294967295
0.14000449 -0.057357833 0.69999999 4294967295
0.0059682461 -0.058170717 0.72799999 4283518293
0.0073167374 -0.058090314 0.727 4291611089
0.0086495187 -0.057930049 0.72500002 4294241759
0.010002381 -0.057929624 0.72500002 4294833897
0.011323868 -0.057769421 0.72299999 4294967290
0.012655373 -0.05768916 0.722 4294967295
0.013963703 -0.057529036 0.72000003 4294967295
0.015285778 -0.057448834 0.71899998 4294967295
0.016557824 -0.057208888 0.71600002 4294967295
0.017843619 -0.057048861 0.71399999 4294967295
0.019068187 -0.056729063 0.70999998 4294967295
0.020277781 -0.056409318 0.70599997 4294967295
0.02153358 -0.056249399 0.704 4294967295
0.022846771 -0.056249309 0.704 4294967295
0.024125593 -0.056169353 0.70300001 4294967295
0.025436819 -0.056169327 0.70300001 4294967295
0.026671903 -0.056009542 0.70099998 4294967295
0.027939383 -0.055929694 0.69999999 4294967295
0.029161306 -0.055769965 0.69800001 4294967295
0.030419363 -0.055690177 0.69700003 4294967295
0.03158262 -0.055450615 0.69400001 4294967295
0.032876763 -0.05545079 0.69400001 4294967295
0.034170847 -0.055450991 0.69400001 4294967295
0.035413779 -0.055371325 0.69300002 4294967295
0.036599964 -0.055211794 0.69099998 4294967295
0.037833467 -0.055132195 0.69 4294967295
0.039119888 -0.055132531 0.69 4294967295
0.040406261 -0.055132885 0.69 4294967295
0.041571729 -0.054973479 0.68800002 4294967295
0.042854264 -0.054973915 0.68800002 4294967295
0.044136748 -0.054974377 0.68800002 4294967295
0.045353156 -0.054894954 0.68699998 4294967295
0.046633665 -0.054895479 0.68699998 4294967295
0.047704902 -0.054656323 0.68400002 4294967295
0.048979711 -0.054656915 0.68400002 4294967295
0.050181001 -0.054577619 0.68300003 4294967295
0.0513785 -0.054498356 0.68199998 4294967295
0.052649423 -0.05449903 0.68199998 4294967295
0.053920303 -0.054499749 0.68199998 4294967295
0.055191115 -0.05450049 0.68199998 4294967295
0.056461874 -0.054501269 0.68199998 4294967295
0.057732575 -0.054502077 0.68199998 4294967295
0.059003226 -0.054502923 0.68199998 4294967295
0.060273822 -0.054503795 0.68199998 4294967295
0.061273642 -0.054264948 0.67900002 4294967295
0.062538534 -0.054265879 0.67900002 4294967295
0.063803367 -0.054266848 0.67900002 4294967295
0.064972326 -0.05418792 0.67799997 4294967295
0.066235185 -0.054188944 0.67799997 4294967295
0.067497991 -0.054190006 0.67799997 4294967295
0.068760745 -0.054191105 0.67799997 4294967295
0.070023432 -0.05419223 0.67799997 4294967295
0.071391217 -0.054273322 0.67900002 4294967295
0.072548658 -0.054194573 0.67799997 4294967295
0.073811173 -0.054195803 0.67799997 4294967295
0.075073637 -0.054197058 0.67799997 4294967295
0.076336041 -0.054198336 0.67799997 4294967295
0.077598393 -0.054199655 0.67799997 4294967295
0.078628071 -0.054041125 0.676 4294967295
0.079768404 -0.05396257 0.67500001 4294967295
0.081024989 -0.05396397 0.67500001 4294967295
0.08908812 -0.054292955 0.67900002 4294967295
0.090351738 -0.054294601 0.67900002 4294967295
0.091615297 -0.054296274 0.67900002 4294967295
0.092742004 -0.054218024 0.67799997 4294967295
0.094003595 -0.054219764 0.67799997 4294967295
0.095405631 -0.054301515 0.67900002 4294967295
0.096668936 -0.054303322 0.67900002 4294967295
0.097932197 -0.054305166 0.67900002 4294967295
0.099195398 -0.054307044 0.67900002 4294967295
0.10060649 -0.05438894 0.68000001 4294967295
0.10187144 -0.054390881 0.68000001 4294967295
0.10313632 -0.054392856 0.68000001 4294967295
0.10470818 -0.054554854 0.68199998 4294967295
0.10613206 -0.054636907 0.68300003 4294967295
0.10740234 -0.054638993 0.68300003 4294967295
0.10867255 -0.054641109 0.68300003 4294967295
0.11010367 -0.054723267 0.68400002 4294967295
0.11137561 -0.054725457 0.68400002 4294967295
0.11264752 -0.054727685 0.68400002 4294967295
0.11391933 -0.054729939 0.68400002 4294967295
0.1151911 -0.054732226 0.68400002 4294967295
0.11680333 -0.054894596 0.68599999 4294967295
0.1182508 -0.054976985 0.68699998 4294967295
0.11952796 -0.054979388 0.68699998 4294967295
0.1209809 -0.055061858 0.68800002 4294967295
0.12225979 -0.055064328 0.68800002 4294967295
0.12407729 -0.055306956 0.69099998 4294967295
0.12572448 -0.055469591 0.69300002 4294967295
0.12701248 -0.055472191 0.69300002 4294967295
0.13276461 -0.056280755 0.70300001 4294967295
0.13368949 -0.056123406 0.70099998 4294967295
0.13499202 -0.056126207 0.70099998 4294967295
0.13629451 -0.056129046 0.70099998 4294967295
0.0086499536 -0.056581553 0.72500002 4293582810
0.0099751875 -0.056425054 0.72299999 4294964720
0.011308571 -0.056346644 0.722 4294966520
0.012655705 -0.056346294 0.722 4294967295
0.013963999 -0.056189906 0.72000003 4294967295
0.015286043 -0.056111585 0.71899998 4294967295
0.016558055 -0.055877227 0.71600002 4294967295
0.017843816 -0.05572094 0.71399999 4294967295
0.019068349 -0.055408601 0.70999998 4294967295
0.020306634 -0.055174347 0.70700002 4294967295
0.021594848 -0.055096198 0.70599997 4294967295
0.022846833 -0.054940049 0.704 4294967295
0.024125624 -0.054861978 0.70300001 4294967295
0.025436819 -0.054861963 0.70300001 4294967295
0.026671866 -0.05470591 0.70099998 4294967295
0.027939316 -0.054627933 0.69999999 4294967295
0.029119426 -0.05439391 0.69700003 4294967295
0.030375589 -0.054315992 0.69599998 4294967295
0.031582456 -0.05416007 0.69400001 4294967295
0.032876562 -0.054160256 0.69400001 4294967295
0.034170616 -0.054160483 0.69400001 4294967295
0.035413519 -0.054082695 0.69300002 4294967295
0.036599673 -0.053926893 0.69099998 4294967295
0.037723485 -0.05369309 0.68800002 4294967295
0.039006148 -0.05369344 0.68800002 4294967295
0.040405873 -0.053849906 0.69 4294967295
0.041571312 -0.05369423 0.68800002 4294967295
0.042853814 -0.05369468 0.68800002 4294967295
0.044136267 -0.053695153 0.68800002 4294967295
0.045352641 -0.053617623 0.68699998 4294967295
0.046633121 -0.053618155 0.68699998 4294967295
0.047634587 -0.053306546 0.68300003 4294967295
0.048907496 -0.05330715 0.68300003 4294967295
0.050180364 -0.053307787 0.68300003 4294967295
0.051377829 -0.053230401 0.68199998 4294967295
0.052648723 -0.053231098 0.68199998 4294967295
0.053919561 -0.053231828 0.68199998 4294967295
0.055190347 -0.053232592 0.68199998 4294967295
0.056461073 -0.053233381 0.68199998 4294967295
0.057731744 -0.053234216 0.68199998 4294967295
0.059002366 -0.053235069 0.68199998 4294967295
0.060272928 -0.053235963 0.68199998 4294967295
0.061272722 -0.053002711 0.67900002 4294967295
0.062537581 -0.053003661 0.67900002 4294967295
0.063802384 -0.053004649 0.67900002 4294967295
0.064971305 -0.052927595 0.67799997 4294967295
0.066234134 -0.052928645 0.67799997 4294967295
0.067496903 -0.052929725 0.67799997 4294967295
0.068759628 -0.052930832 0.67799997 4294967295
0.070022292 -0.052931979 0.67799997 4294967295
0.071284905 -0.052933156 0.67799997 4294967295
0.072547443 -0.052934367 0.67799997 4294967295
0.073809929 -0.052935611 0.67799997 4294967295
0.075072363 -0.052936882 0.67799997 4294967295
0.076334737 -0.052938193 0.67799997 4294967295
0.077597059 -0.052939527 0.67799997 4294967295
0.078859314 -0.052940894 0.67799997 4294967295
0.080121517 -0.052942298 0.67799997 4294967295
0.08138366 -0.052943736 0.67799997 4294967295
0.08908648 -0.053031139 0.67900002 4294967295
0.090350077 -0.053032804 0.67900002 4294967295
0.091613598 -0.053034503 0.67900002 4294967295
0.092740275 -0.052958123 0.67799997 4294967295
0.09400183 -0.052959882 0.67799997 4294967295
0.095403828 -0.0530398 0.67900002 4294967295
0.096667126 -0.053041629 0.67900002 4294967295
0.098074563 -0.053121608 0.68000001 4294967295
0.099339604 -0.053123515 0.68000001 4294967295
0.10060457 -0.053125441 0.68000001 4294967295
0.10186947 -0.053127408 0.68000001 4294967295
0.10343765 -0.05328567 0.68199998 4294967295
0.10485968 -0.053365842 0.68300003 4294967295
0.10612999 -0.05336792 0.68300003 4294967295
0.10740023 -0.053370018 0.68300003 4294967295
0.10882953 -0.053450309 0.68400002 4294967295
0.1101015 -0.053452484 0.68400002 4294967295
0.11137342 -0.053454697 0.68400002 4294967295
0.11264526 -0.05345694 0.68400002 4294967295
0.11391706 -0.05345922 0.68400002 4294967295
0.11518878 -0.053461529 0.68400002 4294967295
0.11680099 -0.053620204 0.68599999 4294967295
0.1182484 -0.053700753 0.68699998 4294967295
0.11952554 -0.053703178 0.68699998 4294967295
0.12080261 -0.053705636 0.68699998 4294967295
0.12225731 -0.053786308 0.68800002 4294967295
0.12389521 -0.053945199 0.69 4294967295
0.12572189 -0.054182325 0.69300002 4294967295
0.12700985 -0.054184943 0.69300002 4294967295
0.0099755703 -0.055080388 0.72299999 4294964966
0.011308922 -0.055003855 0.722 4294966518
0.012656021 -0.055003524 0.722 4294967294
0.01396428 -0.054850873 0.72000003 4294967295
0.01524377 -0.054622069 0.71700001 4294967295
0.016442638 -0.054164756 0.71100003 4294967295
0.017744027 -0.054088388 0.70999998 4294967295
0.019068494 -0.054088231 0.70999998 4294967295
0.020306746 -0.053859569 0.70700002 4294967295
0.021594929 -0.053783301 0.70599997 4294967295
0.022846883 -0.053630885 0.704 4294967295
0.024125637 -0.053554684 0.70300001 4294967295
0.025436798 -0.053554691 0.70300001 4294967295
0.026633766 -0.053326201 0.69999999 4294967295
0.027859407 -0.053173915 0.69800001 4294967295
0.029119313 -0.053097844 0.69700003 4294967295
0.030375438 -0.0530218 0.69599998 4294967295
0.031582277 -0.052869622 0.69400001 4294967295
0.032828983 -0.052793641 0.69300002 4294967295
0.034121137 -0.052793879 0.69300002 4294967295
0.035413243 -0.052794155 0.69300002 4294967295
0.036705296 -0.052794453 0.69300002 4294967295
0.037723146 -0.052413873 0.68800002 4294967295
0.039005775 -0.052414242 0.68800002 4294967295
0.040405467 -0.052567005 0.69 4294967295
0.04157088 -0.052415069 0.68800002 4294967295
0.042853344 -0.052415535 0.68800002 4294967295
0.044135764 -0.052416034 0.68800002 4294967295
0.045352109 -0.05234037 0.68699998 4294967295
0.04656468 -0.052264735 0.68599999 4294967295
0.047633994 -0.052036766 0.68300003 4294967295
0.04890687 -0.052037392 0.68300003 4294967295
0.050179705 -0.05203804 0.68300003 4294967295
0.05145248 -0.052038729 0.68300003 4294967295
0.052648008 -0.051963251 0.68199998 4294967295
0.053918809 -0.051964004 0.68199998 4294967295
0.055189561 -0.051964775 0.68199998 4294967295
0.056460261 -0.051965591 0.68199998 4294967295
0.057730898 -0.051966436 0.68199998 4294967295
0.059001487 -0.051967312 0.68199998 4294967295
0.060272019 -0.051968228 0.68199998 4294967295
0.061362009 -0.051816765 0.68000001 4294967295
0.062536605 -0.051741537 0.67900002 4294967295
0.063801385 -0.051742539 0.67900002 4294967295
0.065066107 -0.051743574 0.67900002 4294967295
0.066233076 -0.051668432 0.67799997 4294967295
0.067495815 -0.051669531 0.67799997 4294967295
0.068758503 -0.051670667 0.67799997 4294967295
0.070021123 -0.051671822 0.67799997 4294967295
0.071283698 -0.051673021 0.67799997 4294967295
0.072546221 -0.051674251 0.67799997 4294967295
0.073808677 -0.05167551 0.67799997 4294967295
0.075071074 -0.051676799 0.67799997 4294967295
0.076333418 -0.051678121 0.67799997 4294967295
0.077595703 -0.051679481 0.67799997 4294967295
0.078857921 -0.05168087 0.67799997 4294967295
0.080120094 -0.051682293 0.67799997 4294967295
0.081382208 -0.05168375 0.67799997 4294967295
0.08403001 -0.051762991 0.67900002 4294967295
0.089084841 -0.051769413 0.67900002 4294967295
0.090348393 -0.051771097 0.67900002 4294967295
0.091476947 -0.051696565 0.67799997 4294967295
0.092738532 -0.051698312 0.67799997 4294967295
0.094000049 -0.051700097 0.67799997 4294967295
0.09540201 -0.051778167 0.67900002 4294967295
0.096807629 -0.051856283 0.68000001 4294967295
0.098072685 -0.051858164 0.68000001 4294967295
0.099337675 -0.051860083 0.68000001 4294967295
0.10089851 -0.052014574 0.68199998 4294967295
0.10216709 -0.052016564 0.68199998 4294967295
0.1035873 -0.052094866 0.68300003 4294967295
0.10485764 -0.052096922 0.68300003 4294967295
0.10628328 -0.052175302 0.68400002 4294967295
0.10755537 -0.052177429 0.68400002 4294967295
0.10882737 -0.052179597 0.68400002 4294967295
0.10993835 -0.052105505 0.68300003 4294967295
0.11120835 -0.052107729 0.68300003 4294967295
0.11247833 -0.052109994 0.68300003 4294967295
0.11374823 -0.052112289 0.68300003 4294967295
0.11501806 -0.052114617 0.68300003 4294967295
0.1164581 -0.052193291 0.68400002 4294967295
0.1180739 -0.052348308 0.68599999 4294967295
0.1195231 -0.052427057 0.68699998 4294967295
0.12080012 -0.052429538 0.68699998 4294967295
0.12207708 -0.052432049 0.68699998 4294967295
0.12389267 -0.052663572 0.69 4294967295
0.12517506 -0.052666169 0.69 4294967295
0.12645741 -0.052668784 0.69 4294967295
0.12903562 -0.053205803 0.69700003 4294967295
0.0099759381 -0.053735841 0.72299999 4294963429
0.011277928 -0.053512529 0.72000003 4294964722
0.012621262 -0.053512219 0.72000003 4294967035
0.013945151 -0.05343762 0.71899998 4294967295
0.015244002 -0.053288732 0.71700001 4294967295
0.016419707 -0.052768275 0.70999998 4294967295
0.017744189 -0.0527681 0.70999998 4294967295
0.019068625 -0.052767958 0.70999998 4294967295
0.020278117 -0.052470569 0.70599997 4294967295
0.02159499 -0.052470505 0.70599997 4294967295
0.022846913 -0.052321821 0.704 4294967295
0.024125636 -0.052247502 0.70300001 4294967295
0.025436761 -0.052247524 0.70300001 4294967295
0.0266337 -0.052024622 0.69999999 4294967295
0.027859304 -0.051876072 0.69800001 4294967295
0.029119181 -0.051801875 0.69700003 4294967295
0.030375272 -0.051727716 0.69599998 4294967295
0.03158208 -0.051579263 0.69400001 4294967295
0.032828752 -0.051505163 0.69300002 4294967295
0.034120876 -0.051505428 0.69300002 4294967295
0.035412949 -0.051505711 0.69300002 4294967295
0.036704969 -0.051506024 0.69300002 4294967295
0.037722789 -0.051134761 0.68800002 4294967295
0.039005388 -0.051135153 0.68800002 4294967295
0.040405046 -0.051284209 0.69 4294967295
0.041570421 -0.051136009 0.68800002 4294967295
0.042852864 -0.05113649 0.68800002 4294967295
0.044135246 -0.051137008 0.68800002 4294967295
0.045285545 -0.050988887 0.68599999 4294967295
0.046564102 -0.05098946 0.68599999 4294967295
0.047703121 -0.050841421 0.68400002 4294967295
0.048977833 -0.050842058 0.68400002 4294967295
0.050179027 -0.050768398 0.68300003 4294967295
0.051451769 -0.050769098 0.68300003 4294967295
0.052647267 -0.050695498 0.68199998 4294967295
0.053918045 -0.050696265 0.68199998 4294967295
0.055188756 -0.050697066 0.68199998 4294967295
0.056459419 -0.050697897 0.68199998 4294967295
0.057730034 -0.050698761 0.68199998 4294967295
0.059000582 -0.050699655 0.68199998 4294967295
0.060359463 -0.050774928 0.68300003 4294967295
0.06136106 -0.050552864 0.68000001 4294967295
0.062535621 -0.050479513 0.67900002 4294967295
0.063800357 -0.05048053 0.67900002 4294967295
0.065065049 -0.050481588 0.67900002 4294967295
0.066329673 -0.050482675 0.67900002 4294967295
0.06749469 -0.05040944 0.67799997 4294967295
0.068757348 -0.050410587 0.67799997 4294967295
0.070019946 -0.050411768 0.67799997 4294967295
0.071282491 -0.050412986 0.67799997 4294967295
0.07254497 -0.050414227 0.67799997 4294967295
0.073807396 -0.050415512 0.67799997 4294967295
0.074848332 -0.050268102 0.676 4294967295
0.076106906 -0.05026944 0.676 4294967295
0.077365436 -0.050270807 0.676 4294967295
0.07885652 -0.050420951 0.67799997 4294967295
0.080118649 -0.050422393 0.67799997 4294967295
0.081380732 -0.050423861 0.67799997 4294967295
0.082764648 -0.050499752 0.67900002 4294967295
0.084028475 -0.050501298 0.67900002 4294967295
0.085669063 -0.050725996 0.68199998 4294967295
0.086938359 -0.05072761 0.68199998 4294967295
0.089476749 -0.05073094 0.68199998 4294967295
0.090745866 -0.050732654 0.68199998 4294967295
0.091475219 -0.050436832 0.67799997 4294967295
0.092736758 -0.050438613 0.67799997 4294967295
0.093998253 -0.050440405 0.67799997 4294967295
0.095259666 -0.050442237 0.67799997 4294967295
0.096663408 -0.050518516 0.67900002 4294967295
0.098070771 -0.050594822 0.68000001 4294967295
0.099627912 -0.05074558 0.68199998 4294967295
0.10089653 -0.050747551 0.68199998 4294967295
0.10216508 -0.050749563 0.68199998 4294967295
0.10358527 -0.050826032 0.68300003 4294967295
0.10500907 -0.050902527 0.68400002 4294967295
0.1061258 -0.050830234 0.68300003 4294967295
0.10739596 -0.050832376 0.68300003 4294967295
0.10866608 -0.050834559 0.68300003 4294967295
0.10993615 -0.050836772 0.68300003 4294967295
0.11120612 -0.050839029 0.68300003 4294967295
0.11247605 -0.050841309 0.68300003 4294967295
0.11374592 -0.050843623 0.68300003 4294967295
0.11501573 -0.050845973 0.68300003 4294967295
0.11645571 -0.050922804 0.68400002 4294967295
0.11807147 -0.051074125 0.68599999 4294967295
0.11952065 -0.051151045 0.68699998 4294967295
0.12079763 -0.051153548 0.68699998 4294967295
0.12207456 -0.051156078 0.68699998 4294967295
0.12335142 -0.051158644 0.68699998 4294967295
0.12462822 -0.051161245 0.68699998 4294967295
0.12773766 -0.051908635 0.69700003 4294967295
0.0099762902 -0.052391376 0.72299999 4294568410
0.011278243 -0.052173663 0.72000003 4294964720
0.012621545 -0.052173365 0.72000003 4294966005
0.013945401 -0.052100644 0.71899998 4294967295
0.015244216 -0.051955499 0.71700001 4294967295
0.016419888 -0.051448066 0.70999998 4294967295
0.017744336 -0.051447913 0.70999998 4294967295
0.019068738 -0.051447786 0.70999998 4294967295
0.020278197 -0.051157854 0.70599997 4294967295
0.021595037 -0.051157791 0.70599997 4294967295
0.022911828 -0.051157769 0.70599997 4294967295
0.024159933 -0.051012866 0.704 4294967295
0.025436712 -0.05094045 0.70300001 4294967295
0.026671663 -0.0507956 0.70099998 4294967295
0.02785919 -0.05057833 0.69800001 4294967295
0.02911903 -0.050506011 0.69700003 4294967295
0.030418735 -0.050506182 0.69700003 4294967295
0.031672876 -0.050433923 0.69599998 4294967295
0.032828502 -0.050216783 0.69300002 4294967295
0.034120597 -0.050217055 0.69300002 4294967295
0.035412636 -0.05021736 0.69300002 4294967295
0.036598694 -0.050072763 0.69099998 4294967295
0.037832074 -0.050000668 0.69 4294967295
0.039118364 -0.050001066 0.69 4294967295
0.040404607 -0.050001506 0.69 4294967295
0.041569952 -0.049857043 0.68800002 4294967295
0.042852357 -0.049857534 0.68800002 4294967295
0.044070557 -0.049785595 0.68699998 4294967295
0.045284979 -0.04971369 0.68599999 4294967295
0.046563499 -0.049714286 0.68599999 4294967295
0.047702491 -0.049569976 0.68400002 4294967295
0.04897717 -0.049570628 0.68400002 4294967295
0.050178334 -0.049498845 0.68300003 4294967295
0.05145105 -0.049499564 0.68300003 4294967295
0.052723709 -0.04950032 0.68300003 4294967295
0.053917255 -0.049428627 0.68199998 4294967295
0.055187941 -0.04942945 0.68199998 4294967295
0.056541361 -0.049502779 0.68300003 4294967295
0.05772914 -0.049431175 0.68199998 4294967295
0.058999673 -0.049432091 0.68199998 4294967295
0.060358517 -0.049505521 0.68300003 4294967295
0.061360072 -0.049289051 0.68000001 4294967295
0.062626705 -0.049290057 0.68000001 4294967295
0.063799314 -0.049218617 0.67900002 4294967295
0.065063968 -0.04921969 0.67900002 4294967295
0.06632857 -0.049220797 0.67900002 4294967295
0.067593113 -0.049221937 0.67900002 4294967295
0.068756178 -0.049150601 0.67799997 4294967295
0.070018739 -0.049151804 0.67799997 4294967295
0.071281254 -0.049153037 0.67799997 4294967295
0.072543703 -0.0491543 0.67799997 4294967295
0.0738061 -0.049155597 0.67799997 4294967295
0.074846998 -0.049011927 0.676 4294967295
0.076105542 -0.049013283 0.676 4294967295
0.077364042 -0.049014673 0.676 4294967295
0.07885509 -0.049161118 0.67799997 4294967295
0.080117188 -0.049162574 0.67799997 4294967295
0.08137925 -0.049164068 0.67799997 4294967295
0.082763113 -0.049238116 0.67900002 4294967295
0.084150657 -0.049312189 0.68000001 4294967295
0.085667469 -0.049458835 0.68199998 4294967295
0.086936727 -0.049460463 0.68199998 4294967295
0.088205919 -0.049462132 0.68199998 4294967295
0.089475065 -0.049463827 0.68199998 4294967295
0.093996435 -0.049180809 0.67799997 4294967295
0.095257819 -0.049182668 0.67799997 4294967295
0.096661516 -0.0492571 0.67900002 4294967295
0.098501518 -0.049549215 0.68300003 4294967295
0.099772036 -0.049551181 0.68300003 4294967295
0.10104249 -0.049553182 0.68300003 4294967295
0.10231286 -0.04955522 0.68300003 4294967295
0.10373487 -0.049629841 0.68400002 4294967295
0.10500698 -0.049631953 0.68400002 4294967295
0.10612366 -0.049561527 0.68300003 4294967295
0.10739381 -0.049563695 0.68300003 4294967295
0.10866389 -0.0495659 0.68300003 4294967295
0.10993391 -0.049568135 0.68300003 4294967295
0.11120384 -0.049570404 0.68300003 4294967295
0.11247375 -0.04957271 0.68300003 4294967295
0.1137436 -0.049575046 0.68300003 4294967295
0.11501336 -0.049577415 0.68300003 4294967295
0.11645333 -0.049652413 0.68400002 4294967295
0.11806904 -0.049800042 0.68599999 4294967295
0.11951818 -0.049875122 0.68699998 4294967295
0.12097096 -0.049950246 0.68800002 4294967295
0.12224972 -0.049952809 0.68800002 4294967295
0.12352841 -0.049955398 0.68800002 4294967295
0.12773496 -0.050614249 0.69700003 4294967295
0.1290302 -0.050616976 0.69700003 4294967295
0.13032535 -0.050619744 0.69700003 4294967295
0.012621813 -0.050834622 0.72000003 4294965746
0.013965029 -0.05083438 0.72000003 4294967036
0.015223153 -0.050551757 0.71600002 4294967295
0.016420051 -0.050127964 0.70999998 4294967295
0.017744467 -0.050127819 0.70999998 4294967295
0.019068833 -0.050127715 0.70999998 4294967295
0.020335708 -0.049986444 0.708 4294967295
0.021595066 -0.0498452 0.70599997 4294967295
0.022846922 -0.049703993 0.704 4294967295
0.024159901 -0.049704019 0.704 4294967295
0.025436644 -0.049633473 0.70300001 4294967295
0.026671562 -0.049492367 0.70099998 4294967295
0.02793888 -0.049421884 0.69999999 4294967295
0.029118866 -0.049210239 0.69700003 4294967295
0.030418534 -0.049210433 0.69700003 4294967295
0.031672649 -0.049140047 0.69599998 4294967295
0.032875612 -0.048999101 0.69400001 4294967295
0.034169532 -0.048999391 0.69400001 4294967295
0.035412312 -0.048929106 0.69300002 4294967295
0.036598332 -0.048788246 0.69099998 4294967295
0.037831683 -0.048718031 0.69 4294967295
0.039117943 -0.048718449 0.69 4294967295
0.040404148 -0.048718899 0.69 4294967295
0.041569464 -0.048578169 0.68800002 4294967295
0.042851839 -0.048578687 0.68800002 4294967295
0.044070002 -0.048508625 0.68699998 4294967295
0.045284398 -0.04843859 0.68599999 4294967295
0.046562888 -0.048439201 0.68599999 4294967295
0.047701843 -0.048298627 0.68400002 4294967295
0.048976488 -0.048299301 0.68400002 4294967295
0.0502511 -0.048300009 0.68400002 4294967295
0.051450308 -0.048230134 0.68300003 4294967295
0.052722938 -0.048230901 0.68300003 4294967295
0.053995512 -0.048231706 0.68300003 4294967295
0.055187095 -0.04816192 0.68199998 4294967295
0.056457702 -0.048162792 0.68199998 4294967295
0.057728246 -0.048163693 0.68199998 4294967295
0.058998737 -0.048164621 0.68199998 4294967295
0.060357545 -0.048236214 0.68300003 4294967295
0.061539542 -0.048166588 0.68199998 4294967295
0.062625684 -0.048026368 0.68000001 4294967295
0.063892215 -0.048027426 0.68000001 4294967295
0.065158702 -0.048028521 0.68000001 4294967295
0.066327445 -0.047959015 0.67900002 4294967295
0.067591958 -0.04796017 0.67900002 4294967295
0.068856411 -0.047961358 0.67900002 4294967295
0.070017524 -0.04789193 0.67799997 4294967295
0.071280003 -0.047893185 0.67799997 4294967295
0.072542414 -0.047894467 0.67799997 4294967295
0.073804781 -0.047895785 0.67799997 4294967295
0.075067088 -0.047897138 0.67799997 4294967295
0.076329321 -0.04789852 0.67799997 4294967295
0.077591524 -0.047899939 0.67799997 4294967295
0.078969955 -0.047972038 0.67900002 4294967295
0.080233887 -0.047973521 0.67900002 4294967295
0.081497766 -0.047975034 0.67900002 4294967295
0.082883455 -0.048047241 0.68000001 4294967295
0.084149078 -0.048048828 0.68000001 4294967295
0.085414633 -0.048050437 0.68000001 4294967295
0.086680129 -0.048052084 0.68000001 4294967295
0.08794558 -0.048053779 0.68000001 4294967295
0.089210957 -0.048055489 0.68000001 4294967295
0.098499551 -0.048280489 0.68300003 4294967295
0.099770047 -0.048282482 0.68300003 4294967295
0.10104047 -0.048284501 0.68300003 4294967295
0.10231082 -0.048286557 0.68300003 4294967295
0.10500485 -0.048361469 0.68400002 4294967295
0.10627688 -0.04836363 0.68400002 4294967295
0.10754886 -0.04836582 0.68400002 4294967295
0.10866167 -0.048297334 0.68300003 4294967295
0.10993166 -0.048299596 0.68300003 4294967295
0.11120158 -0.048301887 0.68300003 4294967295
0.11247143 -0.048304208 0.68300003 4294967295
0.11374123 -0.048306566 0.68300003 4294967295
0.11501097 -0.048308957 0.68300003 4294967295
0.1164509 -0.048382126 0.68400002 4294967295
0.11806657 -0.048526056 0.68599999 4294967295
0.11951566 -0.048599299 0.68699998 4294967295
0.12079259 -0.048601843 0.68699998 4294967295
0.12189175 -0.048533671 0.68599999 4294967295
0.1235258 -0.048677791 0.68800002 4294967295
0.12480439 -0.048680436 0.68800002 4294967295
0.12773225 -0.049319964 0.69700003 4294967295
0.12902746 -0.049322721 0.69700003 4294967295
0.13013558 -0.049254734 0.69599998 4294967295
0.13142879 -0.049257554 0.69599998 4294967295
0.012622063 -0.049495969 0.72000003 4294636004
0.013945851 -0.049427003 0.71899998 4294965235
0.015223335 -0.049220573 0.71600002 4294967295
0.016443325 -0.048876703 0.71100003 4294967295
0.017769573 -0.048876576 0.71100003 4294967295
0.019068915 -0.048807744 0.70999998 4294967295
0.0203932 -0.048807684 0.70999998 4294967295
0.021595081 -0.048532687 0.70599997 4294967295
0.022846904 -0.048395213 0.704 4294967295
0.024159845 -0.048395257 0.704 4294967295
0.02543656 -0.048326589 0.70300001 4294967295
0.026671443 -0.048189215 0.70099998 4294967295
0.027938729 -0.048120618 0.69999999 4294967295
0.029160459 -0.047983304 0.69800001 4294967295
0.03041832 -0.04791477 0.69700003 4294967295
0.031672399 -0.047846265 0.69599998 4294967295
0.032875333 -0.047709052 0.69400001 4294967295
0.034169223 -0.047709364 0.69400001 4294967295
0.035411965 -0.047640953 0.69300002 4294967295
0.036703885 -0.047641322 0.69300002 4294967295
0.037886102 -0.047504231 0.69099998 4294967295
0.039174192 -0.047504671 0.69099998 4294967295
0.040403675 -0.04743639 0.69 4294967295
0.041689798 -0.047436889 0.69 4294967295
0.042851299 -0.047299925 0.68800002 4294967295
0.044069439 -0.047231741 0.68699998 4294967295
0.045283798 -0.047163591 0.68599999 4294967295
0.046562254 -0.047164217 0.68599999 4294967295
0.047701176 -0.047027368 0.68400002 4294967295
0.048975796 -0.047028065 0.68400002 4294967295
0.05025037 -0.047028787 0.68400002 4294967295
0.051449548 -0.046960793 0.68300003 4294967295
0.052722137 -0.046961579 0.68300003 4294967295
0.053994682 -0.046962399 0.68300003 4294967295
0.055186246 -0.046894487 0.68199998 4294967295
0.056456819 -0.046895377 0.68199998 4294967295
0.057727322 -0.046896294 0.68199998 4294967295
0.058997784 -0.046897251 0.68199998 4294967295
0.060356561 -0.046967 0.68300003 4294967295
0.061538529 -0.046899248 0.68199998 4294967295
0.062624626 -0.046762757 0.68000001 4294967295
0.063891135 -0.046763841 0.68000001 4294967295
0.065157592 -0.046764951 0.68000001 4294967295
0.066326305 -0.046697319 0.67900002 4294967295
0.067590781 -0.046698492 0.67900002 4294967295
0.068855204 -0.046699703 0.67900002 4294967295
0.070016287 -0.046632156 0.67799997 4294967295
0.071278729 -0.046633426 0.67799997 4294967295
0.072541118 -0.046634737 0.67799997 4294967295
0.073803447 -0.046636071 0.67799997 4294967295
0.075065717 -0.046637438 0.67799997 4294967295
0.076327927 -0.046638843 0.67799997 4294967295
0.077590078 -0.046640273 0.67799997 4294967295
0.078968488 -0.04671054 0.67900002 4294967295
0.080232389 -0.046712037 0.67900002 4294967295
0.081496224 -0.046713576 0.67900002 4294967295
0.08288189 -0.046783943 0.68000001 4294967295
0.084147476 -0.046785548 0.68000001 4294967295
0.085412994 -0.04678718 0.68000001 4294967295
0.086678468 -0.046788849 0.68000001 4294967295
0.087814555 -0.046721738 0.67900002 4294967295
0.089078046 -0.046723478 0.67900002 4294967295
0.10530973 -0.047228776 0.68599999 4294967295
0.10627471 -0.047093261 0.68400002 4294967295
0.10738941 -0.047026627 0.68300003 4294967295
0.10865943 -0.047028869 0.68300003 4294967295
0.10992939 -0.047031146 0.68300003 4294967295
0.11119927 -0.047033459 0.68300003 4294967295
0.1124691 -0.047035798 0.68300003 4294967295
0.11390538 -0.047107052 0.68400002 4294967295
0.11517695 -0.047109466 0.68400002 4294967295
0.11678893 -0.047249675 0.68599999 4294967295
0.11806408 -0.047252163 0.68599999 4294967295
0.11951314 -0.047323573 0.68699998 4294967295
0.12061421 -0.047257248 0.68599999 4294967295
0.12188917 -0.047259841 0.68599999 4294967295
0.12352317 -0.047400273 0.68800002 4294967295
0.12480172 -0.047402944 0.68800002 4294967295
0.12772952 -0.048025772 0.69700003 4294967295
0.12902468 -0.048028551 0.69700003 4294967295
0.13013278 -0.047962446 0.69599998 4294967295
0.13142596 -0.047965284 0.69599998 4294967295
0.13348182 -0.048243843 0.69999999 4294967295
0.13478228 -0.048246775 0.69999999 4294967295
0.13627709 -0.048318654 0.70099998 4294967295
0.012622298 -0.048157435 0.72000003 4294176739
0.01394605 -0.048090331 0.71899998 4294767856
0.015223501 -0.047889505 0.71600002 4294967291
0.016443457 -0.047554936 0.71100003 4294967295
0.017769672 -0.047554825 0.71100003 4294967295
0.019068981 -0.047487874 0.70999998 4294967295
0.020393228 -0.047487825 0.70999998 4294967295
0.021595081 -0.047220282 0.70599997 4294967295
0.022911772 -0.047220316 0.70599997 4294967295
0.024228409 -0.047220372 0.70599997 4294967295
0.025436455 -0.047019817 0.70300001 4294967295
0.026747404 -0.047019947 0.70300001 4294967295
0.027938562 -0.046819448 0.69999999 4294967295
0.029160261 -0.046685874 0.69800001 4294967295
0.030418089 -0.046619218 0.69700003 4294967295
0.031672135 -0.046552587 0.69599998 4294967295
0.032875035 -0.046419106 0.69400001 4294967295
0.034168892 -0.046419434 0.69400001 4294967295
0.0354627 -0.046419784 0.69400001 4294967295
0.036703493 -0.046353284 0.69300002 4294967295
0.03788567 -0.04621993 0.69099998 4294967295
0.039173733 -0.046220381 0.69099998 4294967295
0.040403184 -0.046153981 0.69 4294967295
0.041689277 -0.046154495 0.69 4294967295
0.042850748 -0.046021271 0.68800002 4294967295
0.044133008 -0.04602186 0.68800002 4294967295
0.04528318 -0.045888681 0.68599999 4294967295
0.046561603 -0.045889325 0.68599999 4294967295
0.047630761 -0.04568933 0.68300003 4294967295
0.048903484 -0.04569003 0.68300003 4294967295
0.050249621 -0.04575767 0.68400002 4294967295
0.051524099 -0.045758449 0.68400002 4294967295
0.052721329 -0.045692354 0.68300003 4294967295
0.053993843 -0.045693196 0.68300003 4294967295
0.055266298 -0.045694072 0.68300003 4294967295
0.05653869 -0.04569497 0.68300003 4294967295
0.057726387 -0.045629006 0.68199998 4294967295
0.058996812 -0.045629971 0.68199998 4294967295
0.060355555 -0.045697883 0.68300003 4294967295
0.061537489 -0.045632008 0.68199998 4294967295
0.062623568 -0.045499254 0.68000001 4294967295
0.06389004 -0.045500349 0.68000001 4294967295
0.06515646 -0.045501485 0.68000001 4294967295
0.066325143 -0.04543573 0.67900002 4294967295
0.067589588 -0.045436922 0.67900002 4294967295
0.068853982 -0.045438152 0.67900002 4294967295
0.070118301 -0.045439407 0.67900002 4294967295
0.071382582 -0.0454407 0.67900002 4294967295
0.072646797 -0.04544203 0.67900002 4294967295
0.073910944 -0.045443386 0.67900002 4294967295
0.075064331 -0.045377843 0.67799997 4294967295
0.076326512 -0.045379262 0.67799997 4294967295
0.077703081 -0.045447648 0.67900002 4294967295
0.078966998 -0.045449138 0.67900002 4294967295
0.080230862 -0.045450654 0.67900002 4294967295
0.081494682 -0.045452219 0.67900002 4294967295
0.082880296 -0.045520741 0.68000001 4294967295
0.084145859 -0.045522362 0.68000001 4294967295
0.085411355 -0.04552402 0.68000001 4294967295
0.086549319 -0.045458764 0.67900002 4294967295
0.087812833 -0.045460477 0.67900002 4294967295
0.089076281 -0.045462236 0.67900002 4294967295
0.10627251 -0.045822997 0.68400002 4294967295
0.10738719 -0.045758236 0.68300003 4294967295
0.10865718 -0.045760509 0.68300003 4294967295
0.1099271 -0.045762803 0.68300003 4294967295
0.11119694 -0.045765139 0.68300003 4294967295
0.1126314 -0.045834512 0.68400002 4294967295
0.11390299 -0.045836914 0.68400002 4294967295
0.11517452 -0.045839358 0.68400002 4294967295
0.11678648 -0.045975868 0.68599999 4294967295
0.11806157 -0.045978382 0.68599999 4294967295
0.1195106 -0.046047948 0.68699998 4294967295
0.12061165 -0.045983508 0.68599999 4294967295
0.12188657 -0.04598612 0.68599999 4294967295
0.12352052 -0.046122853 0.68800002 4294967295
0.12516181 -0.046259627 0.69 4294967295
0.12717701 -0.046530552 0.69400001 4294967295
0.12846655 -0.046533339 0.69400001 4294967295
0.13012998 -0.046670265 0.69599998 4294967295
0.13142312 -0.046673127 0.69599998 4294967295
0.13290687 -0.046743091 0.69700003 4294967295
0.13477935 -0.04694723 0.69999999 4294967295
0.13607973 -0.04695021 0.69999999 4294967295
0.13738003 -0.046953235 0.69999999 4294967295
0.015223653 -0.046558525 0.71600002 4294833395
0.016512955 -0.046428349 0.71399999 4294967289
0.017769752 -0.046233173 0.71100003 4294967295
0.019095888 -0.046233129 0.71100003 4294967295
0.020393245 -0.046168067 0.70999998 4294967295
0.021595061 -0.045907982 0.70599997 4294967295
0.02291172 -0.045908019 0.70599997 4294967295
0.024228329 -0.045908101 0.70599997 4294967295
0.025436338 -0.04571313 0.70300001 4294967295
0.026747255 -0.045713279 0.70300001 4294967295
0.027938377 -0.045518372 0.69999999 4294967295
0.029160041 -0.045388535 0.69800001 4294967295
0.030417835 -0.045323752 0.69700003 4294967295
0.031671852 -0.045258999 0.69599998 4294967295
0.032874722 -0.045129251 0.69400001 4294967295
0.034168545 -0.045129597 0.69400001 4294967295
0.035462324 -0.045129962 0.69400001 4294967295
0.03670308 -0.045065347 0.69300002 4294967295
0.037885226 -0.044935718 0.69099998 4294967295
0.039173257 -0.044936191 0.69099998 4294967295
0.040461231 -0.044936694 0.69099998 4294967295
0.041688733 -0.044872198 0.69 4294967295
0.04297474 -0.044872772 0.69 4294967295
0.0441324 -0.044743307 0.68800002 4294967295
0.045282546 -0.044613868 0.68599999 4294967295
0.04642519 -0.044484463 0.68400002 4294967295
0.047630064 -0.044420123 0.68300003 4294967295
0.048902754 -0.044420846 0.68300003 4294967295
0.050248858 -0.044486646 0.68400002 4294967295
0.051523294 -0.044487439 0.68400002 4294967295
0.052797697 -0.044488262 0.68400002 4294967295
0.054072037 -0.044489119 0.68400002 4294967295
0.055346314 -0.044490017 0.68400002 4294967295
0.056537773 -0.044425894 0.68300003 4294967295
0.057810076 -0.044426855 0.68300003 4294967295
0.059082329 -0.044427838 0.68300003 4294967295
0.060354527 -0.044428859 0.68300003 4294967295
0.061536439 -0.044364858 0.68199998 4294967295
0.062806666 -0.044365954 0.68199998 4294967295
0.063888922 -0.044236958 0.68000001 4294967295
0.06515532 -0.044238109 0.68000001 4294967295
0.066323966 -0.044174232 0.67900002 4294967295
0.067588374 -0.044175446 0.67900002 4294967295
0.06885273 -0.04417669 0.67900002 4294967295
0.070117027 -0.044177972 0.67900002 4294967295
0.071381271 -0.044179276 0.67900002 4294967295
0.072645448 -0.04418062 0.67900002 4294967295
0.073909581 -0.044181999 0.67900002 4294967295
0.075062923 -0.044118334 0.67799997 4294967295
0.076325066 -0.044119775 0.67799997 4294967295
0.077701598 -0.044186328 0.67900002 4294967295
0.0789655 -0.044187829 0.67900002 4294967295
0.080229327 -0.044189375 0.67900002 4294967295
0.081493109 -0.044190947 0.67900002 4294967295
0.082756817 -0.044192556 0.67900002 4294967295
0.084020473 -0.044194195 0.67900002 4294967295
0.085284069 -0.044195868 0.67900002 4294967295
0.086547613 -0.044197571 0.67900002 4294967295
0.087681763 -0.044134211 0.67799997 4294967295
0.088943332 -0.044135984 0.67799997 4294967295
0.10627031 -0.044552833 0.68400002 4294967295
0.10754216 -0.044555083 0.68400002 4294967295
0.10881397 -0.044557378 0.68400002 4294967295
0.11008572 -0.044559702 0.68400002 4294967295
0.11135739 -0.044562057 0.68400002 4294967295
0.112629 -0.044564445 0.68400002 4294967295
0.11423361 -0.044697184 0.68599999 4294967295
0.11550884 -0.04469965 0.68599999 4294967295
0.11695421 -0.044767313 0.68699998 4294967295
0.11840325 -0.044835016 0.68800002 4294967295
0.11968199 -0.044837594 0.68800002 4294967295
0.12096068 -0.044840209 0.68800002 4294967295
0.12223929 -0.04484285 0.68800002 4294967295
0.12387691 -0.044975895 0.69 4294967295
0.12515911 -0.044978607 0.69 4294967295
0.126991 -0.045176946 0.69300002 4294967295
0.12846375 -0.04524494 0.69400001 4294967295
0.13012713 -0.045378178 0.69599998 4294967295
0.13142024 -0.045381062 0.69599998 4294967295
0.13290395 -0.045449197 0.69700003 4294967295
0.1347764 -0.045647781 0.69999999 4294967293
0.13607673 -0.045650784 0.69999999 4294967295
0.13737701 -0.045653831 0.69999999 4294967295
0.015245047 -0.045290817 0.71700001 4294438121
0.016513055 -0.04510121 0.71399999 4294967033
0.017819803 -0.045037962 0.713 4294967295
0.01909592 -0.044911593 0.71100003 4294967295
0.020421967 -0.044911582 0.71100003 4294967295
0.021717379 -0.044848442 0.70999998 4294967295
0.022976555 -0.044722173 0.708 4294967295
0.024228226 -0.044595927 0.70599997 4294967295
0.025472386 -0.044469725 0.704 4294967295
0.026747083 -0.044406716 0.70300001 4294967295
0.027938178 -0.044217404 0.69999999 4294967295
0.02915981 -0.044091299 0.69800001 4294967295
0.030461214 -0.04409156 0.69800001 4294967295
0.031671554 -0.043965511 0.69599998 4294967295
0.032874394 -0.043839499 0.69400001 4294967295
0.034168184 -0.043839857 0.69400001 4294967295
0.035461925 -0.043840248 0.69400001 4294967295
0.036702652 -0.043777503 0.69300002 4294967295
0.037884768 -0.043651614 0.69099998 4294967295
0.039172765 -0.043652102 0.69099998 4294967295
0.040460706 -0.04365262 0.69099998 4294967295
0.041688174 -0.043590009 0.69 4294967295
0.042974148 -0.04359059 0.69 4294967295
0.044131774 -0.043464858 0.68800002 4294967295
0.045347899 -0.043402333 0.68699998 4294967295
0.046424501 -0.043213483 0.68400002 4294967295
0.047629353 -0.043151021 0.68300003 4294967295
0.048902005 -0.043151759 0.68300003 4294967295
0.050248072 -0.043215718 0.68400002 4294967295
0.051673137 -0.043342896 0.68599999 4294967295
0.052796848 -0.043217372 0.68400002 4294967295
0.054071158 -0.043218255 0.68400002 4294967295
0.055345405 -0.04321916 0.68400002 4294967295
0.056536827 -0.043156918 0.68300003 4294967295
0.05772445 -0.043094702 0.68199998 4294967295
0.058994815 -0.043095712 0.68199998 4294967295
0.060353488 -0.043159939 0.68300003 4294967295
0.061535362 -0.043097824 0.68199998 4294967295
0.062621385 -0.042972539 0.68000001 4294967295
0.06388779 -0.042973667 0.68000001 4294967295
0.065154143 -0.042974837 0.68000001 4294967295
0.066322759 -0.042912833 0.67900002 4294967295
0.067587145 -0.042914063 0.67900002 4294967295
0.068851471 -0.042915333 0.67900002 4294967295
0.070115723 -0.042916629 0.67900002 4294967295
0.071379937 -0.042917956 0.67900002 4294967295
0.072644085 -0.042919319 0.67900002 4294967295
0.073908173 -0.042920712 0.67900002 4294967295
0.0750615 -0.042858921 0.67799997 4294967295
0.076323614 -0.042860385 0.67799997 4294967295
0.077700108 -0.042925101 0.67900002 4294967295
0.078963973 -0.042926624 0.67900002 4294967295
0.08022777 -0.042928189 0.67900002 4294967295
0.081491515 -0.042929776 0.67900002 4294967295
0.082755193 -0.0429314 0.67900002 4294967295
0.084018819 -0.042933065 0.67900002 4294967295
0.085282378 -0.04293476 0.67900002 4294967295
0.086545892 -0.042936482 0.67900002 4294967295
0.087680005 -0.042874999 0.67799997 4294967295
0.088941544 -0.042876787 0.67799997 4294967295
0.10438215 -0.043027416 0.68000001 4294967295
0.10564661 -0.04302964 0.68000001 4294967295
0.10738267 -0.043221761 0.68300003 4294967295
0.1086526 -0.043224063 0.68300003 4294967295
0.11008339 -0.043289695 0.68400002 4294967295
0.11135502 -0.043292072 0.68400002 4294967295
0.11295593 -0.043421075 0.68599999 4294967295
0.11423118 -0.043423522 0.68599999 4294967295
0.11550634 -0.043426018 0.68599999 4294967295
0.11712194 -0.043555152 0.68800002 4294967295
0.11874488 -0.043684334 0.69 4294967295
0.1200273 -0.043686941 0.69 4294967295
0.12130967 -0.043689579 0.69 4294967295
0.12259198 -0.043692254 0.69 4294967295
0.1238742 -0.043694962 0.69 4294967295
0.12515637 -0.043697707 0.69 4294967295
0.12698822 -0.043890487 0.69300002 4294967295
0.12846093 -0.043956641 0.69400001 4294967295
0.13012427 -0.044086196 0.69599998 4294967290
0.13141733 -0.044089098 0.69599998 4294967294
0.13309167 -0.044218741 0.69800001 4294967295
0.13477342 -0.044348441 0.69999999 4294967295
0.13607372 -0.04435147 0.69999999 4294967295
0.13737395 -0.044354532 0.69999999 4294967295
0.012675501 -0.044326324 0.72299999 4293319390
0.014004748 -0.044264857 0.722 4293254360
0.015245168 -0.043958183 0.71700001 4294175462
0.016559394 -0.043896783 0.71600002 4294965744
0.017844846 -0.043774106 0.71399999 4294967291
0.019176507 -0.04377408 0.71399999 4294967295
0.02042195 -0.043590166 0.71100003 4294967295
0.021717327 -0.0435289 0.70999998 4294967295
0.022976475 -0.04340636 0.708 4294967295
0.024228107 -0.04328385 0.70599997 4294967295
0.025472233 -0.043161381 0.704 4294967295
0.026746897 -0.043100249 0.70300001 4294967295
0.027977871 -0.04297784 0.70099998 4294967295
0.029243112 -0.042916778 0.69999999 4294967295
0.030460931 -0.042794432 0.69800001 4294967295
0.031716745 -0.042733435 0.69700003 4294967295
0.032968778 -0.042672463 0.69599998 4294967295
0.0341678 -0.042550214 0.69400001 4294967295
0.035461511 -0.042550623 0.69400001 4294967295
0.036702204 -0.042489756 0.69300002 4294967295
0.037884291 -0.0423676 0.69099998 4294967295
0.039172255 -0.042368099 0.69099998 4294967295
0.040401608 -0.042307332 0.69 4294967295
0.041687597 -0.042307898 0.69 4294967295
