# .PCD v0.7 - Point Cloud Data file format
VERSION 0.7
FIELDS x y z rgba
SIZE 4 4 4 4
TYPE F F F U
COUNT 1 1 1 1
WIDTH 1009
HEIGHT 1
VIEWPOINT 0 0 0 1 0 0 0
POINTS 1009
DATA ascii
0.027436988 -0.012224952 0.65700001 4294967295
0.028661178 -0.012225579 0.65700001 4294967295
0.029885318 -0.012226238 0.65700001 4294967295
0.031014703 -0.01218971 0.65499997 4294967295
-0.0019779606 -0.011118171 0.66399997 4294967295
-0.00073967426 -0.011118006 0.66399997 4294967295
0.0004985698 -0.011117877 0.66399997 4294967295
0.0017315402 -0.011084292 0.662 4294967295
0.0029614894 -0.011067486 0.66100001 4294967295
0.0041813212 -0.011033971 0.65899998 4294967295
0.0053936518 -0.011000489 0.65700001 4294967295
0.0066186297 -0.011000528 0.65700001 4294967295
0.0078196852 -0.010967113 0.65499997 4294967295
0.0090408474 -0.010967217 0.65499997 4294967295
0.010261963 -0.010967357 0.65499997 4294967295
0.011430445 -0.010917297 0.65200001 4294967295
0.01264588 -0.010917502 0.65200001 4294967295
0.013861273 -0.01091774 0.65200001 4294967295
0.01507662 -0.010918012 0.65200001 4294967295
0.016291924 -0.010918316 0.65200001 4294967295
0.017507179 -0.010918653 0.65200001 4294967295
0.018751107 -0.010935771 0.653 4294967295
0.019968135 -0.010936176 0.653 4294967295
0.021185119 -0.010936614 0.653 4294967295
0.022539282 -0.011004082 0.65700001 4294967295
0.023763623 -0.01100459 0.65700001 4294967295
0.024987925 -0.011005131 0.65700001 4294967295
0.026212171 -0.011005707 0.65700001 4294967295
0.027436376 -0.011006315 0.65700001 4294967295
0.028660526 -0.011006958 0.65700001 4294967295
0.029884635 -0.011007632 0.65700001 4294967295
0.031013994 -0.010974831 0.65499997 4294967295
0.032234278 -0.010975571 0.65499997 4294967295
0.033556662 -0.011009862 0.65700001 4294967295
-0.0019777874 -0.0098862881 0.66399997 4294967295
-0.00073953497 -0.0098861381 0.66399997 4294967295
0.00048966322 -0.0097073596 0.65200001 4294967295
0.0017054548 -0.0097072786 0.65200001 4294967295
0.0029212038 -0.009707232 0.65200001 4294967295
0.0041432562 -0.0097221062 0.653 4294967295
0.0053607849 -0.0097221257 0.653 4294967295
0.0065681976 -0.0097072897 0.65200001 4294967295
0.0077598989 -0.0096775983 0.64999998 4294967295
0.008971706 -0.0096777175 0.64999998 4294967295
0.010167801 -0.0096629811 0.64899999 4294967295
0.011377656 -0.0096631655 0.64899999 4294967295
0.012568073 -0.0096484944 0.648 4294967295
0.013775975 -0.0096487459 0.648 4294967295
0.015006958 -0.0096639199 0.64899999 4294967295
0.016216634 -0.0096642384 0.64899999 4294967295
0.017453117 -0.0096794814 0.64999998 4294967295
0.018664569 -0.009679867 0.64999998 4294967295
0.019875973 -0.0096802842 0.64999998 4294967295
0.021152219 -0.0097105242 0.65200001 4294967295
0.022435868 -0.0097407969 0.65399998 4294967295
0.023654589 -0.0097413193 0.65399998 4294967295
0.024911296 -0.0097567691 0.65499997 4294967295
0.026131786 -0.0097573586 0.65499997 4294967295
0.027352227 -0.0097579807 0.65499997 4294967295
0.028572621 -0.0097586373 0.65499997 4294967295
0.029792966 -0.0097593265 0.65499997 4294967295
0.030965919 -0.0097451489 0.65399998 4294967295
0.032184303 -0.0097459033 0.65399998 4294967295
0.03340264 -0.0097466931 0.65399998 4294967295
0.034620926 -0.0097475154 0.65399998 4294967295
0.035893966 -0.0097632771 0.65499997 4294967295
0.043675348 -0.009873528 0.662 4294967295
0.044908132 -0.0098746317 0.662 4294967295
0.046071172 -0.0098608518 0.66100001 4294967295
0.047301985 -0.0098620215 0.66100001 4294967295
-0.015577247 -0.0086452141 0.66299999 4294967295
-0.014340448 -0.0086447028 0.66299999 4294967295
-0.013123453 -0.0086572655 0.66399997 4294967295
-0.011884867 -0.008656824 0.66399997 4294967295
-0.0019359314 -0.0084720328 0.64999998 4294967295
-0.0007238196 -0.0084718997 0.64999998 4294967295
0.00048825078 -0.0084718 0.64999998 4294967295
0.0017002797 -0.0084717339 0.64999998 4294967295
0.0029122669 -0.0084717004 0.64999998 4294967295
0.0041242116 -0.0084717004 0.64999998 4294967295
0.0053361133 -0.0084717339 0.64999998 4294967295
0.0065278257 -0.0084457342 0.648 4294967295
0.0077359141 -0.0084458338 0.648 4294967295
0.0089301569 -0.0084329322 0.64700001 4294967295
0.010136293 -0.0084330989 0.64700001 4294967295
0.011342389 -0.0084332973 0.64700001 4294967295
0.012548438 -0.0084335301 0.64700001 4294967295
0.013754443 -0.0084337965 0.64700001 4294967295
0.014960405 -0.0084340945 0.64700001 4294967295
0.016166322 -0.008434427 0.64700001 4294967295
0.017399045 -0.0084478278 0.648 4294967295
0.018606734 -0.0084482273 0.648 4294967295
0.019875532 -0.0084747346 0.64999998 4294967295
0.02108686 -0.0084752021 0.64999998 4294967295
0.022366751 -0.0085017812 0.65200001 4294967295
0.02358171 -0.0085023167 0.65200001 4294967295
0.024834657 -0.0085159261 0.653 4294967295
0.026091279 -0.0085295709 0.65399998 4294967295
0.027309824 -0.0085302079 0.65399998 4294967295
0.028528322 -0.0085308794 0.65399998 4294967295
0.029746769 -0.0085315835 0.65399998 4294967295
0.030917827 -0.008519276 0.653 4294967295
0.032134317 -0.0085200453 0.653 4294967295
0.033350755 -0.0085208509 0.653 4294967295
0.034567147 -0.0085216882 0.653 4294967295
0.035728697 -0.0085095074 0.65200001 4294967295
0.036943126 -0.0085104108 0.65200001 4294967295
0.038216028 -0.0085244011 0.653 4294967295
0.039432224 -0.0085253725 0.653 4294967295
0.040648367 -0.0085263783 0.653 4294967295
0.042249121 -0.0086057689 0.65899998 4294967295
0.043608282 -0.0086329728 0.66100001 4294967295
0.04483917 -0.0086340923 0.66100001 4294967295
0.046070013 -0.0086352453 0.66100001 4294967295
0.047300793 -0.0086364327 0.66100001 4294967295
0.04860495 -0.0086507211 0.662 4294967295
-0.017995929 -0.0073939664 0.66100001 4294967295
-0.016712096 -0.0073710326 0.65899998 4294967295
-0.015482752 -0.0073705046 0.65899998 4294967295
-0.014296708 -0.0073923776 0.66100001 4294967295
-0.013063712 -0.0073919166 0.66100001 4294967295
-0.011884449 -0.0074250358 0.66399997 4294967295
-0.0092374496 -0.0072901053 0.65200001 4294967295
-0.0080213994 -0.007289784 0.65200001 4294967295
-0.0067845113 -0.0072671361 0.64999998 4294967295
-0.0055722697 -0.0072668823 0.64999998 4294967295
-0.0043533612 -0.0072554834 0.64899999 4294967295
-0.0031430658 -0.0072552981 0.64899999 4294967295
-0.0019328109 -0.0072551449 0.64899999 4294967295
-0.00072259712 -0.0072550252 0.64899999 4294967295
0.00048757545 -0.0072549395 0.64899999 4294967295
0.0016977065 -0.0072548869 0.64899999 4294967295
0.0029077961 -0.0072548669 0.64899999 4294967295
0.0041114981 -0.0072437031 0.648 4294967295
0.0053196386 -0.0072437502 0.648 4294967295
0.0065176622 -0.0072326525 0.64700001 4294967295
0.0077238539 -0.0072327671 0.64700001 4294967295
0.0089300014 -0.0072329133 0.64700001 4294967295
0.010136104 -0.0072330935 0.64700001 4294967295
0.011342166 -0.0072333072 0.64700001 4294967295
0.012548184 -0.0072335545 0.64700001 4294967295
0.013754155 -0.0072338348 0.64700001 4294967295
0.014960085 -0.0072341477 0.64700001 4294967295
0.016165966 -0.0072344942 0.64700001 4294967295
0.017371807 -0.0072348746 0.64700001 4294967295
0.018577598 -0.0072352872 0.64700001 4294967295
0.019813925 -0.0072469185 0.648 4294967295
0.021053931 -0.0072585824 0.64899999 4294967295
0.022297619 -0.0072702831 0.64999998 4294967295
0.023581157 -0.0072932029 0.65200001 4294967295
0.024796035 -0.0072937878 0.65200001 4294967295
0.026010869 -0.0072944053 0.65200001 4294967295
0.027225653 -0.0072950567 0.65200001 4294967295
0.028440392 -0.0072957417 0.65200001 4294967295
0.029700562 -0.0073076501 0.653 4294967295
0.030869724 -0.0072972113 0.65200001 4294967295
0.032084316 -0.0072979969 0.65200001 4294967295
0.033196714 -0.0072764265 0.64999998 4294967295
0.034407485 -0.0072772759 0.64999998 4294967295
0.035727803 -0.0073005543 0.65200001 4294967295
0.036942203 -0.0073014731 0.65200001 4294967295
0.03815655 -0.0073024267 0.65200001 4294967295
0.039431233 -0.0073146145 0.653 4294967295
0.040647343 -0.0073156375 0.653 4294967295
0.042248059 -0.0073839203 0.65899998 4294967295
0.043607179 -0.007407432 0.66100001 4294967295
0.044838041 -0.0074085686 0.66100001 4294967295
0.04606884 -0.0074097388 0.66100001 4294967295
0.047299594 -0.0074109435 0.66100001 4294967295
0.048530292 -0.0074121826 0.66100001 4294967295
0.049836211 -0.0074246698 0.662 4294967295
-0.028072091 -0.0062201112 0.66600001 4294967295
-0.026829382 -0.0062192809 0.66600001 4294967295
-0.020492585 -0.0061783167 0.662 4294967295
-0.019228475 -0.006168365 0.66100001 4294967295
-0.017995358 -0.0061677801 0.66100001 4294967295
-0.016711561 -0.0061485684 0.65899998 4294967295
-0.015482252 -0.0061480533 0.65899998 4294967295
-0.014296238 -0.0061662295 0.66100001 4294967295
-0.013063277 -0.006165782 0.66100001 4294967295
-0.011830353 -0.0061653671 0.66100001 4294967295
-0.010453179 -0.0060810456 0.65200001 4294967295
-0.0092371199 -0.0060807038 0.65200001 4294967295
-0.0079964977 -0.0060617439 0.64999998 4294967295
-0.00678425 -0.0060614711 0.64999998 4294967295
-0.0055720415 -0.0060612308 0.64999998 4294967295
-0.0043531666 -0.0060516996 0.64899999 4294967295
-0.003142904 -0.0060515269 0.64899999 4294967295
-0.0019326825 -0.0060513876 0.64899999 4294967295
-0.0007213885 -0.0060419575 0.648 4294967295
0.00048688625 -0.0060418858 0.648 4294967295
0.0016951197 -0.0060418472 0.648 4294967295
0.0028988307 -0.0060325181 0.64700001 4294967295
0.0041051158 -0.0060325456 0.64700001 4294967295
0.0053113583 -0.0060326071 0.64700001 4294967295
0.0065074852 -0.0060233786 0.64600003 4294967295
0.0077117793 -0.0060235062 0.64600003 4294967295
0.0089160297 -0.0060236673 0.64600003 4294967295
0.010120237 -0.0060238615 0.64600003 4294967295
0.011324401 -0.0060240896 0.64600003 4294967295
0.012528519 -0.0060243499 0.64600003 4294967295
0.013732595 -0.0060246447 0.64600003 4294967295
0.014936627 -0.0060249725 0.64600003 4294967295
0.016140614 -0.0060253339 0.64600003 4294967295
0.017371405 -0.0060350555 0.64700001 4294967295
0.018577164 -0.0060354839 0.64700001 4294967295
0.01978288 -0.0060359454 0.64700001 4294967295
0.020988552 -0.0060364408 0.64700001 4294967295
0.022228476 -0.0060463003 0.648 4294967295
0.023472082 -0.0060561937 0.64899999 4294967295
0.024681341 -0.0060567902 0.64899999 4294967295
0.026010228 -0.0060854219 0.65200001 4294967295
0.02722498 -0.0060860892 0.65200001 4294967295
0.028439682 -0.0060867886 0.65200001 4294967295
0.029654345 -0.0060875234 0.65200001 4294967295
0.030868953 -0.0060882918 0.65200001 4294967295
0.031935889 -0.0060610762 0.64899999 4294967295
0.033093739 -0.0060525667 0.648 4294967295
0.034300752 -0.00605343 0.648 4294967295
0.035617303 -0.006073012 0.64999998 4294967295
0.036827944 -0.0060739457 0.64999998 4294967295
0.038038533 -0.0060749124 0.64999998 4294967295
0.039369844 -0.006094608 0.65200001 4294967295
0.040584058 -0.0060956455 0.65200001 4294967295
0.041798215 -0.006096716 0.65200001 4294967295
0.043474119 -0.0061632874 0.65899998 4294967295
0.044701219 -0.0061644381 0.65899998 4294967295
0.046067655 -0.0061843344 0.66100001 4294967295
0.047298364 -0.0061855558 0.66100001 4294967295
0.048529033 -0.0061868122 0.66100001 4294967295
0.049759641 -0.0061881016 0.66100001 4294967295
0.050990202 -0.0061894259 0.66100001 4294967295
-0.029313959 -0.0049855048 0.66600001 4294967295
-0.028071251 -0.0049846526 0.66600001 4294967295
-0.026828581 -0.0049838349 0.66600001 4294967295
-0.025470693 -0.0049606054 0.66299999 4294967295
-0.024233691 -0.0049598599 0.66299999 4294967295
-0.022962043 -0.0049516694 0.662 4294967295
-0.021726981 -0.0049509932 0.662 4294967295
-0.020491956 -0.0049503515 0.662 4294967295
-0.019227883 -0.0049422672 0.66100001 4294967295
-0.01794035 -0.0049267425 0.65899998 4294967295
-0.016685681 -0.0049187313 0.65799999 4294967295
-0.01545827 -0.0049182293 0.65799999 4294967295
-0.014230898 -0.0049177613 0.65799999 4294967295
-0.012904757 -0.0048799627 0.653 4294967295
-0.011686786 -0.0048795659 0.653 4294967295
-0.010452828 -0.0048717312 0.65200001 4294967295
-0.0092368033 -0.0048714029 0.65200001 4294967295
-0.0079962155 -0.004856166 0.64999998 4294967295
-0.0067840004 -0.0048559057 0.64999998 4294967295
-0.0055718259 -0.0048556789 0.64999998 4294967295
-0.0043529849 -0.004848016 0.64899999 4294967295
-0.0031330707 -0.0048329174 0.64700001 4294967295
-0.0019266119 -0.0048327921 0.64700001 4294967295
-0.00072019378 -0.0048326999 0.64700001 4294967295
0.00048618315 -0.0048326417 0.64700001 4294967295
0.0016925188 -0.0048326165 0.64700001 4294967295
0.0028988123 -0.0048326254 0.64700001 4294967295
0.0040987199 -0.0048251981 0.64600003 4294967295
0.0053030648 -0.0048252735 0.64600003 4294967295
0.0065073678 -0.004825382 0.64600003 4294967295
0.0077116275 -0.0048255241 0.64600003 4294967295
0.0088882418 -0.0048107589 0.64399999 4294967295
0.010088687 -0.004810967 0.64399999 4294967295
0.011289091 -0.0048112082 0.64399999 4294967295
0.012489448 -0.004811483 0.64399999 4294967295
0.013689761 -0.0048117912 0.64399999 4294967295
0.014890034 -0.004812133 0.64399999 4294967295
0.016090259 -0.0048125074 0.64399999 4294967295
0.017344141 -0.0048278631 0.64600003 4294967295
0.018548002 -0.0048283054 0.64600003 4294967295
0.019751821 -0.0048287814 0.64600003 4294967295
0.020988034 -0.0048367665 0.64700001 4294967295
0.022193622 -0.0048373104 0.64700001 4294967295
0.023399165 -0.0048378874 0.64700001 4294967295
0.024604665 -0.0048384978 0.64700001 4294967295
0.025810115 -0.0048391419 0.64700001 4294967295
0.027015518 -0.0048398194 0.64700001 4294967295
0.028220873 -0.0048405305 0.64700001 4294967295
0.029426182 -0.0048412746 0.64700001 4294967295
0.030631445 -0.0048420532 0.64700001 4294967295
0.031836659 -0.0048428639 0.64700001 4294967295
0.03304182 -0.0048437086 0.64700001 4294967295
0.034299865 -0.0048520747 0.648 4294967295
0.035561591 -0.0048604771 0.64899999 4294967295
0.036826991 -0.0048689158 0.64999998 4294967295
0.03803755 -0.0048698988 0.64999998 4294967295
0.039248053 -0.0048709158 0.64999998 4294967295
0.040458508 -0.0048719659 0.64999998 4294967295
0.041668918 -0.0048730504 0.64999998 4294967295
0.043472983 -0.0049416563 0.65899998 4294967295
0.044700045 -0.0049428237 0.65899998 4294967295
0.045927063 -0.0049440255 0.65899998 4294967295
0.047154013 -0.0049452605 0.65899998 4294967295
0.048380923 -0.0049465303 0.65899998 4294967295
0.049758334 -0.0049628504 0.66100001 4294967295
0.05098886 -0.0049641924 0.66100001 4294967295
0.052219335 -0.004965568 0.66100001 4294967295
-0.029313102 -0.0037501361 0.66600001 4294967295
-0.028070431 -0.0037492961 0.66600001 4294967295
-0.026747225 -0.0037372333 0.66399997 4294967295
-0.02546994 -0.0037308375 0.66299999 4294967295
-0.024196424 -0.0037244782 0.662 4294967295
-0.022961359 -0.0037237804 0.662 4294967295
-0.021693515 -0.0037174933 0.66100001 4294967295
-0.020460388 -0.0037168649 0.66100001 4294967295
-0.019169126 -0.0037050263 0.65899998 4294967295
-0.017885363 -0.0036932258 0.65700001 4294967295
-0.016609099 -0.0036814625 0.65499997 4294967295
-0.015387317 -0.0036809759 0.65499997 4294967295
-0.01414395 -0.0036749037 0.65399998 4294967295
-0.01288459 -0.0036632491 0.65200001 4294967295
-0.01166852 -0.0036628658 0.65200001 4294967295
-0.010420428 -0.0036512818 0.64999998 4294967295
-0.009208167 -0.0036509677 0.64999998 4294967295
-0.0079959473 -0.0036506865 0.64999998 4294967295
-0.0067733293 -0.0036448236 0.64899999 4294967295
-0.0055630528 -0.0036446105 0.64899999 4294967295
-0.0043394025 -0.0036332002 0.64700001 4294967295
-0.0031280944 -0.0036274397 0.64600003 4294967295
-0.0019175777 -0.0036160978 0.64399999 4294967295
-0.00071678683 -0.0036160199 0.64399999 4294967295
0.0004854663 -0.0036272057 0.64600003 4294967295
0.0016846721 -0.0036159644 0.64399999 4294967295
0.0028853395 -0.0036159866 0.64399999 4294967295
0.004085965 -0.0036160424 0.64399999 4294967295
0.0052865488 -0.0036161311 0.64399999 4294967295
0.0064870901 -0.0036162534 0.64399999 4294967295
0.0076875887 -0.0036164098 0.64399999 4294967295
0.0088880444 -0.0036165987 0.64399999 4294967295
0.010088457 -0.0036168208 0.64399999 4294967295
0.011271298 -0.0036114606 0.64300001 4294967295
0.012469758 -0.0036117495 0.64300001 4294967295
0.013668176 -0.0036120713 0.64300001 4294967295
0.014866551 -0.0036124273 0.64300001 4294967295
0.01606488 -0.0036128159 0.64300001 4294967295
0.017290011 -0.0036188571 0.64399999 4294967295
0.018490115 -0.0036193137 0.64399999 4294967295
0.019690173 -0.0036198029 0.64399999 4294967295
0.020955063 -0.0036315697 0.64600003 4294967295
0.022158757 -0.003632128 0.64600003 4294967295
0.023362406 -0.0036327194 0.64600003 4294967295
0.024566006 -0.0036333445 0.64600003 4294967295
0.025769562 -0.0036340032 0.64600003 4294967295
0.02701482 -0.0036403215 0.64700001 4294967295
0.028220143 -0.0036410484 0.64700001 4294967295
0.029379938 -0.0036361797 0.64600003 4294967295
0.030583303 -0.003636972 0.64600003 4294967295
0.031835824 -0.0036434298 0.64700001 4294967295
0.033040959 -0.0036442904 0.64700001 4294967295
0.034246042 -0.0036451851 0.64700001 4294967295
0.035505861 -0.0036517482 0.648 4294967295
0.036826022 -0.0036639851 0.64999998 4294967295
0.037978027 -0.0036593464 0.64899999 4294967295
0.039186638 -0.0036603785 0.64899999 4294967295
0.040395197 -0.0036614437 0.64899999 4294967295
0.041667815 -0.0036681858 0.64999998 4294967295
0.042878132 -0.0036693206 0.64999998 4294967295
0.044698857 -0.0037213108 0.65899998 4294967295
0.045925844 -0.0037225294 0.65899998 4294967295
0.047152761 -0.0037237827 0.65899998 4294967295
0.04837963 -0.0037250691 0.65899998 4294967295
0.049606446 -0.0037263904 0.65899998 4294967295
0.050833218 -0.003727746 0.65899998 4294967295
0.052059941 -0.0037291355 0.65899998 4294967295
-0.030554932 -0.0025157325 0.66600001 4294967295
-0.029312257 -0.0025148699 0.66600001 4294967295
-0.028069617 -0.002514042 0.66600001 4294967295
-0.02674645 -0.0025057008 0.66399997 4294967295
-0.025469201 -0.0025011718 0.66299999 4294967295
-0.024195718 -0.0024966793 0.662 4294967295
-0.022960689 -0.0024959939 0.662 4294967295
-0.021692879 -0.0024915736 0.66100001 4294967295
-0.020459786 -0.0024909575 0.66100001 4294967295
-0.019110387 -0.0024753059 0.65700001 4294967295
-0.017830389 -0.0024672286 0.65499997 4294967295
-0.016583245 -0.0024629543 0.65399998 4294967295
-0.015339874 -0.002458716 0.653 4294967295
-0.014100272 -0.0024545128 0.65200001 4294967295
-0.012884199 -0.002454109 0.65200001 4294967295
-0.011632371 -0.0024462119 0.64999998 4294967295
-0.010420104 -0.0024458766 0.64999998 4294967295
-0.0092078783 -0.0024455751 0.64999998 4294967295
-0.0079833893 -0.0024415455 0.64899999 4294967295
-0.0067731063 -0.002441312 0.64899999 4294967295
-0.0055542924 -0.002437351 0.648 4294967295
-0.0043191276 -0.0024221404 0.64399999 4294967295
-0.0031086048 -0.0024144875 0.64200002 4294967295
-0.0019115356 -0.0024143902 0.64200002 4294967295
-0.00071450678 -0.002414326 0.64200002 4294967295
0.00048248112 -0.0024142952 0.64200002 4294967295
0.0016794279 -0.0024142975 0.64200002 4294967295
0.0028808138 -0.0024180943 0.64300001 4294967295
0.0040795417 -0.0024181637 0.64300001 4294967295
0.0052782274 -0.0024182666 0.64300001 4294967295
0.0064869439 -0.002422164 0.64399999 4294967295
0.0076874103 -0.0024223337 0.64399999 4294967295
0.0088740317 -0.0024187756 0.64300001 4294967295
0.010072545 -0.0024190121 0.64300001 4294967295
0.011271019 -0.002419282 0.64300001 4294967295
0.012469448 -0.0024195854 0.64300001 4294967295
0.013646576 -0.0024161586 0.64200002 4294967295
0.014843054 -0.0024165285 0.64200002 4294967295
0.016064469 -0.002420696 0.64300001 4294967295
0.017262721 -0.002421133 0.64300001 4294967295
0.018460928 -0.0024216035 0.64300001 4294967295
0.019659089 -0.0024221072 0.64300001 4294967295
0.020857204 -0.0024226448 0.64300001 4294967295
0.022020979 -0.0024194471 0.64200002 4294967295
0.023217136 -0.0024200501 0.64200002 4294967295
0.024451276 -0.0024244571 0.64300001 4294967295
0.02576888 -0.002436443 0.64600003 4294967295
0.026972353 -0.0024371506 0.64600003 4294967295
0.028175781 -0.0024378921 0.64600003 4294967295
0.029379157 -0.0024386668 0.64600003 4294967295
0.030582489 -0.0024394752 0.64600003 4294967295
0.031785775 -0.0024403171 0.64600003 4294967295
0.032989006 -0.0024411927 0.64600003 4294967295
0.034192197 -0.0024421022 0.64600003 4294967295
0.035504915 -0.0024506084 0.648 4294967295
0.036768384 -0.002455371 0.64899999 4294967295
0.037918493 -0.0024526007 0.648 4294967295
0.039125208 -0.0024536476 0.648 4294967295
0.040331874 -0.0024547281 0.648 4294967295
0.041538488 -0.0024558422 0.648 4294967295
0.042745054 -0.0024569898 0.648 4294967295
0.044697654 -0.0024998996 0.65899998 4294967295
0.0459246 -0.0025011355 0.65899998 4294967295
0.047151487 -0.0025024056 0.65899998 4294967295
0.04837833 -0.0025037101 0.65899998 4294967295
0.049605116 -0.0025050486 0.65899998 4294967295
0.050831847 -0.0025064216 0.65899998 4294967295
0.052058537 -0.0025078289 0.65899998 4294967295
-0.030554062 -0.0012805574 0.66600001 4294967295
-0.029311419 -0.0012797066 0.66600001 4294967295
-0.027984522 -0.0012750499 0.66399997 4294967295
-0.026705407 -0.0012723517 0.66299999 4294967295
-0.025468472 -0.0012716083 0.66299999 4294967295
-0.02415848 -0.0012670658 0.66100001 4294967295
-0.02285598 -0.0012625618 0.65899998 4294967295
-0.0215938 -0.0012600111 0.65799999 4294967295
-0.020273486 -0.0012536683 0.65499997 4294967295
-0.019022575 -0.0012511916 0.65399998 4294967295
-0.017775429 -0.0012487505 0.653 4294967295
-0.016532054 -0.001246345 0.65200001 4294967295
-0.015315937 -0.0012458857 0.65200001 4294967295
-0.014099859 -0.0012454606 0.65200001 4294967295
-0.012844298 -0.0012412501 0.64999998 4294967295
-0.011632027 -0.001240894 0.64999998 4294967295
-0.010403765 -0.001238663 0.64899999 4294967295
-0.0091934362 -0.0012383751 0.64899999 4294967295
-0.0079585463 -0.0012343054 0.64700001 4294967295
-0.0067520267 -0.0012340858 0.64700001 4294967295
-0.0055369749 -0.0012319929 0.64600003 4294967295
-0.0043055741 -0.0012242133 0.64200002 4294967295
-0.0031084977 -0.0012240958 0.64200002 4294967295
-0.0019084841 -0.001222105 0.64099997 4294967295
-0.00071335334 -0.0012220544 0.64099997 4294967295
0.00048248837 -0.0012239437 0.64200002 4294967295
0.0016794021 -0.00122396 0.64200002 4294967295
0.0028807544 -0.0012259162 0.64300001 4294967295
0.004079449 -0.0012259994 0.64300001 4294967295
0.0052781017 -0.0012261162 0.64300001 4294967295
0.0064767124 -0.0012262666 0.64300001 4294967295
0.0076752803 -0.0012264504 0.64300001 4294967295
0.0088738063 -0.0012266677 0.64300001 4294967295
0.010056623 -0.0012250105 0.64200002 4294967295
0.0112532 -0.0012252943 0.64200002 4294967295
0.012449729 -0.0012256117 0.64200002 4294967295
0.013646217 -0.0012259625 0.64200002 4294967295
0.014842662 -0.0012263468 0.64200002 4294967295
0.016039062 -0.0012267645 0.64200002 4294967295
0.017235415 -0.0012272156 0.64200002 4294967295
0.018431725 -0.0012277003 0.64200002 4294967295
0.01962799 -0.0012282183 0.64200002 4294967295
0.020824211 -0.00122877 0.64200002 4294967295
0.022020385 -0.001229355 0.64200002 4294967295
0.02321651 -0.0012299735 0.64200002 4294967295
0.024412595 -0.0012306253 0.64200002 4294967295
0.025688408 -0.0012351465 0.64399999 4294967295
0.026888117 -0.0012358676 0.64399999 4294967295
0.028087789 -0.0012366222 0.64399999 4294967295
0.029287405 -0.0012374105 0.64399999 4294967295
0.03048698 -0.0012382322 0.64399999 4294967295
0.031686507 -0.0012390877 0.64399999 4294967295
0.032885984 -0.0012399765 0.64399999 4294967295
0.034085412 -0.0012408991 0.64399999 4294967295
0.035394371 -0.0012457118 0.64600003 4294967295
0.036767386 -0.0012524941 0.64899999 4294967295
0.037917461 -0.0012515937 0.648 4294967295
0.039124142 -0.001252657 0.648 4294967295
0.040330771 -0.001253754 0.648 4294967295
0.041537352 -0.0012548849 0.648 4294967295
0.042677924 -0.0012541112 0.64700001 4294967295
0.043882541 -0.0012553077 0.64700001 4294967295
0.04508711 -0.001256538 0.64700001 4294967295
0.046363167 -0.001259746 0.648 4294967295
0.048009962 -0.001272722 0.65399998 4294967295
0.049227402 -0.0012740678 0.65399998 4294967295
0.050444789 -0.0012754478 0.65399998 4294967295
0.051741127 -0.0012788143 0.65499997 4294967295
-0.027941592 -4.3644464e-05 0.66299999 4294967295
-0.026704658 -4.2878568e-05 0.66299999 4294967295
-0.025390932 -4.2020172e-05 0.66100001 4294967295
-0.024084706 -4.1200623e-05 0.65899998 4294967295
-0.022785973 -4.0419603e-05 0.65700001 4294967295
-0.021494744 -3.9676808e-05 0.65499997 4294967295
-0.020211013 -3.8971913e-05 0.653 4294967295
-0.018963866 -3.8363454e-05 0.65200001 4294967295
-0.017747708 -3.7848742e-05 0.65200001 4294967295
-0.016480876 -3.7253471e-05 0.64999998 4294967295
-0.015268522 -3.6808262e-05 0.64999998 4294967295
-0.014056209 -3.6397021e-05 0.64999998 4294967295
-0.012824173 -3.5964324e-05 0.64899999 4294967295
-0.011613802 -3.5621539e-05 0.64899999 4294967295
-0.010387438 -3.5258254e-05 0.648 4294967295
-0.0091790082 -3.498371e-05 0.648 4294967295
-0.0079583172 -3.4689416e-05 0.64700001 4294967295
-0.0067413962 -3.4429613e-05 0.64600003 4294967295
-0.0055025299 -3.4045068e-05 0.64200002 4294967295
-0.0042987405 -3.3854427e-05 0.64099997 4294967295
-0.0031035622 -3.3750322e-05 0.64099997 4294967295
-0.001908424 -3.3679706e-05 0.64099997 4294967295
-0.00071332644 -3.3642584e-05 0.64099997 4294967295
0.00048173053 -3.3638953e-05 0.64099997 4294967295
0.0016767464 -3.3668817e-05 0.64099997 4294967295
0.0028762014 -3.37848e-05 0.64200002 4294967295
0.0040729987 -3.3881803e-05 0.64200002 4294967295
0.0052697537 -3.4012352e-05 0.64200002 4294967295
0.0064664669 -3.4176446e-05 0.64200002 4294967295
0.0076631373 -3.4374083e-05 0.64200002 4294967295
0.0088459654 -3.4551362e-05 0.64099997 4294967295
0.010040686 -3.4815675e-05 0.64099997 4294967295
0.011235364 -3.5113484e-05 0.64099997 4294967295
0.012429998 -3.5444791e-05 0.64099997 4294967295
0.013624588 -3.5809586e-05 0.64099997 4294967295
0.014819136 -3.6207875e-05 0.64099997 4294967295
0.016038623 -3.6696823e-05 0.64200002 4294967295
0.017234944 -3.7162827e-05 0.64200002 4294967295
0.018402509 -3.7603706e-05 0.64099997 4294967295
0.019596877 -3.8135968e-05 0.64099997 4294967295
0.020823639 -3.8762108e-05 0.64200002 4294967295
0.022019777 -3.936229e-05 0.64200002 4294967295
0.023215873 -3.9996023e-05 0.64200002 4294967295
0.024373896 -4.0599956e-05 0.64099997 4294967295
0.025568034 -4.1299685e-05 0.64099997 4294967295
0.026803877 -4.2098487e-05 0.64200002 4294967295
0.027999787 -4.2866399e-05 0.64200002 4294967295
0.029241124 -4.3735872e-05 0.64300001 4294967295
0.030438803 -4.4572178e-05 0.64300001 4294967295
0.031636428 -4.5442084e-05 0.64300001 4294967295
0.032885075 -4.6417659e-05 0.64399999 4294967295
0.034084469 -4.7356214e-05 0.64399999 4294967295
0.035393391 -4.8478505e-05 0.64600003 4294967295
0.036709718 -4.9640701e-05 0.648 4294967295
0.037857901 -5.060844e-05 0.64700001 4294967295
0.039062686 -5.1686598e-05 0.64700001 4294967295
0.040267419 -5.2798561e-05 0.64700001 4294967295
0.041472111 -5.3944328e-05 0.64700001 4294967295
0.042676739 -5.5123906e-05 0.64700001 4294967295
0.043881327 -5.6337285e-05 0.64700001 4294967295
0.045085862 -5.7584479e-05 0.64700001 4294967295
0.046361893 -5.8956455e-05 0.648 4294967295
0.04756818 -6.0273294e-05 0.648 4294967295
0.049075499 -6.2004379e-05 0.65200001 4294967295
0.050366268 -6.3494721e-05 0.653 4294967295
0.051581714 -6.4924076e-05 0.653 4294967295
0.052877959 -6.6489214e-05 0.65399998 4294967295
-0.027940823 0.001185738 0.66299999 4294967295
-0.026623365 0.0011829127 0.66100001 4294967295
-0.025390232 0.0011836297 0.66100001 4294967295
-0.023937851 0.0011735617 0.65499997 4294967295
-0.022715984 0.0011742037 0.65499997 4294967295
-0.021461334 0.0011730175 0.65399998 4294967295
-0.020210454 0.0011717954 0.653 4294967295
-0.018905174 0.0011669467 0.64999998 4294967295
-0.017692778 0.0011674474 0.64999998 4294967295
-0.016480422 0.0011679141 0.64999998 4294967295
-0.015268104 0.0011683468 0.64999998 4294967295
-0.0140342 0.0011669473 0.64899999 4294967295
-0.012804063 0.0011655127 0.648 4294967295
-0.011595589 0.0011658422 0.648 4294967295
-0.010371125 0.0011643381 0.64700001 4294967295
-0.0091645932 0.0011645992 0.64700001 4294967295
-0.0079458021 0.001163026 0.64600003 4294967295
-0.0066994736 0.0011560166 0.64200002 4294967295
-0.0055023828 0.0011561748 0.64200002 4294967295
-0.0042986269 0.0011544982 0.64099997 4294967295
-0.0031034818 0.001154589 0.64099997 4294967295
-0.0019054 0.0011528449 0.63999999 4294967295
-0.00071220001 0.0011528685 0.63999999 4294967295
0.00048171068 0.0011546599 0.64099997 4294967295
0.0016766933 0.0011546165 0.64099997 4294967295
0.0028716347 0.0011545393 0.64099997 4294967295
0.0040665343 0.0011544287 0.64099997 4294967295
0.0052613919 0.0011542843 0.64099997 4294967295
0.0064562075 0.0011541065 0.64099997 4294967295
0.0076509812 0.0011538952 0.64099997 4294967295
0.0088319117 0.0011518504 0.63999999 4294967295
0.010024735 0.0011515721 0.63999999 4294967295
0.011217518 0.0011512606 0.63999999 4294967295
0.012429645 0.0011527136 0.64099997 4294967295
0.013624202 0.0011523343 0.64099997 4294967295
0.014818717 0.0011519215 0.64099997 4294967295
0.016013185 0.0011514749 0.64099997 4294967295
0.017207609 0.0011509947 0.64099997 4294967295
0.018401988 0.0011504812 0.64099997 4294967295
0.019596322 0.0011499338 0.64099997 4294967295
0.020823048 0.0011511463 0.64200002 4294967295
0.022019161 0.001150531 0.64200002 4294967295
0.023215218 0.0011498819 0.64200002 4294967295
0.024373207 0.0011474091 0.64099997 4294967295
0.025567316 0.0011466941 0.64099997 4294967295
0.026761372 0.0011459452 0.64099997 4294967295
0.027955387 0.0011451631 0.64099997 4294967295
0.029149348 0.0011443471 0.64099997 4294967295
0.030343268 0.0011434975 0.64099997 4294967295
0.031586342 0.0011443973 0.64200002 4294967295
0.032782026 0.0011434793 0.64200002 4294967295
0.034030586 0.0011443072 0.64300001 4294967295
0.035228033 0.0011433202 0.64300001 4294967295
0.036595389 0.0011476293 0.64600003 4294967295
0.037798326 0.0011465703 0.64600003 4294967295
0.039001215 0.0011454773 0.64600003 4294967295
0.040204052 0.0011443505 0.64600003 4294967295
0.041470945 0.0011449594 0.64700001 4294967295
0.04267554 0.0011437631 0.64700001 4294967295
0.043880094 0.0011425328 0.64700001 4294967295
0.045084599 0.0011412686 0.64700001 4294967295
0.04636059 0.0011417327 0.648 4294967295
0.04756685 0.0011403988 0.648 4294967295
0.048923582 0.0011425463 0.64999998 4294967295
0.050287724 0.0011446513 0.65200001 4294967295
0.051501274 0.0011432067 0.65200001 4294967295
0.052714776 0.001141728 0.65200001 4294967295
-0.02908895 0.0024069578 0.66100001 4294967295
-0.027855778 0.0024077322 0.66100001 4294967295
-0.026461536 0.0023938972 0.65700001 4294967295
-0.025159074 0.002387308 0.65499997 4294967295
-0.02390066 0.0023843264 0.65399998 4294967295
-0.022680689 0.0023849551 0.65399998 4294967295
-0.021460755 0.0023855497 0.65399998 4294967295
-0.020178962 0.0023788128 0.65200001 4294967295
-0.018875582 0.0023683889 0.64899999 4294967295
-0.017665086 0.0023688765 0.64899999 4294967295
-0.016429275 0.0023656795 0.648 4294967295
-0.015220719 0.0023660981 0.648 4294967295
-0.013990579 0.0023628308 0.64700001 4294967295
-0.012783967 0.0023631807 0.64700001 4294967295
-0.011577392 0.0023634972 0.64700001 4294967295
-0.010354826 0.0023601258 0.64600003 4294967295
-0.0091501931 0.0023603737 0.64600003 4294967295
-0.0078841001 0.0023423163 0.64099997 4294967295
-0.0066784346 0.0023388406 0.63999999 4294967295
-0.0054851072 0.0023389852 0.63999999 4294967295
-0.0042918208 0.0023390963 0.63999999 4294967295
-0.0030985735 0.0023391736 0.63999999 4294967295
-0.0019053664 0.0023392173 0.63999999 4294967295
-0.00071219995 0.0023392276 0.63999999 4294967295
0.00048092593 0.0023392043 0.63999999 4294967295
0.0016740109 0.002339147 0.63999999 4294967295
0.0028715343 0.0023427112 0.64099997 4294967295
0.0040600565 0.0023389321 0.63999999 4294967295
0.0052530169 0.002338774 0.63999999 4294967295
0.0064257919 0.0023312748 0.63800001 4294967295
0.0076149409 0.0023310503 0.63800001 4294967295
0.0088040465 0.0023307921 0.63800001 4294967295
0.0099931089 0.0023305009 0.63800001 4294967295
0.011182129 0.0023301758 0.63800001 4294967295
0.012429278 0.0023407722 0.64099997 4294967295
0.013602547 0.0023367272 0.63999999 4294967295
0.014795165 0.0023363004 0.63999999 4294967295
0.016012717 0.0023394898 0.64099997 4294967295
0.017207108 0.0023389948 0.64099997 4294967295
0.018401455 0.0023384665 0.64099997 4294967295
0.019595757 0.0023379042 0.64099997 4294967295
0.020790011 0.0023373084 0.64099997 4294967295
0.021984223 0.0023366788 0.64099997 4294967295
0.023178384 0.0023360155 0.64099997 4294967295
0.024372507 0.0023353186 0.64099997 4294967295
0.025566578 0.0023345882 0.64099997 4294967295
0.026760602 0.0023338236 0.64099997 4294967295
0.027954584 0.0023330261 0.64099997 4294967295
0.029148515 0.0023321945 0.64099997 4294967295
0.030342396 0.002331329 0.64099997 4294967295
0.03158544 0.002334066 0.64200002 4294967295
0.032781087 0.0023331319 0.64200002 4294967295
0.033976693 0.0023321644 0.64200002 4294967295
0.035172243 0.002331163 0.64200002 4294967295
0.036594346 0.0023446456 0.64600003 4294967295
0.037680227 0.0023363144 0.64399999 4294967295
0.038879357 0.0023352082 0.64399999 4294967295
0.040078443 0.0023340688 0.64399999 4294967295
0.041405663 0.0023401398 0.64600003 4294967295
0.042608369 0.0023389289 0.64600003 4294967295
0.043811031 0.0023376837 0.64600003 4294967295
0.045083318 0.0023400213 0.64700001 4294967295
0.04628773 0.0023387063 0.64700001 4294967295
0.047492094 0.0023373575 0.64700001 4294967295
0.048846934 0.0023431953 0.64899999 4294967295
0.05013204 0.0023453822 0.64999998 4294967295
0.051499818 0.0023511366 0.65200001 4294967295
0.052713271 0.0023496405 0.65200001 4294967295
0.053926688 0.0023481098 0.65200001 4294967295
-0.029000156 0.0036214469 0.65899998 4294967295
-0.027770746 0.0036222073 0.65899998 4294967295
-0.02646083 0.0036119372 0.65700001 4294967295
-0.025081582 0.0035906313 0.653 4294967295
-0.023753842 0.0035747823 0.64999998 4294967295
-0.022541368 0.0035753949 0.64999998 4294967295
-0.021296121 0.0035704724 0.64899999 4294967295
-0.020085584 0.0035710158 0.64899999 4294967295
-0.018846003 0.0035660223 0.648 4294967295
-0.017637406 0.0035664968 0.648 4294967295
-0.016403494 0.0035614325 0.64700001 4294967295
-0.015173351 0.0035563332 0.64600003 4294967295
-0.013925351 0.0035456922 0.64399999 4294967295
-0.012724366 0.0035460277 0.64399999 4294967295
-0.011523419 0.0035463299 0.64399999 4294967295
-0.010306482 0.0035410908 0.64300001 4294967295
-0.0090933135 0.0035358171 0.64200002 4294967295
-0.0078839129 0.0035305088 0.64099997 4294967295
-0.0066782809 0.0035251665 0.63999999 4294967295
-0.0054849875 0.0035252979 0.63999999 4294967295
-0.0042917337 0.0035253956 0.63999999 4294967295
-0.0030888373 0.0035144431 0.63800001 4294967295
-0.0018993923 0.0035144733 0.63800001 4294967295
-0.00070998765 0.0035144701 0.63800001 4294967295
0.00047937641 0.0035144333 0.63800001 4294967295
0.0016739306 0.0035253791 0.63999999 4294967295
0.0028669408 0.0035252748 0.63999999 4294967295
0.0040472224 0.0035141208 0.63800001 4294967295
0.0052364217 0.0035139492 0.63800001 4294967295
0.0064155073 0.0035082372 0.63700002 4294967295
0.0076027587 0.0035079992 0.63700002 4294967295
0.0088037662 0.0035132342 0.63800001 4294967295
0.009992796 0.0035129285 0.63800001 4294967295
0.011181782 0.0035125893 0.63800001 4294967295
0.012370728 0.0035122167 0.63800001 4294967295
0.013602133 0.0035228187 0.63999999 4294967295
0.014794717 0.003522377 0.63999999 4294967295
0.015937295 0.0035108963 0.63800001 4294967295
0.017126063 0.0035103883 0.63800001 4294967295
0.018314786 0.0035098477 0.63800001 4294967295
0.019503465 0.0035092731 0.63800001 4294967295
0.020756964 0.0035196641 0.63999999 4294967295
0.021949276 0.0035190203 0.63999999 4294967295
0.023141546 0.003518343 0.63999999 4294967295
0.024371788 0.0035231281 0.64099997 4294967295
0.025446178 0.003505897 0.63800001 4294967295
0.026592832 0.0034996271 0.63700002 4294967295
0.027735719 0.0034933258 0.63599998 4294967295
0.028920302 0.0034924853 0.63599998 4294967295
0.03010484 0.003491611 0.63599998 4294967295
0.031584516 0.003523635 0.64200002 4294967295
0.032780133 0.0035226846 0.64200002 4294967295
0.033975706 0.0035217011 0.64200002 4294967295
0.035171222 0.0035206834 0.64200002 4294967295
0.036366701 0.0035196322 0.64200002 4294967295
0.037679136 0.0035295079 0.64399999 4294967295
0.038878236 0.0035283857 0.64399999 4294967295
0.040077284 0.0035272294 0.64399999 4294967295
0.041148096 0.0035150885 0.64200002 4294967295
0.042343322 0.0035138684 0.64200002 4294967295
0.043606315 0.0035180855 0.64300001 4294967295
0.045082022 0.0035386733 0.64700001 4294967295
0.046286393 0.0035373415 0.64700001 4294967295
0.047490727 0.0035359752 0.64700001 4294967295
0.048770271 0.0035400379 0.648 4294967295
0.050053474 0.0035440619 0.64899999 4294967295
0.05126138 0.0035425895 0.64899999 4294967295
0.05255007 0.0035465385 0.64999998 4294967295
0.053759724 0.0035449956 0.64999998 4294967295
0.055138458 0.0035543207 0.65200001 4294967295
-0.028823368 0.0048137195 0.65499997 4294967295
-0.027559318 0.0048071127 0.65399998 4294967295
-0.026299033 0.0048004691 0.653 4294967295
-0.025080927 0.004801142 0.653 4294967295
-0.023716681 0.004772366 0.64899999 4294967295
-0.022506107 0.0047729658 0.64899999 4294967295
-0.021262756 0.0047661769 0.648 4294967295
-0.020054119 0.0047667073 0.648 4294967295
-0.018816436 0.0047598463 0.64700001 4294967295
-0.01760974 0.0047603077 0.64700001 4294967295
-0.016327022 0.0047386605 0.64399999 4294967295
-0.015102508 0.0047316933 0.64300001 4294967295
-0.013903383 0.00473205 0.64300001 4294967295
-0.012704298 0.0047323732 0.64300001 4294967295
-0.011505249 0.0047326614 0.64300001 4294967295
-0.010306239 0.0047329166 0.64300001 4294967295
-0.0090789404 0.004718415 0.64099997 4294967295
-0.0078468407 0.0046965177 0.63800001 4294967295
-0.0066572712 0.0046966695 0.63800001 4294967295
-0.0054677394 0.0046967873 0.63800001 4294967295
-0.0042782486 0.0046968716 0.63800001 4294967295
-0.0030839555 0.0046895607 0.63700002 4294967295
-0.0018964086 0.0046895775 0.63700002 4294967295
-0.00070890144 0.0046895612 0.63700002 4294967295
0.00047856505 0.0046895104 0.63700002 4294967295
0.0016659908 0.0046894271 0.63700002 4294967295
0.0028533759 0.0046893093 0.63700002 4294967295
0.0040407185 0.0046891584 0.63700002 4294967295
0.005219812 0.0046816119 0.63599998 4294967295
0.0064052092 0.004681394 0.63599998 4294967295
0.0076024975 0.0046885023 0.63700002 4294967295
0.0087896734 0.0046882168 0.63700002 4294967295
0.0099768052 0.0046878974 0.63700002 4294967295
0.011163897 0.0046875444 0.63700002 4294967295
0.012350943 0.0046871575 0.63700002 4294967295
0.013601704 0.0047088098 0.63999999 4294967295
0.014794254 0.0047083539 0.63999999 4294967295
0.015911819 0.0046857959 0.63700002 4294967295
0.017098693 0.0046852748 0.63700002 4294967295
0.018285519 0.0046847197 0.63700002 4294967295
0.019472301 0.0046841311 0.63700002 4294967295
0.020691471 0.0046908618 0.63800001 4294967295
0.021880025 0.0046902052 0.63800001 4294967295
0.023068532 0.0046895146 0.63800001 4294967295
0.024104919 0.0046593938 0.634 4294967295
0.025285881 0.0046586404 0.634 4294967295
0.026466802 0.0046578543 0.634 4294967295
0.027647672 0.0046570338 0.634 4294967295
0.0288285 0.0046561803 0.634 4294967295
0.030009286 0.0046552937 0.634 4294967295
0.03123921 0.0046617147 0.63499999 4294967295
0.032728102 0.0047047976 0.64099997 4294967295
0.033921778 0.0047037988 0.64099997 4294967295
0.035115402 0.0047027674 0.64099997 4294967295
0.036308981 0.004701701 0.64099997 4294967295
0.037502509 0.0047006016 0.64099997 4294967295
0.038756359 0.0047067995 0.64200002 4294967295
0.039889414 0.0046983007 0.64099997 4294967295
0.041082799 0.0046970993 0.64099997 4294967295
0.042276122 0.0046958644 0.64099997 4294967295
0.043537226 0.0047019194 0.64200002 4294967295
0.044871669 0.0047152583 0.64399999 4294967295
0.046285044 0.0047358749 0.64700001 4294967295
0.047489341 0.0047344915 0.64700001 4294967295
0.048768844 0.00474039 0.648 4294967295
0.049974903 0.0047389362 0.648 4294967295
0.051180903 0.0047374479 0.648 4294967295
0.052467696 0.0047432343 0.64899999 4294967295
0.053758159 0.0047489819 0.64999998 4294967295
0.054967728 0.004747387 0.64999998 4294967295
0.056350097 0.0047603599 0.65200001 4294967295
0.057739854 0.004773288 0.65399998 4294967295
0.059227146 0.0047934675 0.65700001 4294967295
0.060541533 0.0047990098 0.65799999 4294967295
-0.03503919 0.0060420828 0.65700001 4294967295
-0.033813406 0.0060429918 0.65700001 4294967295
-0.032587659 0.0060438639 0.65700001 4294967295
-0.031266473 0.0060263025 0.65499997 4294967295
-0.030044528 0.0060271034 0.65499997 4294967295
-0.028822614 0.0060278703 0.65499997 4294967295
-0.027516464 0.0060101943 0.653 4294967295
-0.026298352 0.0060108895 0.653 4294967295
-0.024965057 0.005983931 0.64999998 4294967295
-0.023679532 0.0059661414 0.648 4294967295
-0.022470854 0.0059667281 0.648 4294967295
-0.021229405 0.0059580724 0.64700001 4294967295
-0.020022668 0.0059585897 0.64700001 4294967295
-0.018786887 0.0059498623 0.64600003 4294967295
-0.017527653 0.0059318882 0.64399999 4294967295
-0.016301272 0.00592309 0.64300001 4294967295
-0.015102143 0.0059234677 0.64300001 4294967295
-0.013881431 0.0059145996 0.64200002 4294967295
-0.012684244 0.0059149093 0.64200002 4294967295
-0.011487092 0.005915185 0.64200002 4294967295
-0.010273954 0.0059062117 0.64099997 4294967295
-0.0090220924 0.0058695618 0.63700002 4294967295
-0.0078343805 0.0058697346 0.63700002 4294967295
-0.0066467086 0.0058698729 0.63700002 4294967295
-0.0054590758 0.0058699776 0.63700002 4294967295
-0.0042714826 0.0058700489 0.63700002 4294967295
-0.0030839285 0.0058700866 0.63700002 4294967295
-0.0018934376 0.0058608744 0.63599998 4294967295
-0.00070782832 0.0058608446 0.63599998 4294967295
0.0004777404 0.0058607808 0.63599998 4294967295
0.0016606534 0.005851469 0.63499999 4294967295
0.0028442764 0.0058513382 0.63499999 4294967295
0.0040278584 0.0058511733 0.63499999 4294967295
0.0052113989 0.0058509749 0.63499999 4294967295
0.0063948976 0.005850744 0.63499999 4294967295
0.0075783548 0.005850479 0.63499999 4294967295
0.0087617692 0.0058501796 0.63499999 4294967295
0.0099608032 0.0058590593 0.63599998 4294967295
0.011163522 0.005867905 0.63700002 4294967295
0.012292367 0.0058398708 0.634 4294967295
0.013473746 0.0058394382 0.634 4294967295
0.014678199 0.0058481814 0.63499999 4294967295
0.015836377 0.0058384715 0.634 4294967295
0.017017623 0.0058379383 0.634 4294967295
0.018198827 0.0058373716 0.634 4294967295
0.019379988 0.0058367718 0.634 4294967295
0.020496242 0.0058177267 0.63200003 4294967295
0.021673584 0.0058170613 0.63200003 4294967295
0.023067821 0.0058715804 0.63800001 4294967295
0.024028137 0.0058156294 0.63200003 4294967295
0.025205346 0.0058148638 0.63200003 4294967295
0.026382506 0.0058140648 0.63200003 4294967295
0.027559623 0.0058132312 0.63200003 4294967295
0.028827628 0.0058307587 0.634 4294967295
0.030008376 0.0058298563 0.634 4294967295
0.031238271 0.0058381138 0.63499999 4294967295
0.032471839 0.0058463351 0.63599998 4294967295
0.033656169 0.0058453283 0.63599998 4294967295
0.03484045 0.0058442894 0.63599998 4294967295
0.036024686 0.0058432147 0.63599998 4294967295
0.037442885 0.0058788508 0.63999999 4294967295
0.038755205 0.005896071 0.64200002 4294967295
0.039888233 0.0058857026 0.64099997 4294967295
0.041017495 0.0058753048 0.63999999 4294967295
0.042208925 0.0058740554 0.63999999 4294967295
0.04353594 0.0058911247 0.64200002 4294967295
0.044870343 0.0059081512 0.64399999 4294967295
0.04621214 0.0059251357 0.64600003 4294967295
0.047414552 0.0059237373 0.64600003 4294967295
0.048767414 0.0059406408 0.648 4294967295
0.049973432 0.0059391689 0.648 4294967295
0.051179405 0.0059376638 0.648 4294967295
0.052385315 0.0059361248 0.648 4294967295
0.053673878 0.0059437091 0.64899999 4294967295
0.05488155 0.0059420983 0.64899999 4294967295
0.056089174 0.0059404541 0.64899999 4294967295
0.057385024 0.0059479256 0.64999998 4294967295
0.058864836 0.0059736534 0.653 4294967295
0.060171735 0.0059810393 0.65399998 4294967295
-0.036264058 0.0072589656 0.65700001 4294967295
-0.035038274 0.007259897 0.65700001 4294967295
-0.033709597 0.0072386907 0.65499997 4294967295
-0.032487616 0.0072395504 0.65499997 4294967295
-0.031265665 0.0072403746 0.65499997 4294967295
-0.029997887 0.0072301086 0.65399998 4294967295
-0.028777873 0.007230863 0.65399998 4294967295
-0.02751576 0.0072205244 0.653 4294967295
-0.026176868 0.0071880319 0.64999998 4294967295
-0.024849206 0.0071554994 0.64700001 4294967295
-0.023642397 0.007156108 0.64700001 4294967295
-0.022435619 0.0071566822 0.64700001 4294967295
-0.02122888 0.0071572214 0.64700001 4294967295
-0.01999123 0.0071466649 0.64600003 4294967295
-0.018728266 0.007125007 0.64399999 4294967295
-0.017527232 0.007125441 0.64399999 4294967295
-0.016300885 0.0071147769 0.64300001 4294967295
-0.015078302 0.0071040774 0.64200002 4294967295
-0.013859489 0.0070933416 0.64099997 4294967295
-0.0126642 0.0070936382 0.64099997 4294967295
-0.011415272 0.0070607006 0.63800001 4294967295
-0.010225654 0.0070609283 0.63800001 4294967295
-0.0090219108 0.0070500541 0.63700002 4294967295
-0.0078342324 0.0070502134 0.63700002 4294967295
-0.006646594 0.0070503391 0.63700002 4294967295
-0.0054589943 0.0070504309 0.63700002 4294967295
-0.0042714351 0.0070504891 0.63700002 4294967295
-0.003079073 0.0070394445 0.63599998 4294967295
-0.0018904803 0.0070283669 0.63499999 4294967295
-0.00070676859 0.0070283231 0.63499999 4294967295
0.00047690258 0.0070282463 0.63499999 4294967295
0.0016605334 0.0070281364 0.63499999 4294967295
0.0028441229 0.0070279916 0.63499999 4294967295
0.0040276712 0.0070278128 0.63499999 4294967295
0.0052111782 0.0070276014 0.63499999 4294967295
0.0063946438 0.0070273564 0.63499999 4294967295
0.007566133 0.0070160106 0.634 4294967295
0.0087476503 0.0070156981 0.634 4294967295
0.0098978039 0.0069932221 0.63200003 4294967295
0.01107551 0.0069928435 0.63200003 4294967295
0.012253172 0.0069924309 0.63200003 4294967295
0.013430791 0.0069919848 0.63200003 4294967295
0.014654595 0.0070136311 0.634 4294967295
0.015835853 0.007013116 0.634 4294967295
0.01701707 0.0070125679 0.634 4294967295
0.018198241 0.0070119863 0.634 4294967295
0.019318232 0.0069892542 0.63200003 4294967295
0.020495588 0.0069886069 0.63200003 4294967295
0.021672901 0.0069879266 0.63200003 4294967295
0.022814007 0.006976156 0.63099998 4294967295
0.023989365 0.0069754091 0.63099998 4294967295
0.025164677 0.0069746301 0.63099998 4294967295
0.02638169 0.0069848699 0.63200003 4294967295
0.02755877 0.0069840215 0.63200003 4294967295
0.028735802 0.0069831396 0.63200003 4294967295
0.029865464 0.0069711762 0.63099998 4294967295
0.031040542 0.0069702291 0.63099998 4294967295
0.032470845 0.0070244721 0.63599998 4294967295
0.033655141 0.0070234495 0.63599998 4294967295
0.034839392 0.0070223934 0.63599998 4294967295
0.036023594 0.0070213038 0.63599998 4294967295
0.037441753 0.0070643327 0.63999999 4294967295
0.038633306 0.0070631681 0.63999999 4294967295
0.039824806 0.0070619695 0.63999999 4294967295
0.041016258 0.0070607383 0.63999999 4294967295
0.042207655 0.0070594717 0.63999999 4294967295
0.04339901 0.0070581716 0.63999999 4294967295
0.045008343 0.0071229953 0.64600003 4294967295
0.046067689 0.0070995665 0.64399999 4294967295
0.047266342 0.0070981551 0.64399999 4294967295
0.048615444 0.0071187494 0.64600003 4294967295
0.049894828 0.0071282843 0.64700001 4294967295
0.051098902 0.0071267639 0.64700001 4294967295
0.052302923 0.0071252082 0.64700001 4294967295
0.053506892 0.0071236207 0.64700001 4294967295
0.054710802 0.0071219979 0.64700001 4294967295
0.056001086 0.0071313446 0.648 4294967295
0.057383325 0.0071516549 0.64999998 4294967295
0.058772948 0.0071719219 0.65200001 4294967295
0.060077954 0.0071811453 0.653 4294967295
0.061386637 0.0071903281 0.65399998 4294967295
