# .PCD v0.7 - Point Cloud Data file format
VERSION 0.7
FIELDS x y z rgba
SIZE 4 4 4 4
TYPE F F F U
COUNT 1 1 1 1
WIDTH 1027
HEIGHT 1
VIEWPOINT 0 0 0 1 0 0 0
POINTS 1027
DATA ascii
-0.049640305 -0.0059410939 0.792 4291479471
-0.048162077 -0.0059396718 0.792 4291545264
-0.046801772 -0.0059532854 0.79400003 4291611055
-0.045319892 -0.0059519401 0.79400003 4291348139
-0.043948475 -0.0059656259 0.796 4291478442
-0.04256963 -0.0059793461 0.79799998 4291938993
-0.041337803 -0.006015576 0.80299997 4291939256
-0.039839286 -0.0060143825 0.80299997 4291807414
-0.038340818 -0.0060132309 0.80299997 4291807416
-0.036934152 -0.0060270941 0.80500001 4291676087
-0.035432037 -0.0060260231 0.80500001 4291544760
-0.033929966 -0.006024993 0.80500001 4291347637
-0.032589074 -0.0060539376 0.80900002 4291151285
-0.031156458 -0.0060679498 0.81099999 4291019699
-0.029643325 -0.0060670385 0.81099999 4291346865
-0.028199609 -0.0060811285 0.81300002 4290886314
-0.026879756 -0.0061251717 0.81900001 4291082153
-0.025351832 -0.0061243777 0.81900001 4290950311
-0.13784364 -0.0047543487 0.815 4287267368
-0.13632058 -0.0047504855 0.815 4287332461
-0.13446677 -0.0047350158 0.81300002 4285819222
-0.13262042 -0.004719608 0.81099999 4286416240
-0.12981167 -0.0046693715 0.80299997 4288718995
-0.12815137 -0.0046599219 0.80199999 4289703060
-0.12665276 -0.0046563293 0.80199999 4289834646
-0.12515417 -0.0046527772 0.80199999 4290818965
-0.12334725 -0.004637674 0.80000001 4291345309
-0.12093855 -0.0045994585 0.79400003 4291675317
-0.119455 -0.0045960667 0.79400003 4291872696
-0.11767434 -0.0045811473 0.792 4292069570
-0.11619456 -0.0045778463 0.792 4292398792
-0.11471482 -0.0045745862 0.792 4292595413
-0.11323514 -0.0045713675 0.792 4292661206
-0.11147325 -0.0045566545 0.79000002 4292728788
-0.10999735 -0.0045535257 0.79000002 4292925911
-0.10852147 -0.0045504384 0.79000002 4293057236
-0.10704565 -0.004547392 0.79000002 4293057236
-0.10556982 -0.0045443866 0.79000002 4292597200
-0.10396228 -0.0045356732 0.78899997 4292531407
-0.10248839 -0.004532754 0.78899997 4292662995
-0.10075849 -0.004518393 0.787 4293057753
-0.099288397 -0.0045155627 0.787 4293189337
-0.097818352 -0.0045127734 0.787 4293255131
-0.096348323 -0.0045100241 0.787 4293320153
-0.094878331 -0.0045073167 0.787 4293254360
-0.092933618 -0.0044817547 0.78299999 4293188567
-0.091471165 -0.0044791424 0.78299999 4292793809
-0.090468556 -0.0044994387 0.787 4292728535
-0.088998698 -0.0044968948 0.787 4293123292
-0.087528862 -0.0044943914 0.787 4292859602
-0.086059064 -0.0044919285 0.787 4292793809
-0.084804259 -0.0045009158 0.78899997 4292595663
-0.083330795 -0.0044985292 0.78899997 4292595663
-0.081857368 -0.0044961832 0.78899997 4292661962
-0.080383971 -0.0044938782 0.78899997 4292530119
-0.078910597 -0.0044916142 0.78899997 4292531909
-0.077437274 -0.0044893911 0.78899997 4292531909
-0.075771429 -0.0044758348 0.787 4292268485
-0.074301906 -0.0044736993 0.787 4292005313
-0.072832406 -0.0044716042 0.787 4292398524
-0.071362942 -0.0044695502 0.787 4292530110
-0.069893524 -0.0044675367 0.787 4292070845
-0.068424143 -0.0044655642 0.787 4291676087
-0.066954792 -0.0044636326 0.787 4292071356
-0.065485477 -0.0044617425 0.787 4292268991
-0.064016201 -0.0044598919 0.787 4292137392
-0.062705912 -0.0044694128 0.78899997 4292334514
-0.061310589 -0.0044733025 0.79000002 4292530864
-0.059835814 -0.0044715684 0.79000002 4292530864
-0.058361087 -0.0044698757 0.79000002 4291872946
-0.057030413 -0.0044795354 0.792 4291741360
-0.055552032 -0.00447792 0.792 4291873200
-0.054073684 -0.0044763461 0.792 4291938993
-0.052595373 -0.0044748136 0.792 4291872946
-0.051117107 -0.0044733211 0.792 4291741360
-0.049638875 -0.0044718706 0.792 4291610544
-0.048282303 -0.0044817496 0.79400003 4291676337
-0.046800423 -0.0044803778 0.79400003 4291807403
-0.045432732 -0.004490329 0.796 4291346852
-0.043947205 -0.0044890358 0.796 4291544497
-0.042781774 -0.0045216116 0.80199999 4291939254
-0.0413366 -0.0045260279 0.80299997 4291478451
-0.039838128 -0.0045248489 0.80299997 4291346865
-0.038435198 -0.004534978 0.80500001 4291280561
-0.036933076 -0.0045338795 0.80500001 4291280561
-0.03551903 -0.0045440835 0.80699998 4290953393
-0.034013268 -0.0045430656 0.80699998 4290821806
-0.032588113 -0.0045533464 0.80900002 4290756784
-0.031155538 -0.0045636641 0.81099999 4290624941
-0.029715547 -0.0045740195 0.81300002 4291083948
-0.028406879 -0.0046069124 0.81900001 4290754983
-0.026878953 -0.0046060923 0.81900001 4290622365
-0.13631678 -0.0032381106 0.815 4291343813
-0.13479379 -0.0032342987 0.815 4287396489
-0.13327082 -0.0032305289 0.815 4286676834
-0.13174789 -0.0032268022 0.815 4288584831
-0.12712297 -0.0031799721 0.80500001 4288914578
-0.12561882 -0.0031764167 0.80500001 4290095002
-0.12365215 -0.0031610786 0.80199999 4290687395
-0.12184902 -0.0031497458 0.80000001 4291016869
-0.12035432 -0.0031463366 0.80000001 4291148455
-0.11885961 -0.0031429701 0.80000001 4291673520
-0.11736496 -0.0031396449 0.80000001 4292199864
-0.11558066 -0.00312852 0.79799998 4292595663
-0.11408976 -0.0031252864 0.79799998 4292398540
-0.11231673 -0.0031142696 0.796 4292334029
-0.11082967 -0.0031111268 0.796 4292268235
-0.10934263 -0.0031080255 0.796 4292399044
-0.10758463 -0.003097164 0.79400003 4292530373
-0.10610138 -0.0030941532 0.79400003 4292399303
-0.10435463 -0.0030833974 0.792 4292399303
-0.10287519 -0.0030804761 0.792 4292794063
-0.10113974 -0.0030698252 0.79000002 4293057236
-0.099664092 -0.0030669936 0.79000002 4292991956
-0.098064177 -0.0030603248 0.78899997 4292926163
-0.096590459 -0.0030575793 0.78899997 4292728270
-0.094875671 -0.003047131 0.787 4293057236
-0.093405753 -0.0030444744 0.787 4293254099
-0.091935866 -0.0030418588 0.787 4292990670
-0.090466 -0.0030392839 0.787 4292990670
-0.088996187 -0.0030367502 0.787 4292990670
-0.087526403 -0.0030342573 0.787 4293056720
-0.086275332 -0.00303951 0.78899997 4292661962
-0.084801883 -0.003037093 0.78899997 4292201157
-0.083328456 -0.0030347169 0.78899997 4292332999
-0.081855059 -0.0030323821 0.78899997 4293122765
-0.080381699 -0.003030088 0.78899997 4292333249
-0.078908376 -0.0030278352 0.78899997 4292333249
-0.077435084 -0.003025623 0.78899997 4292333249
-0.075769283 -0.0030157883 0.787 4292333508
-0.074299805 -0.0030136639 0.787 4291872957
-0.072830349 -0.0030115806 0.787 4291872950
-0.071360938 -0.0030095382 0.787 4291872950
-0.06989155 -0.0030075365 0.787 4291939256
-0.068422206 -0.0030055759 0.787 4291807414
-0.067123041 -0.0030112893 0.78899997 4291808440
-0.065650038 -0.0030094057 0.78899997 4291545012
-0.064177066 -0.0030075631 0.78899997 4291807407
-0.062783614 -0.0030095712 0.79000002 4291807407
-0.061619274 -0.0030230382 0.79400003 4292134573
-0.060137078 -0.003021308 0.79400003 4292200366
-0.058654919 -0.0030196186 0.79400003 4291939254
-0.057172809 -0.0030179711 0.79400003 4291544497
-0.055690732 -0.0030163645 0.79400003 4291807666
-0.054208692 -0.0030147994 0.79400003 4291939508
-0.05272669 -0.0030132753 0.79400003 4292003764
-0.051244725 -0.0030117927 0.79400003 4291675055
-0.049762804 -0.0030103514 0.79400003 4291543213
-0.048280925 -0.0030089514 0.79400003 4291937971
-0.046799086 -0.0030075926 0.79400003 4291873461
-0.045431435 -0.0030138476 0.796 4291873461
-0.044166774 -0.0030277064 0.80000001 4292005050
-0.042833887 -0.0030378113 0.80299997 4291544499
-0.041541319 -0.0030517303 0.80699998 4291411116
-0.040035427 -0.0030505592 0.80699998 4291476909
-0.038529575 -0.00304943 0.80699998 4291214250
-0.037023768 -0.0030483424 0.80699998 4291280044
-0.035518005 -0.0030472972 0.80699998 4290888365
-0.03401228 -0.003046294 0.80699998 4290756780
-0.03266773 -0.0030604268 0.81099999 4290953391
-0.031231465 -0.0030670478 0.81300002 4290756011
-0.029933978 -0.0030887921 0.81900001 4290754985
-0.12711941 -0.0016863224 0.80500001 4288586130
-0.1256153 -0.0016827757 0.80500001 4289306533
-0.12380286 -0.0016750988 0.80299997 4289701291
-0.12215024 -0.0016695631 0.80199999 4289964951
-0.12065182 -0.0016661548 0.80199999 4290359709
-0.11915343 -0.0016627887 0.80199999 4290950049
-0.11736168 -0.0016553262 0.80000001 4291673516
-0.11586709 -0.0016520519 0.80000001 4292068024
-0.11437251 -0.0016488193 0.80000001 4292331452
-0.11231359 -0.0016374002 0.796 4291675583
-0.11082654 -0.0016342668 0.796 4291412410
-0.10933957 -0.0016311749 0.796 4291872696
-0.10758162 -0.0016240339 0.79400003 4292399040
-0.10609842 -0.0016210326 0.79400003 4292398270
-0.10461523 -0.0016180727 0.79400003 4292135354
-0.10287231 -0.001611086 0.792 4291938752
-0.10139294 -0.0016082163 0.792 4292136388
-0.099661306 -0.0016013337 0.79000002 4292136134
-0.098061435 -0.00159653 0.78899997 4292136134
-0.096587755 -0.0015937944 0.78899997 4292202694
-0.094873011 -0.0015870669 0.787 4292729038
-0.093403138 -0.0015844204 0.787 4292794311
-0.091933288 -0.0015818152 0.787 4292531396
-0.090463474 -0.0015792508 0.787 4292531142
-0.088993706 -0.0015767274 0.787 4292531142
-0.087523945 -0.001574245 0.787 4292399555
-0.08627291 -0.0015757981 0.78899997 4292004798
-0.084799498 -0.0015733916 0.78899997 4291939002
-0.083326116 -0.0015710266 0.78899997 4292005052
-0.081852771 -0.0015687026 0.78899997 4292005048
-0.080379456 -0.0015664195 0.78899997 4291676339
-0.078906156 -0.0015641778 0.78899997 4291938491
-0.077432916 -0.0015619771 0.78899997 4292201663
-0.075767152 -0.0015558635 0.787 4292069309
-0.074297711 -0.0015537507 0.787 4291674551
-0.0728283 -0.0015516786 0.787 4291544249
-0.071358927 -0.0015496478 0.787 4291610042
-0.069889583 -0.0015476577 0.787 4291544499
-0.068420276 -0.0015457087 0.787 4291544499
-0.067121156 -0.001547724 0.78899997 4291545782
-0.065648198 -0.0015458525 0.78899997 4291216560
-0.064175256 -0.0015440219 0.78899997 4291282357
-0.062781841 -0.0015441874 0.79000002 4291348151
-0.061617535 -0.0015502467 0.79400003 4291478965
-0.060135379 -0.0015485288 0.79400003 4291347635
-0.058653276 -0.0015468522 0.79400003 4291479469
-0.057315208 -0.0015491092 0.796 4291348139
-0.055829439 -0.0015475116 0.796 4291544751
-0.054343697 -0.0015459552 0.796 4291676337
-0.052858006 -0.0015444404 0.796 4291609523
-0.051372357 -0.0015429672 0.796 4291280559
-0.049886744 -0.0015415354 0.796 4291149489
-0.048401173 -0.0015401451 0.796 4291346867
-0.046915639 -0.0015387962 0.796 4291610546
-0.045658443 -0.001545215 0.80000001 4291610546
-0.044551972 -0.0015574521 0.80699998 4291150254
-0.043046035 -0.001556211 0.80699998 4290887338
-0.041540138 -0.0015550116 0.80699998 4291017904
-0.040133506 -0.0015577056 0.80900002 4291017904
-0.03862397 -0.0015565878 0.80900002 4291018668
-0.037114467 -0.0015555118 0.80900002 4291281840
-0.035605013 -0.0015544784 0.80900002 4290625184
-0.034179892 -0.0015573276 0.81099999 4290427549
-0.032827914 -0.0015640522 0.815 4290689442
-0.031384226 -0.0015669743 0.81699997 4290031255
-0.029933123 -0.0015699348 0.81900001 4289768340
-0.12623595 -0.00019019948 0.80900002 4289436556
-0.12410776 -0.00018576326 0.80500001 4289897107
-0.12229913 -0.00018185659 0.80299997 4289439892
-0.12079889 -0.0001784534 0.80299997 4289439892
-0.11929869 -0.00017509221 0.80299997 4290751384
-0.1177985 -0.00017177295 0.80299997 4291277729
-0.11615352 -0.00016828581 0.80199999 4291080865
-0.11465524 -0.0001650545 0.80199999 4291673259
-0.11287483 -0.00016146144 0.80000001 4291346867
-0.11138038 -0.00015832178 0.80000001 4291346867
-0.10933651 -0.00015444783 0.796 4291610294
-0.10784959 -0.00015140705 0.796 4291939002
-0.10609545 -0.00014803502 0.79400003 4292135352
-0.10461232 -0.00014508485 0.79400003 4292003766
-0.10312923 -0.00014217618 0.79400003 4291806653
-0.10164617 -0.00013930904 0.79400003 4292267204
-0.099910818 -0.00013613957 0.792 4292070854
-0.098182976 -0.00013302561 0.79000002 4291610303
-0.096707478 -0.00013029673 0.79000002 4291544249
-0.095111459 -0.00012744758 0.78899997 4292070593
-0.093637891 -0.0001248046 0.78899997 4291940288
-0.092164345 -0.00012220285 0.78899997 4292006081
-0.090805791 -0.00011979398 0.79000002 4292202694
-0.089217365 -0.00011712303 0.78899997 4292136901
-0.087743923 -0.00011464496 0.78899997 4291742141
-0.086270504 -0.00011220811 0.78899997 4291807934
-0.084797129 -0.0001098125 0.78899997 4291808188
-0.083323784 -0.00010745812 0.78899997 4291808188
-0.081850484 -0.00010514496 0.78899997 4291808700
-0.080377206 -0.00010287302 0.78899997 4291348149
-0.078903958 -0.0001006423 0.78899997 4291609006
-0.077430755 -9.8452823e-05 0.78899997 4291937971
-0.075765036 -9.6060459e-05 0.787 4291740595
-0.07429564 -9.3958777e-05 0.787 4291674801
-0.072826274 -9.1898219e-05 0.787 4291544501
-0.071356937 -8.9878762e-05 0.787 4291676087
-0.069887631 -8.7900451e-05 0.787 4291544497
-0.068418369 -8.5963256e-05 0.787 4291544497
-0.067119285 -8.4280822e-05 0.78899997 4291612090
-0.065646358 -8.2421146e-05 0.78899997 4291085746
-0.064254805 -8.0704878e-05 0.79000002 4290954676
-0.062939018 -7.9125224e-05 0.792 4290888883
-0.061771013 -7.7773453e-05 0.796 4290888881
-0.06028517 -7.6063661e-05 0.796 4290954930
-0.058799367 -7.4395466e-05 0.796 4291217585
-0.0574576 -7.2951683e-05 0.79799998 4291217585
-0.055968143 -7.1362687e-05 0.79799998 4291478965
-0.054478712 -6.9815389e-05 0.79799998 4291281842
-0.052989326 -6.8309768e-05 0.79799998 4291083948
-0.051499985 -6.6845874e-05 0.79799998 4291083948
-0.050010681 -6.5423657e-05 0.79799998 4291148968
-0.048521422 -6.4043154e-05 0.79799998 4291346604
-0.047267951 -6.3018641e-05 0.80199999 4291282092
-0.045828372 -6.1791972e-05 0.80299997 4291150506
-0.044550724 -6.0830196e-05 0.80699998 4290624934
-0.043044832 -5.9602782e-05 0.80699998 4290756263
-0.041641921 -5.8562313e-05 0.80900002 4290164390
-0.040132385 -5.7416401e-05 0.80900002 4290559148
-0.038718369 -5.6451972e-05 0.81099999 4290756782
-0.037205178 -5.538798e-05 0.81099999 4290625195
-0.035692029 -5.4366355e-05 0.81099999 4289966750
-0.034347508 -5.3650434e-05 0.815 4290032543
-0.032907549 -5.2838295e-05 0.81699997 4290426017
-0.03146017 -5.206433e-05 0.81900001 4290097052
-0.029932285 -5.1203813e-05 0.81900001 4289176730
-0.12441264 0.0013108684 0.80699998 4290029965
-0.12260034 0.0013110643 0.80500001 4289437590
-0.12109639 0.0013144668 0.80500001 4289306003
-0.11929535 0.0013145531 0.80299997 4290226844
-0.11779522 0.0013178634 0.80299997 4290818724
-0.11615029 0.0013194859 0.80199999 4290818972
-0.11465205 0.0013227081 0.80199999 4291279523
-0.1128717 0.0013225817 0.80000001 4291082916
-0.11137726 0.0013257117 0.80000001 4291017123
-0.10988291 0.0013288002 0.80000001 4291280044
-0.10811756 0.0013285169 0.79799998 4291477422
-0.10635973 0.0013281767 0.796 4291476907
-0.1048729 0.0013311246 0.796 4291740078
-0.10312634 0.001330679 0.79400003 4291543745
-0.10164333 0.0013335361 0.79400003 4292004296
-0.10016033 0.001336352 0.79400003 4291938752
-0.098677374 0.0013391261 0.79400003 4291610044
-0.097194433 0.0013418588 0.79400003 4291544249
-0.095470443 0.0013411629 0.792 4291872957
-0.093753964 0.0013404123 0.79000002 4291676087
-0.0922786 0.0013430071 0.79000002 4291478451
-0.090803266 0.0013455604 0.79000002 4291478715
-0.089327961 0.0013480724 0.79000002 4291478715
-0.087741479 0.0013488334 0.78899997 4291676085
-0.086268112 0.0013512596 0.78899997 4291544499
-0.084794782 0.0013536445 0.78899997 4291347637
-0.083321467 0.0013559881 0.78899997 4291281844
-0.081848212 0.0013582902 0.78899997 4291478965
-0.080374971 0.0013605512 0.78899997 4291478965
-0.078901768 0.0013627708 0.78899997 4291805871
-0.077428609 0.001364949 0.78899997 4291871665
-0.075955465 0.0013670862 0.78899997 4292002731
-0.074293569 0.0013657111 0.787 4292002731
-0.072824247 0.0013677601 0.787 4291675569
-0.071354955 0.0013697683 0.787 4291675569
-0.070063293 0.0013752207 0.78899997 4291348139
-0.068590328 0.0013771511 0.78899997 4291150504
-0.067117415 0.0013790401 0.78899997 4291019440
-0.065727741 0.0013826381 0.79000002 4290887598
-0.064415686 0.0013879517 0.792 4290888111
-0.06309621 0.001393233 0.79400003 4291019953
-0.061769295 0.0013984813 0.796 4291085483
-0.060283497 0.0014001786 0.796 4290756261
-0.058945473 0.0014053563 0.79799998 4291019690
-0.057456002 0.0014069745 0.79799998 4291085483
-0.05596659 0.0014085508 0.79799998 4291084461
-0.054477204 0.001410085 0.79799998 4290623910
-0.053120669 0.0014151155 0.80000001 4290952359
-0.051627636 0.0014165699 0.80000001 4291083946
-0.05025997 0.0014215275 0.80199999 4291215006
-0.048763286 0.0014229015 0.80199999 4291215006
-0.047443449 0.0014295612 0.80500001 4291215006
-0.046055384 0.0014344109 0.80699998 4291017371
-0.044659898 0.0014392247 0.80900002 4290952096
-0.043150317 0.0014404415 0.80900002 4291412647
-0.04164077 0.0014416155 0.80900002 4290558887
-0.040230483 0.001446314 0.81099999 4290558887
-0.038717296 0.0014474062 0.81099999 4290492840
-0.0372959 0.0014520278 0.81300002 4290295460
-0.035779063 0.0014530375 0.81300002 4290097316
-0.034430847 0.0014611583 0.81699997 4289636765
-0.032987192 0.0014656665 0.81900001 4289175951
-0.031459305 0.0014665548 0.81900001 4287728504
-0.12440919 0.002807836 0.80699998 4290619565
-0.12259693 0.0028043131 0.80500001 4290027162
-0.12109305 0.0028077066 0.80500001 4289698197
-0.11929207 0.002804074 0.80299997 4290029722
-0.11779196 0.0028073746 0.80299997 4290227357
-0.11614706 0.0028071331 0.80199999 4290227353
-0.11464887 0.002810346 0.80199999 4290359196
-0.11315073 0.0028135162 0.80199999 4290424218
-0.11137419 0.0028096212 0.80000001 4290490012
-0.10987985 0.0028126996 0.80000001 4290556066
-0.10838554 0.0028157362 0.80000001 4290950824
-0.10662402 0.0028116843 0.79799998 4291016869
-0.10487 0.0028075757 0.796 4291082662
-0.10338324 0.0028104722 0.796 4290886066
-0.10189652 0.0028133267 0.796 4291149239
-0.10040985 0.0028161395 0.796 4291478204
-0.098923184 0.0028189106 0.796 4291346617
-0.097191744 0.0028145507 0.79400003 4291017391
-0.095708892 0.0028172315 0.79400003 4291477942
-0.093988709 0.0028127674 0.792 4291610042
-0.092276044 0.0028082489 0.79000002 4291346613
-0.090800747 0.0028107918 0.79000002 4291149489
-0.089325495 0.0028132936 0.79000002 4291412660
-0.08773905 0.0028121895 0.78899997 4291807164
-0.08626572 0.0028146047 0.78899997 4291412406
-0.084792435 0.0028169788 0.78899997 4291018416
-0.083319172 0.0028193116 0.78899997 4291216051
-0.081845939 0.0028216029 0.78899997 4291544501
-0.080372751 0.0028238527 0.78899997 4291412658
-0.078899585 0.0028260613 0.78899997 4291345320
-0.077426471 0.0028282285 0.78899997 4291411114
-0.075953364 0.002830354 0.78899997 4291279527
-0.07448031 0.0028324381 0.78899997 4291279527
-0.073007293 0.0028344812 0.78899997 4290951848
-0.071534313 0.0028364828 0.78899997 4291017641
-0.070061356 0.0028384428 0.78899997 4290821802
-0.068588436 0.0028403613 0.78899997 4290756009
-0.067540884 0.00286025 0.79400003 4290756011
-0.066058718 0.0028620977 0.79400003 4290756011
-0.064576566 0.0028639033 0.79400003 4290558887
-0.063094467 0.0028656672 0.79400003 4290953645
-0.061767604 0.0028746123 0.796 4291019186
-0.060433295 0.0028835242 0.79799998 4290558635
-0.058943838 0.0028851712 0.79799998 4290623399
-0.057454426 0.0028867763 0.79799998 4290623399
-0.055965051 0.0028883398 0.79799998 4290427047
-0.054612245 0.0028971045 0.80000001 4290427047
-0.053119209 0.0028985876 0.80000001 4290886055
-0.051626213 0.0029000288 0.80000001 4290491297
-0.050258592 0.0029086818 0.80199999 4290752416
-0.048822746 0.0029136711 0.80299997 4290752416
-0.047560018 0.0029295119 0.80699998 4290817946
-0.046054121 0.0029307962 0.80699998 4290752153
-0.04465868 0.002939305 0.80900002 4290293400
-0.043149132 0.0029405074 0.80900002 4290819745
-0.041742567 0.0029489398 0.81099999 4290756013
-0.040229384 0.0029500604 0.81099999 4290098084
-0.038907193 0.0029656938 0.815 4289439900
-0.037386626 0.0029667339 0.815 4289439900
-0.035954118 0.0029750143 0.81699997 4289767836
-0.034514196 0.0029832567 0.81900001 4289504663
-0.032986298 0.0029841731 0.81900001 4288845714
-0.12108969 0.0043008206 0.80500001 4289569675
-0.11928876 0.0042934697 0.80299997 4289766804
-0.1177887 0.004296761 0.80299997 4290029976
-0.11628866 0.0043000109 0.80299997 4290423705
-0.11464572 0.0042978586 0.80199999 4290686621
-0.11314762 0.0043010195 0.80199999 4290489500
-0.11164954 0.0043041385 0.80199999 4290489500
-0.1101515 0.0043072156 0.80199999 4290687143
-0.10838255 0.0042995019 0.80000001 4291081901
-0.10662107 0.0042917305 0.79799998 4290950313
-0.10486709 0.0042839032 0.796 4290884519
-0.1033804 0.0042867893 0.796 4290950826
-0.10189372 0.0042896341 0.796 4291148205
-0.10040709 0.0042924369 0.796 4291346613
-0.098920457 0.0042951982 0.796 4291149491
-0.097433865 0.0042979172 0.796 4291148469
-0.095706247 0.0042897896 0.79400003 4291214262
-0.093986116 0.0042816061 0.792 4291017651
-0.092507102 0.0042841858 0.792 4290951857
-0.091028102 0.0042867251 0.792 4291018154
-0.089323029 0.0042783911 0.79000002 4291149741
-0.087847836 0.0042808405 0.79000002 4291149493
-0.086372688 0.0042832489 0.79000002 4291149493
-0.08489757 0.0042856154 0.79000002 4291149491
-0.083422475 0.00428794 0.79000002 4291149491
-0.081947431 0.0042902236 0.79000002 4291083948
-0.080472402 0.0042924648 0.79000002 4290952361
-0.078997411 0.0042946651 0.79000002 4291017639
-0.077522472 0.0042968239 0.79000002 4291148968
-0.076047555 0.0042989412 0.79000002 4291082664
-0.074478269 0.0042955722 0.78899997 4290951078
-0.073005289 0.0042976029 0.78899997 4290689201
-0.071532339 0.0042995932 0.78899997 4290689201
-0.070148237 0.0043069934 0.79000002 4290755237
-0.069021203 0.0043307198 0.79400003 4290097050
-0.067709155 0.0043435101 0.796 4290425511
-0.066223294 0.0043453504 0.796 4290557354
-0.064737454 0.0043471488 0.796 4290426535
-0.063251659 0.0043489048 0.796 4290557865
-0.061921101 0.0043615508 0.79799998 4290623145
-0.060431644 0.0043632272 0.79799998 4290294436
-0.058942232 0.0043648616 0.79799998 4290294182
-0.057596851 0.0043773982 0.80000001 4290294182
-0.056103785 0.004378953 0.80000001 4290556320
-0.054610755 0.004380465 0.80000001 4290687906
-0.053250551 0.0043928893 0.80199999 4290622115
-0.051818401 0.0043998007 0.80299997 4290622115
-0.050319891 0.0044011921 0.80299997 4290556338
-0.048943017 0.004413506 0.80500001 4290490545
-0.047558725 0.004425785 0.80699998 4290621602
-0.046167009 0.0044380273 0.80900002 4290621602
-0.044657465 0.0044392589 0.80900002 4290293662
-0.043147966 0.0044404473 0.80900002 4289372560
-0.041741438 0.0044525736 0.81099999 4289373856
-0.040228296 0.0044536805 0.81099999 4289176734
-0.038906146 0.0044767158 0.815 4289438618
-0.037477363 0.0044887299 0.81699997 4289175447
-0.035953153 0.0044897147 0.81699997 4288451710
-0.034513269 0.0045016506 0.81900001 4286938470
-0.032985419 0.0045025521 0.81900001 4285229179
-0.11928547 0.0057827393 0.80299997 4288843372
-0.11778545 0.0057860222 0.80299997 4289698681
-0.11628546 0.0057892627 0.80299997 4290159500
-0.11478549 0.0057924599 0.80299997 4290159500
-0.1131445 0.0057883984 0.80199999 4290357399
-0.11164647 0.0057915077 0.80199999 4290488728
-0.11014847 0.005794575 0.80199999 4290817696
-0.1086505 0.0057976004 0.80199999 4290817696
-0.10688535 0.0057861186 0.80000001 4290752416
-0.10512768 0.0057745785 0.79799998 4290884002
-0.10363729 0.0057774629 0.79799998 4290950824
-0.10214692 0.0057803043 0.79799998 4291148459
-0.10090887 0.0057975985 0.80000001 4291215538
-0.099166267 0.005785862 0.79799998 4291083696
-0.09743119 0.00577407 0.796 4290819497
-0.095703609 0.0057622227 0.79400003 4291016619
-0.093983531 0.0057503204 0.792 4291016619
-0.092504561 0.0057528908 0.792 4291082412
-0.091255486 0.0057699536 0.79400003 4291148459
-0.089546695 0.0057579065 0.792 4290556066
-0.08784543 0.0057458049 0.79000002 4290686625
-0.086370312 0.0057482026 0.79000002 4290949797
-0.084895246 0.0057505583 0.79000002 4290950824
-0.083420187 0.0057528722 0.79000002 4290687908
-0.081945181 0.0057551442 0.79000002 4290425763
-0.080470204 0.0057573752 0.79000002 4290491556
-0.078995258 0.0057595642 0.79000002 4290624680
-0.077520348 0.0057617114 0.79000002 4290558887
-0.076045476 0.0057638176 0.79000002 4290755498
-0.074570633 0.0057658814 0.79000002 4290623912
-0.073650986 0.0058117108 0.796 4290623406
-0.072165012 0.0058137062 0.796 4290623406
-0.070679083 0.0058156606 0.796 4291082662
-0.069367021 0.0058321892 0.79799998 4290556318
-0.067877434 0.005834064 0.79799998 4290556836
-0.066387869 0.0058358959 0.79799998 4290293664
-0.064735696 0.0058230562 0.796 4289966496
-0.063249946 0.0058248001 0.796 4290164131
-0.061919414 0.0058411416 0.79799998 4290688417
-0.060429998 0.0058428054 0.79799998 4290359709
-0.059088357 0.0058590756 0.80000001 4290556318
-0.057595283 0.0058606598 0.80000001 4290490525
-0.056242526 0.0058768564 0.80199999 4290752668
-0.05474579 0.0058783595 0.80199999 4290884254
-0.053315513 0.0058871522 0.80299997 4290818463
-0.05194607 0.0059032394 0.80500001 4290752670
-0.05056918 0.0059192898 0.80699998 4290425504
-0.049063295 0.0059206323 0.80699998 4290359455
-0.047675308 0.0059366082 0.80900002 4290293912
-0.046165764 0.0059378687 0.80900002 4290425754
-0.044766665 0.0059537687 0.81099999 4290426006
-0.043253478 0.0059549469 0.81099999 4289438855
-0.041740328 0.0059560817 0.81099999 4289439386
-0.040227227 0.0059571736 0.81099999 4289242007
-0.039000582 0.0060023037 0.81699997 4289504398
-0.037476365 0.006003317 0.81699997 4288846467
-0.036040213 0.0060189869 0.81900001 4288318073
-0.03451236 0.0060199169 0.81900001 4286081367
-0.11628226 0.0072783874 0.80299997 4289371765
-0.11478235 0.0072815767 0.80299997 4289964158
-0.11328244 0.0072847223 0.80299997 4290226842
-0.1116434 0.0072787502 0.80199999 4290161049
-0.11014544 0.0072818091 0.80199999 4290424466
-0.10878298 0.0072939075 0.80299997 4290556309
-0.10728322 0.0072968849 0.80299997 4290687645
-0.10565175 0.0072907279 0.80199999 4290687645
-0.10415391 0.0072936164 0.80199999 4290687906
-0.10265613 0.007296463 0.80199999 4290556320
-0.10115835 0.0072992668 0.80199999 4290753951
-0.099412084 0.0072838189 0.80000001 4290819745
-0.097673312 0.0072683152 0.79799998 4290884769
-0.095942058 0.0072527551 0.796 4290950563
-0.094218291 0.007237141 0.79400003 4290884266
-0.092735626 0.0072397073 0.79400003 4290687143
-0.091252983 0.0072422316 0.79400003 4290818724
-0.089770384 0.0072447141 0.79400003 4290423966
-0.087843038 0.0072106454 0.79000002 4290358944
-0.086367957 0.0072130323 0.79000002 4290687908
-0.084892929 0.0072153769 0.79000002 4290622113
-0.083417915 0.0072176796 0.79000002 4290490527
-0.081942946 0.0072199414 0.79000002 4290359205
-0.080468014 0.0072221612 0.79000002 4290688170
-0.078993104 0.0072243391 0.79000002 4290688421
-0.07771448 0.0072447695 0.792 4290688421
-0.076235913 0.0072468696 0.792 4290623397
-0.075323731 0.0073038433 0.79799998 4290689190
-0.073834024 0.0073058745 0.79799998 4290688421
-0.07252568 0.0073261796 0.80000001 4290293664
-0.071032323 0.0073281317 0.80000001 4290555807
-0.069538996 0.0073300409 0.80000001 4290621600
-0.068045713 0.0073319087 0.80000001 4290687645
-0.066386074 0.0073153991 0.79799998 4290424216
-0.064896591 0.007317177 0.79799998 4290228639
-0.063566074 0.0073372559 0.80000001 4290294432
-0.062072929 0.0073389546 0.80000001 4290359444
-0.060579825 0.00734061 0.80000001 4290359444
-0.059234481 0.0073605794 0.80199999 4290490766
-0.057737723 0.0073621543 0.80199999 4290227594
-0.056311127 0.0073728678 0.80299997 4290489750
-0.054812592 0.0073743616 0.80299997 4290621080
-0.05344687 0.0073941811 0.80500001 4290687125
-0.052073725 0.0074139656 0.80699998 4290687125
-0.050693158 0.0074337153 0.80900002 4290490502
-0.049183581 0.0074350475 0.80900002 4290490502
-0.047674045 0.0074363365 0.80900002 4290097289
-0.046164542 0.0074375826 0.80900002 4289965703
-0.044765487 0.0074571772 0.81099999 4289833851
-0.043252334 0.0074583399 0.81099999 4289241714
-0.041739225 0.0074594612 0.81099999 4288847753
-0.040523767 0.0075157336 0.81699997 4288715911
-0.038999557 0.0075167771 0.81699997 4287336054
-0.037567131 0.0075361799 0.81900001 4285230935
-0.036127277 0.0075555444 0.82099998 4283916381
-0.11177955 0.0087767988 0.80299997 4289571738
-0.11027975 0.0087798508 0.80299997 4289833615
-0.10905094 0.0088047357 0.80500001 4290294166
-0.10754748 0.0088077094 0.80500001 4290425763
-0.10578059 0.0087887533 0.80299997 4290294434
-0.10415108 0.0087806862 0.80199999 4290491297
-0.10265332 0.0087835211 0.80199999 4290359455
-0.10115559 0.008786316 0.80199999 4290359196
-0.099409372 0.0087671503 0.80000001 4290293402
-0.097915448 0.0087698521 0.80000001 4290620576
-0.096180491 0.0087505803 0.79799998 4290620576
-0.094453037 0.0087312525 0.796 4290423969
-0.092966683 0.0087338164 0.796 4290423969
-0.091480352 0.0087363375 0.796 4290753701
-0.089994043 0.0087388149 0.796 4290490273
-0.088063024 0.0086973263 0.792 4290358944
-0.086365618 0.0086777378 0.79000002 4290556066
-0.084890619 0.0086800717 0.79000002 4290556066
-0.083626829 0.0087043447 0.792 4290358944
-0.082148172 0.0087066013 0.792 4290161312
-0.08066953 0.008708816 0.792 4290161312
-0.079390921 0.0087329848 0.79400003 4290424218
-0.078104869 0.0087571237 0.796 4290490012
-0.077003889 0.0088032382 0.80000001 4290359459
-0.075510465 0.0088053057 0.80000001 4290359459
-0.07401707 0.0088073304 0.80000001 4290491047
-0.07270503 0.0088313371 0.80199999 4290359205
-0.071207985 0.0088332817 0.80199999 4290488726
-0.069710962 0.0088351835 0.80199999 4290686362
-0.06804388 0.0088150054 0.80000001 4291212706
-0.06655068 0.0088168187 0.80000001 4290752155
-0.065057501 0.0088185892 0.80000001 4290556318
-0.063723274 0.0088423686 0.80199999 4290293402
-0.062226441 0.008844059 0.80199999 4289701261
-0.060729649 0.0088457055 0.80199999 4290359448
-0.059306759 0.0088583417 0.80299997 4290556822
-0.057808176 0.0088599063 0.80299997 4290162064
-0.056449879 0.0088834986 0.80500001 4290029199
-0.054947652 0.0088849822 0.80500001 4289963406
-0.053711019 0.0089305779 0.80900002 4290028945
-0.052201401 0.0089319833 0.80900002 4290028945
-0.050691828 0.0089333449 0.80900002 4289700729
-0.049303874 0.0089567518 0.81099999 4289832316
-0.047790643 0.0089580296 0.81099999 4289570956
-0.046277456 0.0089592654 0.81099999 4289110405
-0.04476431 0.0089604585 0.81099999 4288715640
-0.043251205 0.0089616077 0.81099999 4289176191
-0.10904798 0.01029727 0.80500001 4290029961
-0.10754456 0.010300235 0.80500001 4289898908
-0.10604118 0.010303157 0.80500001 4289635736
-0.10453783 0.010306038 0.80500001 4289636240
-0.10277852 0.010283261 0.80299997 4289438605
-0.10127896 0.010286048 0.80299997 4289964699
-0.10002796 0.010314418 0.80500001 4290030492
-0.09827996 0.010291494 0.80299997 4290227617
-0.096659973 0.010281335 0.80199999 4290096287
-0.094925098 0.010258303 0.80000001 4290227357
-0.093431316 0.010260868 0.80000001 4290227357
-0.091937557 0.01026339 0.80000001 4290556318
-0.090443842 0.010265871 0.80000001 4290556318
-0.088727765 0.010242636 0.79799998 4290359457
-0.087237842 0.010245026 0.79799998 4290293664
-0.087144844 0.01041431 0.81099999 4290293664
-0.085630715 0.010416653 0.81099999 4290293664
-0.083286867 0.010316174 0.80299997 4290161312
-0.081787743 0.010318409 0.80299997 4289766554
-0.080188662 0.010307747 0.80199999 4289701009
-0.078691483 0.010309893 0.80199999 4290095767
-0.077194318 0.010311996 0.80199999 4290227369
-0.075697213 0.010314057 0.80199999 4290293162
-0.074200124 0.010316076 0.80199999 4290491047
-0.072703078 0.010318051 0.80199999 4290424998
-0.071206078 0.010319985 0.80199999 4290161301
-0.0697091 0.010321875 0.80199999 4290227094
-0.068212159 0.010323722 0.80199999 4290752918
-0.06671527 0.010325527 0.80199999 4290687125
-0.065218396 0.01032729 0.80199999 4290686873
-0.063801035 0.010341889 0.80299997 4290423957
-0.062302373 0.010343568 0.80299997 4289898391
-0.060803752 0.010345206 0.80299997 4290227355
-0.059452895 0.01037257 0.80500001 4290162062
-0.057950623 0.010374127 0.80500001 4289833353
-0.056448393 0.010375638 0.80500001 4289832851
-0.055219229 0.010428673 0.80900002 4289701009
-0.053709608 0.010430105 0.80900002 4289766806
-0.052329078 0.010457286 0.81099999 4289701013
-0.05081581 0.010458636 0.81099999 4289569400
-0.049302582 0.010459946 0.81099999 4289569400
-0.047789395 0.010461209 0.81099999 4289307537
-0.046276253 0.010462433 0.81099999 4289110157
-0.044763152 0.010463612 0.81099999 4288716681
-0.10682864 0.011883462 0.81099999 4289505947
-0.10505442 0.011857039 0.80900002 4289833113
-0.10354366 0.011859882 0.80900002 4289767320
-0.10203297 0.011862679 0.80900002 4289768351
-0.10052226 0.011865435 0.80900002 4289834144
-0.099256396 0.011897486 0.81099999 4290294443
-0.09750101 0.011870815 0.80900002 4289702306
-0.095990412 0.01187344 0.80900002 4289439388
-0.094479866 0.011876023 0.80900002 4289768353
-0.093199171 0.01190793 0.81099999 4289504661
-0.09168496 0.011910434 0.81099999 4289570454
-0.089948408 0.011883516 0.80900002 4289898906
-0.088437982 0.011885927 0.80900002 4289569941
-0.087142505 0.011917685 0.81099999 4289504148
-0.085628405 0.011920015 0.81099999 4290030492
-0.083699495 0.011863501 0.80699998 4290096541
-0.08219295 0.011865735 0.80699998 4289833113
-0.080286495 0.011809099 0.80299997 4289832348
-0.078787498 0.011811238 0.80299997 4290095519
-0.077481009 0.011842755 0.80500001 4289964701
-0.075789571 0.011815383 0.80299997 4290227617
-0.074290663 0.011817393 0.80299997 4290425250
-0.072701134 0.01180464 0.80199999 4290293664
-0.071204185 0.011806561 0.80199999 4289767315
-0.069707245 0.011808439 0.80199999 4289899158
-0.068210356 0.011810275 0.80199999 4290227355
-0.066713504 0.011812069 0.80199999 4289898391
-0.065216675 0.011813819 0.80199999 4289962900
-0.063958257 0.011859725 0.80500001 4289962900
-0.062455904 0.011861396 0.80500001 4289700498
-0.060953602 0.011863024 0.80500001 4289766291
-0.059599046 0.011894086 0.80699998 4289504913
-0.058093078 0.011895632 0.80699998 4289504913
-0.056727398 0.011926622 0.80900002 4290228641
-0.05535429 0.011957573 0.81099999 4289307539
-0.053840984 0.011958998 0.81099999 4289109905
-0.05258581 0.01201937 0.815 4289307285
-0.05093981 0.011991217 0.81300002 4289438857
-0.049301308 0.011963012 0.81099999 4289044099
-0.047788169 0.011964265 0.81099999 4288976518
-0.046275068 0.011965473 0.81099999 4289568912
-0.044762004 0.011966637 0.81099999 4288848281
-0.10887461 0.013449931 0.815 4286807664
-0.10735263 0.013452871 0.815 4288123781
-0.1058307 0.013455767 0.815 4289240458
-0.1043088 0.013458618 0.815 4289701009
-0.10278691 0.013461425 0.815 4290161564
-0.10101657 0.01343115 0.81300002 4290095515
-0.099253722 0.013400817 0.81099999 4289701795
-0.097739413 0.013403482 0.81099999 4289504159
-0.096225128 0.013406106 0.81099999 4289635234
-0.094710886 0.013408684 0.81099999 4290292908
-0.093426511 0.013444293 0.81300002 4289963416
-0.091908596 0.013446792 0.81300002 4289897622
-0.090168357 0.013416161 0.81099999 4289569425
-0.088654242 0.013418567 0.81099999 4289437840
-0.087355062 0.013454027 0.81300002 4289438870
-0.08583729 0.013456355 0.81300002 4290031007
-0.084112115 0.013425526 0.81099999 4290029974
-0.082598142 0.013427759 0.81099999 4289372300
-0.080684274 0.013363711 0.80699998 4290094763
-0.079177842 0.013365846 0.80699998 4290358192
-0.077671446 0.01336794 0.80699998 4289898643
-0.075976327 0.013336856 0.80500001 4289767056
-0.074288696 0.013305718 0.80299997 4289636238
-0.072789863 0.013307674 0.80299997 4289570445
-0.071291082 0.013309585 0.80299997 4289569941
-0.069792323 0.013311454 0.80299997 4289964699
-0.068293609 0.013313279 0.80299997 4289504663
-0.066961296 0.013348226 0.80500001 4289307285
-0.06562154 0.013383139 0.80699998 4289569691
-0.06411548 0.013384843 0.80699998 4289569691
-0.062609434 0.013386506 0.80699998 4289700759
-0.061254874 0.013421306 0.80900002 4289372051
-0.059892893 0.013456071 0.81099999 4289372562
-0.058379509 0.013457611 0.81099999 4289306769
-0.057006411 0.013492302 0.81300002 4289437840
-0.055625871 0.013526955 0.815 4289306253
-0.054105148 0.013528373 0.815 4289109907
-0.052713498 0.013562948 0.81699997 4289043858
-0.050938506 0.013497873 0.81300002 4289044362
-0.049421635 0.013499159 0.81300002 4288715398
-0.047786955 0.013467186 0.81099999 4289107855
-0.046273891 0.013468382 0.81099999 4290687143
-0.044760875 0.013469532 0.81099999 4290293941
-0.10913884 0.014997326 0.81699997 4285030990
-0.10761317 0.015000262 0.81699997 4286346849
-0.10608754 0.015003152 0.81699997 4287791217
-0.10430599 0.014969269 0.815 4289962130
-0.10278414 0.014972065 0.815 4289569952
-0.10101385 0.014938073 0.81300002 4289504159
-0.099495821 0.014940778 0.81300002 4289634964
-0.097736776 0.014906676 0.81099999 4289634964
-0.09622255 0.014909288 0.81099999 4289897111
-0.094708346 0.014911857 0.81099999 4289897111
-0.093653828 0.014987943 0.815 4290027666
-0.091906145 0.014953652 0.81300002 4290159252
-0.090388298 0.014956095 0.81300002 4289634703
-0.088870503 0.014958496 0.81300002 4289568910
-0.08756762 0.014997656 0.815 4289242005
-0.086257316 0.015036787 0.81699997 4289636763
-0.084732138 0.015039068 0.81699997 4289702547
-0.083003335 0.015004488 0.815 4289636753
-0.081481971 0.015006675 0.815 4289898143
-0.079764418 0.014971991 0.81300002 4289832350
-0.078054368 0.014937253 0.81099999 4289832847
-0.076351821 0.014902459 0.80900002 4289767054
-0.074841812 0.014904458 0.80900002 4289701263
-0.073150523 0.014869564 0.80699998 4289701263
-0.071644321 0.014871473 0.80699998 4289504663
-0.069964312 0.014836479 0.80500001 4289438870
-0.06846191 0.014838299 0.80500001 4289176210
-0.067125894 0.014876942 0.80699998 4289242259
-0.065945081 0.014952427 0.81099999 4289438868
-0.064431593 0.014954129 0.81099999 4289438868
-0.062918141 0.014955789 0.81099999 4289570193
-0.061404716 0.014957403 0.81099999 4289635986
-0.059891343 0.014958975 0.81099999 4289437844
-0.058521975 0.014997398 0.81300002 4289437844
-0.05700494 0.014998885 0.81300002 4289700246
-0.055624448 0.015037231 0.815 4289437073
-0.054103762 0.015038638 0.815 4288911757
-0.052712165 0.015076905 0.81699997 4288583048
-0.050937217 0.015004405 0.81300002 4288321153
-0.049420383 0.015005675 0.81300002 4288979339
-0.047903594 0.015006903 0.81300002 4289634714
-0.10761028 0.016514506 0.81699997 4283782476
-0.10608468 0.01651739 0.81699997 4284568126
-0.10455914 0.016520228 0.81699997 4284897091
-0.10303361 0.016523022 0.81699997 4285027691
-0.10125963 0.016485319 0.815 4286869895
-0.099493168 0.016447559 0.81300002 4287594858
-0.097734168 0.01640974 0.81099999 4288910462
-0.096219979 0.016412342 0.81099999 4289699980
-0.094939381 0.016455382 0.81300002 4289699980
-0.093651332 0.016498389 0.815 4289831314
-0.091903694 0.01646038 0.81300002 4290160279
-0.090385899 0.016462812 0.81300002 4289701011
-0.089086749 0.016505707 0.815 4289569425
-0.087565303 0.016508058 0.815 4289045394
-0.086255021 0.016550884 0.81699997 4288848014
-0.084729902 0.016553154 0.81699997 4288913807
-0.083204813 0.016555382 0.81699997 4289243029
-0.08147981 0.016517032 0.815 4289504913
-0.079958528 0.016519167 0.815 4289504913
-0.078244805 0.016480716 0.81300002 4289570445
-0.07653857 0.016442209 0.81099999 4289636238
-0.075024866 0.016444204 0.81099999 4289570960
-0.073511183 0.016446151 0.81099999 4289636753
-0.071997561 0.016448058 0.81099999 4289635998
-0.070483953 0.016449923 0.81099999 4289438618
-0.068970397 0.016451741 0.81099999 4289438868
-0.06762322 0.016494093 0.81300002 4289504661
-0.066105999 0.016495833 0.81300002 4289438857
-0.064588822 0.016497526 0.81300002 4288846719
-0.063071676 0.016499175 0.81300002 4289438857
-0.06155457 0.016500782 0.81300002 4289636236
-0.060185198 0.016542939 0.815 4288845714
-0.058664434 0.016544461 0.815 4288385163
-0.057283945 0.016586546 0.81699997 4288515467
-0.055759538 0.016587984 0.81699997 4288449674
-0.054235157 0.016589377 0.81699997 4287990909
-0.052710831 0.016590731 0.81699997 4287661944
-0.051186536 0.016592039 0.81699997 4288649091
-0.049662285 0.0165933 0.81699997 4290030744
-0.10760739 0.018028624 0.81699997 4283189830
-0.10608186 0.018031495 0.81699997 4282137385
-0.10455634 0.018034324 0.81699997 4282203178
-0.10303086 0.018037107 0.81699997 4282858040
-0.10150541 0.018039847 0.81699997 4284502608
-0.099979989 0.018042546 0.81699997 4286999385
-0.09845461 0.018045198 0.81699997 4288183915
-0.096691981 0.01800363 0.815 4287726719
-0.095170401 0.018006189 0.815 4287989892
-0.093648851 0.018008703 0.815 4288647304
-0.092127331 0.018011175 0.815 4289634455
-0.090605855 0.018013606 0.815 4289176210
-0.089303009 0.0180602 0.81699997 4289242259
-0.08777786 0.018062547 0.81699997 4288848785
-0.086252749 0.018064851 0.81699997 4288782991
-0.084727675 0.01806711 0.81699997 4288257688
-0.08320263 0.018069327 0.81699997 4288718239
-0.081477672 0.018027257 0.815 4288650636
-0.079956435 0.018029381 0.815 4288913807
-0.078242749 0.01798721 0.81300002 4289109903
-0.076725326 0.017989242 0.81300002 4289438868
-0.075207926 0.017991228 0.81300002 4289242777
-0.073690556 0.017993173 0.81300002 4289111191
-0.072173238 0.017995071 0.81300002 4289175951
-0.070655935 0.017996926 0.81300002 4289241744
-0.06930878 0.018043017 0.815 4289110157
-0.067787819 0.018044788 0.815 4289110157
-0.066266917 0.018046519 0.815 4289240458
-0.064746045 0.018048203 0.815 4289174665
-0.063225217 0.018049844 0.815 4289045646
-0.067004181 0.019601872 0.88499999 4288716681
-0.06535282 0.01960356 0.88499999 4287271547
-0.063485555 0.019538742 0.88200003 4287140218
-0.061839867 0.019540329 0.88200003 4288187270
-0.060194209 0.019541867 0.88200003 4288055941
-0.059146047 0.019742779 0.89099997 4287857524
-0.057483688 0.019744236 0.89099997 4288515454
-0.056009341 0.019812133 0.89399999 4289109392
-0.054341484 0.0198135 0.89399999 4290030494
-0.052673675 0.019814821 0.89399999 4289637533
-0.049338184 0.019817313 0.89399999 4290887100
-0.047670513 0.019818489 0.89399999 4291545030
-0.10455355 0.019548291 0.81699997 4283321684
-0.10302812 0.019551063 0.81699997 4283321423
-0.10150272 0.019553794 0.81699997 4283518545
-0.1002221 0.019604355 0.81900001 4283451726
-0.098452009 0.019559123 0.81699997 4282859588
-0.096926682 0.019561723 0.81699997 4283648848
-0.095634967 0.019612169 0.81900001 4283188297
-0.093876176 0.019566789 0.81699997 4284044887
-0.092350982 0.019569257 0.81699997 4284900196
-0.090825796 0.019571679 0.81699997 4284179808
-0.089300662 0.019574059 0.81699997 4285429874
-0.086461633 0.019626614 0.81900001 4288785583
-0.084932864 0.019628869 0.81900001 4290032050
-0.083200455 0.01958314 0.81699997 4289769135
-0.081675485 0.019585298 0.81699997 4289242255
-0.080150567 0.019587416 0.81699997 4287400307
-0.078625664 0.019589487 0.81699997 4287926160
-0.076912075 0.019543556 0.815 4288386711
-0.075205974 0.019497572 0.81300002 4288189846
-0.073688656 0.019499505 0.81300002 4287795344
-0.072348915 0.019549364 0.815 4288453243
-0.070827931 0.019551212 0.815 4288848001
-0.069306992 0.019553015 0.815 4288254335
-0.06778609 0.019554777 0.815 4287662198
-0.066427834 0.019604482 0.81699997 4287464815
-0.064903282 0.01960616 0.81699997 4287201643
-0.06880901 0.021287778 0.88700002 4287005810
-0.06700249 0.021241497 0.88499999 4286742639
-0.065351166 0.021243172 0.88499999 4286809188
-0.063483953 0.021172781 0.88200003 4287006310
-0.061838318 0.021174353 0.88200003 4287860104
-0.060192712 0.021175878 0.88200003 4287991690
-0.059144579 0.02139345 0.89099997 4288385151
-0.057482276 0.021394894 0.89099997 4289898391
-0.055820022 0.021396289 0.89099997 4290688167
-0.05434015 0.021469684 0.89399999 4291017389
-0.05267239 0.02147099 0.89399999 4290951844
-0.05111878 0.021520281 0.89600003 4291149222
-0.049337 0.021473452 0.89399999 4291018436
-0.047669373 0.021474613 0.89399999 4291939538
-0.046001792 0.021475723 0.89399999 4291874758
-0.10021944 0.021121865 0.81900001 4282664781
-0.098690405 0.021124503 0.81900001 4282664781
-0.097161405 0.021127097 0.81900001 4283323217
-0.095632449 0.021129651 0.81900001 4282928460
-0.094103515 0.021132154 0.81900001 4282666317
-0.092574619 0.021134615 0.81900001 4283258710
-0.09104576 0.021137035 0.81900001 4281751629
-0.080344684 0.021152731 0.81900001 4287203973
-0.078816108 0.021154797 0.81900001 4287663239
-0.077098824 0.02110515 0.81699997 4288123790
-0.075389035 0.021055454 0.815 4287927181
-0.073868029 0.02105738 0.815 4287269250
-0.0725246 0.021110937 0.81699997 4287466613
-0.077691488 0.0231026 0.89399999 4287466613
-0.075427897 0.022923656 0.88700002 4286873707
-0.073772684 0.022925561 0.88700002 4286939756
-0.072117507 0.022927416 0.88700002 4287331430
-0.070462383 0.022929223 0.88700002 4287660651
-0.068807282 0.02293098 0.88700002 4287398771
-0.067000806 0.022880983 0.88499999 4287464565
-0.065349534 0.02288264 0.88499999 4288188540
-0.063482374 0.02280668 0.88200003 4288056954
-0.061836779 0.022808235 0.88200003 4287860604
-0.06039596 0.022887332 0.88499999 4288058239
-0.058744851 0.022888798 0.88499999 4288385917
-0.057351843 0.022993676 0.889 4290359707
-0.055818655 0.023046786 0.89099997 4290426799
-0.054338839 0.023125723 0.89399999 4291084729
-0.052671123 0.023127014 0.89399999 4291150256
-0.051117554 0.023179995 0.89600003 4291281842
-0.04933583 0.023129448 0.89399999 4291807437
-0.047668252 0.023130592 0.89399999 4292136145
-0.046000719 0.023131689 0.89399999 4291941055
-0.086223945 0.024803577 0.89600003 4287400834
-0.084551744 0.024805773 0.89600003 4287664006
-0.082879573 0.024807926 0.89600003 4287335293
-0.081207447 0.024810027 0.89600003 4287335293
-0.079357825 0.024756698 0.89399999 4287531650
-0.077428795 0.024675613 0.89099997 4287465857
-0.07542599 0.024566775 0.88700002 4287597182
-0.073770821 0.024568662 0.88700002 4287663232
-0.07211569 0.024570502 0.88700002 4288253565
-0.070460603 0.024572296 0.88700002 4288845702
-0.06880556 0.024574041 0.88700002 4288449922
-0.066999137 0.024520323 0.88499999 4288515971
-0.06534791 0.024521969 0.88499999 4288254862
-0.063696727 0.024523566 0.88499999 4288846999
-0.062045582 0.024525117 0.88499999 4289174917
-0.060394485 0.024526617 0.88499999 4289569675
-0.058743421 0.024528069 0.88499999 4289437823
-0.057350453 0.024640344 0.889 4290490512
-0.055817321 0.024697145 0.89099997 4290753961
-0.054337543 0.024781624 0.89399999 4291609269
-0.052669872 0.0247829 0.89399999 4291675583
-0.051116351 0.024839569 0.89600003 4291807168
-0.049445044 0.024840748 0.89600003 4291741905
-0.047773782 0.024841879 0.89600003 4292334042
-0.046102572 0.024842964 0.89600003 4291744694
-0.044778522 0.025038091 0.903 4294047449
-0.087893948 0.026461067 0.89600003 4287599765
-0.086221747 0.0264633 0.89600003 4287139716
-0.084549591 0.026465485 0.89600003 4287468680
-0.082877465 0.026467623 0.89600003 4287466109
-0.081024125 0.026410626 0.89399999 4287531902
-0.079089522 0.026324028 0.89099997 4287662980
-0.077253059 0.026266914 0.889 4287662980
-0.075594164 0.026268845 0.889 4287990909
-0.073768973 0.026211621 0.88700002 4288056702
-0.072113894 0.02621345 0.88700002 4288056702
-0.070458852 0.026215227 0.88700002 4288451460
-0.068803854 0.02621696 0.88700002 4288253565
-0.067148894 0.026218643 0.88700002 4288516738
-0.065346308 0.026161155 0.88499999 4288123783
-0.06369517 0.026162738 0.88499999 4288847249
-0.062044073 0.026164273 0.88499999 4289175197
-0.060393021 0.026165761 0.88499999 4289569954
-0.05887476 0.026226334 0.88700002 4289438094
-0.057349086 0.026286865 0.889 4290359196
-0.055815991 0.026347356 0.89099997 4290951074
-0.054336257 0.026437374 0.89399999 4292004018
-0.052786466 0.026497783 0.89600003 4292003514
-0.051115159 0.026498996 0.89600003 4292003514
-0.04955427 0.026559314 0.898 4291544778
-0.047879327 0.026560431 0.898 4292268501
-0.04646169 0.026709391 0.903 4291941055
-0.04477752 0.026710415 0.903 4293783003
-0.087891698 0.028120654 0.89600003 4288651169
-0.086219564 0.028122878 0.89600003 4287401348
-0.084547453 0.02812505 0.89600003 4287664776
-0.082875371 0.028127177 0.89600003 4287794311
-0.081022084 0.028066456 0.89399999 4287794311
-0.079087533 0.027974291 0.89099997 4287794311
-0.077251129 0.027913461 0.889 4288123277
-0.075592279 0.027915377 0.889 4288451460
-0.073767133 0.027854437 0.88700002 4288451460
-0.072112106 0.027856247 0.88700002 4288451208
-0.070457123 0.027858019 0.88700002 4288451208
