# .PCD v0.7 - Point Cloud Data file format
VERSION 0.7
FIELDS x y z rgba
SIZE 4 4 4 4
TYPE F F F U
COUNT 1 1 1 1
WIDTH 1071
HEIGHT 1
VIEWPOINT 0 0 0 1 0 0 0
POINTS 1071
DATA ascii
-0.2171535 0.025485154 0.73799998 4294967295
-0.21577331 0.025491077 0.73799998 4294967295
-0.2138121 0.02542787 0.736 4294967295
-0.21243571 0.025433704 0.736 4294967295
-0.21105932 0.025439501 0.736 4294967295
-0.20968299 0.025445258 0.736 4294967295
-0.20830669 0.025450977 0.736 4294967295
-0.20693038 0.025456663 0.736 4294967295
-0.2049956 0.025393115 0.73400003 4294967295
-0.2033457 0.025364101 0.73299998 4294967295
-0.20197514 0.025369648 0.73299998 4294967295
-0.20005725 0.025305917 0.73100001 4294967295
-0.19869049 0.025311377 0.73100001 4294967295
-0.19732378 0.025316793 0.73100001 4294967295
-0.19595706 0.025322169 0.73100001 4294967295
-0.19512279 0.025396807 0.73299998 4294967295
-0.19375242 0.025402127 0.73299998 4294967295
-0.19238205 0.025407404 0.73299998 4294967295
-0.19101176 0.025412647 0.73299998 4294967295
-0.18964146 0.025417849 0.73299998 4294967295
-0.18827119 0.025423013 0.73299998 4294967295
-0.18715601 0.025462832 0.73400003 4294967295
-0.18553083 0.025433233 0.73299998 4294967295
-0.18416065 0.025438285 0.73299998 4294967295
-0.1827905 0.025443295 0.73299998 4294967295
-0.18142039 0.02544827 0.73299998 4294967295
-0.18005031 0.025453206 0.73299998 4294967295
-0.17892402 0.025492838 0.73400003 4294967295
-0.17803594 0.025567176 0.736 4294967295
-0.17618027 0.025502527 0.73400003 4294967295
-0.17480846 0.025507316 0.73400003 4294967295
-0.17343664 0.025512068 0.73400003 4294967295
-0.17253369 0.025586309 0.736 4294967295
-0.17115819 0.025590992 0.736 4294967295
-0.1702441 0.025665192 0.73799998 4294967295
-0.16840729 0.025600249 0.736 4294967295
-0.1670319 0.02560482 0.736 4294967295
-0.16565649 0.025609348 0.736 4294967295
-0.16472757 0.025683444 0.73799998 4294967295
-0.16356985 0.025722718 0.73900002 4294967295
-0.16218893 0.025727151 0.73900002 4294967295
-0.16080806 0.025731547 0.73900002 4294967295
-0.15942718 0.025735896 0.73900002 4294967295
-0.1584741 0.025809877 0.741 4294967295
-0.15708956 0.025814163 0.741 4294967295
-0.15591517 0.02585325 0.74199998 4294967295
-0.15452881 0.025857471 0.74199998 4294967295
-0.15355527 0.025931353 0.74400002 4294967295
-0.15216523 0.025935503 0.74400002 4294967295
-0.15118054 0.026009336 0.74599999 4294967295
-0.14978682 0.026013415 0.74599999 4294967295
-0.14859203 0.026052332 0.74699998 4294967295
-0.14719649 0.026056336 0.74699998 4294967295
-0.14580098 0.026060302 0.74699998 4294967295
-0.14440547 0.026064226 0.74699998 4294967295
-0.14301004 0.02606811 0.74699998 4294967295
-0.1416146 0.02607196 0.74699998 4294967295
-0.14059462 0.026145583 0.74900001 4294967295
-0.13938133 0.026184268 0.75 4294967295
-0.1392682 0.026432432 0.75700003 4294967295
-0.13785419 0.026436167 0.75700003 4294967295
-0.13644022 0.026439866 0.75700003 4294967295
-0.13502626 0.026443519 0.75700003 4294967295
-0.13396534 0.026517006 0.759 4294967295
-0.13289696 0.02659047 0.76099998 4294967294
-0.13164839 0.026628967 0.76200002 4294967295
-0.13056701 0.026702385 0.764 4294967295
-0.12914009 0.026705869 0.764 4294967292
-0.12804759 0.026779229 0.76599997 4294967294
-0.12661701 0.026782641 0.76599997 4294967290
-0.12518647 0.026786013 0.76599997 4294967295
-0.12375592 0.026789339 0.76599997 4294967294
-0.12248513 0.026827605 0.76700002 4294967291
-0.12105282 0.026830858 0.76700002 4294967290
-0.11993244 0.026904033 0.76899999 4294967282
-0.11880461 0.026977191 0.77100003 4294967279
-0.1173649 0.026980337 0.77100003 4294967022
-0.11833092 0.027543403 0.787 4294967280
-0.1168614 0.027546527 0.787 4294900192
-0.11568514 0.027619617 0.78899997 4294110675
-0.11435667 0.027657676 0.79000002 4293979355
-0.11316741 0.027730711 0.792 4291084463
-0.11168865 0.027733682 0.792 4288062864
-0.24888368 0.027500499 0.759 4289897620
-0.24746348 0.027507283 0.759 4292990148
-0.245395 0.02744152 0.75700003 4292927448
-0.24333401 0.027375687 0.755 4293453792
-0.24160103 0.02734605 0.75400001 4293980400
-0.23891611 0.027207527 0.75 4294506744
-0.23751298 0.027214035 0.75 4294572537
-0.2357951 0.027184216 0.74900001 4294901502
-0.233768 0.027118033 0.74699998 4294967295
-0.23205955 0.027088095 0.74599999 4294967295
-0.23066406 0.027094418 0.74599999 4294967039
-0.22865394 0.027028048 0.74400002 4294967295
-0.22726227 0.027034279 0.74400002 4294967295
-0.22495985 0.026931439 0.741 4294967295
-0.22297047 0.026864864 0.73900002 4294967295
-0.22158827 0.026870944 0.73900002 4294967295
-0.2199081 0.02684061 0.73799998 4294967295
-0.21852781 0.026846606 0.73799998 4294967295
-0.21714762 0.026852563 0.73799998 4294967295
-0.21576741 0.026858477 0.73799998 4294967295
-0.2138063 0.026791558 0.736 4294967295
-0.21242991 0.026797382 0.736 4294967295
-0.21105354 0.026803173 0.736 4294967295
-0.20967726 0.026808921 0.736 4294967295
-0.20830101 0.026814636 0.736 4294967295
-0.20692478 0.026820311 0.736 4294967295
-0.20471074 0.026716603 0.73299998 4294967295
-0.20334017 0.026722176 0.73299998 4294967295
-0.20196961 0.026727717 0.73299998 4294967295
-0.20005183 0.026660275 0.73100001 4294967295
-0.19868509 0.026665725 0.73100001 4294967295
-0.19704847 0.02663465 0.73000002 4294967295
-0.19568367 0.026640015 0.73000002 4294967295
-0.19511747 0.026754839 0.73299998 4294967295
-0.19374716 0.026760157 0.73299998 4294967295
-0.19237684 0.026765427 0.73299998 4294967295
-0.19100659 0.026770664 0.73299998 4294967295
-0.1896363 0.026775856 0.73299998 4294967295
-0.18826611 0.026781019 0.73299998 4294967295
-0.18715091 0.026822684 0.73400003 4294967295
-0.18552573 0.026791219 0.73299998 4294967295
-0.18415563 0.026796265 0.73299998 4294967295
-0.18278554 0.02680127 0.73299998 4294967295
-0.18141547 0.026806239 0.73299998 4294967295
-0.18004543 0.026811168 0.73299998 4294967295
-0.17891918 0.026852645 0.73400003 4294967295
-0.17754732 0.026857501 0.73400003 4294967295
-0.17665553 0.026935518 0.736 4294967295
-0.17528002 0.026940312 0.736 4294967295
-0.17390449 0.026945073 0.736 4294967295
-0.17252903 0.026949786 0.736 4294967295
-0.17115358 0.026954466 0.736 4294967295
-0.17023948 0.027032362 0.73799998 4294967295
-0.16886035 0.027036978 0.73799998 4294967295
-0.16702737 0.026968271 0.736 4294967295
-0.16565201 0.026972795 0.736 4294967295
-0.16472311 0.027050586 0.73799998 4294967295
-0.16356541 0.027091706 0.73900002 4294967295
-0.16218454 0.027096132 0.73900002 4294967295
-0.16080372 0.027100518 0.73900002 4294967295
-0.15942287 0.027104868 0.73900002 4294967295
-0.15846983 0.02718254 0.741 4294967295
-0.15729731 0.027223513 0.74199998 4294967295
-0.15591095 0.027227756 0.74199998 4294967295
-0.15452465 0.027231969 0.74199998 4294967295
-0.15355113 0.027309544 0.74400002 4294967295
-0.15216115 0.027313689 0.74400002 4294967295
-0.15117647 0.027391225 0.74599999 4294967295
-0.14978276 0.027395293 0.74599999 4294967295
-0.14858802 0.027436053 0.74699998 4294967295
-0.14719252 0.027440054 0.74699998 4294967295
-0.14579706 0.027444009 0.74699998 4294967295
-0.14440161 0.027447928 0.74699998 4294967295
-0.14300619 0.027451804 0.74699998 4294967295
-0.14198993 0.027529154 0.74900001 4294967295
-0.14077854 0.027569719 0.75 4294967295
-0.13974927 0.027647022 0.75199997 4294967295
-0.13926448 0.027834618 0.75700003 4294967295
-0.13785051 0.027838349 0.75700003 4294967295
-0.13643657 0.027842036 0.75700003 4294967295
-0.13502263 0.027845681 0.75700003 4294967295
-0.13396177 0.027922863 0.759 4294967295
-0.13306807 0.028036822 0.76200002 4294967293
-0.1319904 0.028113965 0.764 4294967292
-0.13056353 0.02811748 0.764 4294967295
-0.12913667 0.028120959 0.764 4294967294
-0.12804417 0.028198017 0.76599997 4294967295
-0.12661365 0.028201422 0.76599997 4294967292
-0.12518314 0.02820478 0.76599997 4294967292
-0.12375266 0.028208101 0.76599997 4294967292
-0.1224819 0.028248208 0.76700002 4294967288
-0.12104961 0.028251451 0.76700002 4294836211
-0.11961737 0.028254652 0.76700002 4294769900
-0.1184933 0.028331494 0.76899999 4294769900
-0.11705735 0.028334618 0.76899999 4294967022
-0.11832779 0.029001005 0.787 4294967281
-0.11685831 0.029004116 0.787 4294571492
-0.11538884 0.029007191 0.787 4294045148
-0.11420892 0.029083939 0.78899997 4293586392
-0.11126266 0.029089885 0.78899997 4287800721
-0.24887693 0.028906839 0.759 4288186496
-0.24745679 0.028913612 0.759 4292660163
-0.24538833 0.028844135 0.75700003 4293124046
-0.24332744 0.028774587 0.755 4293453011
-0.24159448 0.028743088 0.75400001 4294242541
-0.23890963 0.028597146 0.75 4294966263
-0.23750657 0.028603647 0.75 4294703605
-0.23578869 0.028571965 0.74900001 4294769398
-0.23376165 0.028502075 0.74699998 4294967295
-0.23205324 0.028470272 0.74599999 4294967295
-0.23065777 0.028476587 0.74599999 4294967293
-0.22864775 0.028406508 0.74400002 4294967295
-0.22725609 0.028412728 0.74400002 4294967295
-0.22495376 0.028304322 0.741 4294967295
-0.22296439 0.028234037 0.73900002 4294967295
-0.22158223 0.028240103 0.73900002 4294967295
-0.21990211 0.028207909 0.73799998 4294967295
-0.21852189 0.0282139 0.73799998 4294967295
-0.2171417 0.028219849 0.73799998 4294967295
-0.21576159 0.028225757 0.73799998 4294967295
-0.21438144 0.028231632 0.73799998 4294967295
-0.21242416 0.028160946 0.736 4294967295
-0.21104784 0.028166723 0.736 4294967295
-0.20967156 0.028172467 0.736 4294967295
-0.20829536 0.028178172 0.736 4294967295
-0.20691913 0.028183842 0.736 4294967295
-0.20470516 0.028074572 0.73299998 4294967295
-0.20333461 0.028080141 0.73299998 4294967295
-0.20196417 0.028085671 0.73299998 4294967295
-0.20004641 0.028014516 0.73100001 4294967295
-0.19867969 0.028019959 0.73100001 4294967295
-0.19704315 0.027987026 0.73000002 4294967295
-0.19567837 0.027992385 0.73000002 4294967295
-0.1951122 0.028112762 0.73299998 4294967295
-0.19374189 0.028118065 0.73299998 4294967295
-0.19237161 0.028123332 0.73299998 4294967295
-0.19100139 0.028128559 0.73299998 4294967295
-0.18963116 0.02813375 0.73299998 4294967295
-0.188261 0.028138902 0.73299998 4294967295
-0.18689083 0.028144017 0.73299998 4294967295
-0.18552072 0.028149091 0.73299998 4294967295
-0.18415062 0.028154125 0.73299998 4294967295
-0.18228188 0.028082296 0.73100001 4294967295
-0.18091558 0.028087242 0.73100001 4294967295
-0.18004054 0.02816901 0.73299998 4294967295
-0.17867056 0.028173896 0.73299998 4294967295
-0.17730062 0.028178742 0.73299998 4294967295
-0.17593072 0.028183548 0.73299998 4294967295
-0.17479898 0.028226774 0.73400003 4294967295
-0.17342724 0.028231513 0.73400003 4294967295
-0.17205553 0.02823621 0.73400003 4294967295
-0.17114893 0.028317818 0.736 4294967295
-0.17023487 0.028399415 0.73799998 4294967295
-0.16885579 0.028404022 0.73799998 4294967295
-0.1674767 0.028408589 0.73799998 4294967295
-0.16609766 0.028413121 0.73799998 4294967295
-0.16471866 0.028417611 0.73799998 4294967295
-0.163561 0.028460577 0.73900002 4294967295
-0.16218017 0.028464995 0.73900002 4294967295
-0.16079937 0.028469376 0.73900002 4294967295
-0.1594186 0.028473714 0.73900002 4294967295
-0.15803784 0.028478015 0.73900002 4294967295
-0.1570811 0.028559361 0.741 4294967295
-0.15590677 0.02860214 0.74199998 4294967295
-0.15452048 0.028606342 0.74199998 4294967295
-0.153547 0.028687622 0.74400002 4294967295
-0.15256608 0.028768882 0.74599999 4294967295
-0.1511724 0.028772987 0.74599999 4294967295
-0.14977875 0.02877705 0.74599999 4294967295
-0.14858402 0.028819654 0.74699998 4294967295
-0.14718857 0.028823648 0.74699998 4294967295
-0.14579315 0.0288276 0.74699998 4294967295
-0.14478436 0.0289087 0.74900001 4294967295
-0.14338523 0.028912582 0.74900001 4294967295
-0.14198615 0.02891642 0.74900001 4294967295
-0.14077477 0.028958838 0.75 4294967294
-0.13974553 0.029039837 0.75199997 4294967295
-0.13926075 0.029236685 0.75700003 4294967295
-0.13784683 0.029240401 0.75700003 4294967295
-0.13643293 0.029244082 0.75700003 4294967295
-0.13501905 0.029247724 0.75700003 4294967295
-0.13395819 0.0293286 0.759 4294967295
-0.13341376 0.029525397 0.764 4294967294
-0.1319869 0.029528946 0.764 4294967294
-0.13056004 0.029532455 0.764 4294967293
-0.12913325 0.029535919 0.764 4294967292
-0.12804078 0.029616676 0.76599997 4294967288
-0.12661028 0.029620068 0.76599997 4294966257
-0.12534323 0.029662097 0.76700002 4294967282
-0.12391093 0.029665414 0.76700002 4294967288
-0.12247866 0.029668691 0.76700002 4294967285
-0.12104641 0.02967192 0.76700002 4294572008
-0.1196142 0.029675111 0.76700002 4294703342
-0.11849017 0.029755646 0.76899999 4294966771
-0.11705428 0.029758766 0.76899999 4294967018
-0.11832468 0.030458476 0.787 4294966761
-0.11685523 0.030461585 0.787 4294570724
-0.11538582 0.030464642 0.787 4293978588
-0.11420591 0.030545089 0.78899997 4293716689
-0.11273281 0.030548075 0.78899997 4294967281
-0.25270548 0.030419178 0.76200002 4280879616
-0.25127965 0.030426042 0.76200002 4284037419
-0.24985385 0.030432871 0.76200002 4287593321
-0.2481021 0.030399712 0.76099998 4292330417
-0.24602999 0.030326545 0.759 4293056720
-0.24332082 0.030173372 0.755 4293385685
-0.24158792 0.030140013 0.75400001 4294439404
-0.23890316 0.029986646 0.75 4294834162
-0.23718345 0.02995315 0.74900001 4294440951
-0.23578228 0.0299596 0.74900001 4294704123
-0.23375529 0.029885992 0.74699998 4294967293
-0.23204695 0.029852329 0.74599999 4294967293
-0.23065151 0.029858638 0.74599999 4294967295
-0.22864151 0.029784841 0.74400002 4294967295
-0.22724992 0.029791059 0.74400002 4294967295
-0.22494765 0.029677089 0.741 4294967295
-0.22295833 0.02960309 0.73900002 4294967295
-0.22157621 0.029609149 0.73900002 4294967295
-0.22019413 0.029615175 0.73900002 4294967295
-0.21881205 0.029621162 0.73900002 4294967295
-0.21713583 0.029587014 0.73799998 4294967295
-0.21575572 0.029592922 0.73799998 4294967295
-0.21437562 0.029598789 0.73799998 4294967295
-0.21241839 0.029524388 0.736 4294967295
-0.21104212 0.029530162 0.736 4294967295
-0.20966588 0.029535897 0.736 4294967295
-0.20828968 0.029541595 0.736 4294967295
-0.20747577 0.029627547 0.73799998 4294967295
-0.20553741 0.029552881 0.736 4294967295
-0.2036065 0.029478144 0.73400003 4294967295
-0.20195869 0.029443506 0.73299998 4294967295
-0.20004098 0.029368643 0.73100001 4294967295
-0.19867431 0.029374076 0.73100001 4294967295
-0.19730772 0.029379474 0.73100001 4294967295
-0.19594111 0.029384833 0.73100001 4294967295
-0.19510688 0.029470563 0.73299998 4294967295
-0.19373667 0.02947586 0.73299998 4294967295
-0.19236639 0.02948112 0.73299998 4294967295
-0.1909962 0.029486341 0.73299998 4294967295
-0.18962601 0.029491523 0.73299998 4294967295
-0.18825589 0.029496672 0.73299998 4294967295
-0.1868858 0.029501777 0.73299998 4294967295
-0.18551569 0.029506845 0.73299998 4294967295
-0.18414566 0.029511875 0.73299998 4294967295
-0.18227693 0.029436333 0.73100001 4294967295
-0.18091068 0.029441271 0.73100001 4294967295
-0.18003568 0.02952674 0.73299998 4294967295
-0.17866574 0.029531617 0.73299998 4294967295
-0.17729583 0.029536456 0.73299998 4294967295
-0.17592594 0.029541254 0.73299998 4294967295
-0.17455609 0.029546019 0.73299998 4294967295
-0.17342255 0.029591054 0.73400003 4294967295
-0.17205088 0.029595749 0.73400003 4294967295
-0.17160937 0.029761711 0.73799998 4294967295
-0.17023028 0.029766349 0.73799998 4294967295
-0.16885123 0.029770946 0.73799998 4294967295
-0.16747218 0.02977551 0.73799998 4294967295
-0.1660932 0.029780034 0.73799998 4294967295
-0.16471422 0.029784516 0.73799998 4294967295
-0.16355661 0.029829329 0.73900002 4294967295
-0.1621758 0.029833738 0.73900002 4294967295
-0.16079505 0.029838113 0.73900002 4294967295
-0.15941429 0.029842446 0.73900002 4294967295
-0.15803359 0.029846737 0.73900002 4294967295
-0.15707687 0.02993178 0.741 4294967295
-0.15569246 0.02993601 0.741 4294967295
-0.15451634 0.029980602 0.74199998 4294967292
-0.15354288 0.030065579 0.74400002 4294967295
-0.15256198 0.030150535 0.74599999 4294967294
-0.15137099 0.030195052 0.74699998 4294967294
-0.14997549 0.030199114 0.74699998 4294967295
-0.14858006 0.030203139 0.74699998 4294967295
-0.1475787 0.030287998 0.74900001 4294967295
-0.14617959 0.030291952 0.74900001 4294967295
-0.14478049 0.030295867 0.74900001 4294967295
-0.1433814 0.03029974 0.74900001 4294967295
-0.1421719 0.030344028 0.75 4294967293
-0.14077102 0.030347828 0.75 4294967294
-0.13974181 0.030432526 0.75199997 4294967295
-0.13925704 0.030638626 0.75700003 4294967295
-0.13784315 0.030642336 0.75700003 4294967295
-0.13642929 0.030646006 0.75700003 4294967294
-0.13501546 0.030649638 0.75700003 4294967295
-0.13395463 0.030734213 0.759 4294967295
-0.13341022 0.030940264 0.764 4294967290
-0.13198338 0.030943805 0.764 4294967287
-0.13055658 0.030947302 0.764 4294966003
-0.12912983 0.030950762 0.764 4294966775
-0.12803738 0.031035209 0.76599997 4294967288
-0.12677222 0.031079119 0.76700002 4294966515
-0.12533991 0.031082468 0.76700002 4294966761
-0.12390766 0.031085776 0.76700002 4294967277
-0.12247543 0.03108904 0.76700002 4294967280
-0.12135886 0.031173339 0.76899999 4294834151
-0.12054672 0.031338695 0.773 4294899690
-0.11956562 0.0314635 0.77600002 4294833897
-0.11811668 0.031466641 0.77600002 4294768101
-0.11832158 0.031915825 0.787 4294702308
-0.11685216 0.031918921 0.787 4294044896
-0.11567601 0.032003094 0.78899997 4293716188
-0.11420294 0.032006111 0.78899997 4293715402
-0.25269869 0.031830855 0.76200002 4280487173
-0.25127286 0.031837709 0.76200002 4282329376
-0.24984711 0.031844523 0.76200002 4284434785
-0.24842142 0.031851307 0.76200002 4291737807
-0.24699576 0.031858046 0.76200002 4292859075
-0.24460332 0.031739298 0.759 4293056454
-0.24158138 0.031536806 0.75400001 4293782242
-0.23889667 0.03137603 0.75 4294111207
-0.23717701 0.031340674 0.74900001 4294506744
-0.23577589 0.031347115 0.74900001 4294704123
-0.23374897 0.031269789 0.74699998 4294243826
-0.23204064 0.03123427 0.74599999 4294243826
-0.23064525 0.031240571 0.74599999 4294440699
-0.22924994 0.031246835 0.74599999 4294967039
-0.22724374 0.031169269 0.74400002 4294901500
-0.22524513 0.031091636 0.74199998 4294967295
-0.2235557 0.03105584 0.741 4294967295
-0.22157021 0.030978074 0.73900002 4294967295
-0.22018819 0.030984094 0.73900002 4294967295
-0.21880613 0.030990073 0.73900002 4294967295
-0.21742415 0.030996012 0.73900002 4294967295
-0.21604222 0.031001918 0.73900002 4294967295
-0.2143698 0.030965822 0.73799998 4294967295
-0.21298982 0.030971643 0.73799998 4294967295
-0.21160986 0.03097743 0.73799998 4294967295
-0.21022992 0.03098317 0.73799998 4294967295
-0.20885003 0.030988881 0.73799998 4294967295
-0.20747016 0.030994548 0.73799998 4294967295
-0.20553182 0.030916169 0.736 4294967295
-0.20360099 0.030837722 0.73400003 4294967295
-0.2019532 0.030801225 0.73299998 4294967295
-0.20058279 0.030806705 0.73299998 4294967295
-0.1986689 0.030728078 0.73100001 4294967295
-0.19730237 0.030733466 0.73100001 4294967295
-0.1959358 0.030738819 0.73100001 4294967295
-0.19510162 0.030828245 0.73299998 4294967295
-0.19373141 0.030833537 0.73299998 4294967295
-0.19262363 0.030880861 0.73400003 4294967295
-0.19125162 0.030886084 0.73400003 4294967295
-0.1896209 0.030849181 0.73299998 4294967295
-0.1882508 0.03085432 0.73299998 4294967295
-0.1871357 0.030901521 0.73400003 4294967295
-0.18551068 0.030864481 0.73299998 4294967295
-0.18414067 0.030869504 0.73299998 4294967295
-0.182272 0.030790247 0.73100001 4294967295
-0.18090579 0.030795181 0.73100001 4294967295
-0.18003081 0.030884346 0.73299998 4294967295
-0.17866091 0.030889219 0.73299998 4294967295
-0.17729105 0.03089405 0.73299998 4294967295
-0.1759212 0.030898845 0.73299998 4294967295
-0.17455137 0.030903596 0.73299998 4294967295
-0.17341788 0.030950483 0.73400003 4294967295
-0.17204624 0.030955167 0.73400003 4294967293
-0.17067464 0.030959813 0.73400003 4294967292
-0.17022569 0.031133162 0.73799998 4294967295
-0.16884667 0.031137757 0.73799998 4294967295
-0.16633306 0.03093132 0.73299998 4294967295
-0.16496345 0.030935807 0.73299998 4294967295
-0.16470981 0.031151304 0.73799998 4294967295
-0.16333087 0.031155743 0.73799998 4294967295
-0.16195197 0.031160139 0.73799998 4294967291
-0.16079073 0.031206729 0.73900002 4294967292
-0.15941 0.031211054 0.73900002 4294967295
-0.15802935 0.031215342 0.73900002 4294967295
-0.15707265 0.03130408 0.741 4294967295
-0.15568829 0.031308301 0.741 4294967295
-0.15451218 0.031354737 0.74199998 4294967295
-0.15353876 0.03144341 0.74400002 4294967295
-0.15255789 0.031532068 0.74599999 4294967288
-0.15136692 0.031578425 0.74699998 4294967289
-0.14997147 0.031582482 0.74699998 4294967295
-0.14857607 0.031586498 0.74699998 4294967295
-0.14757475 0.031675056 0.74900001 4294967294
-0.14617567 0.031679001 0.74900001 4294967295
-0.14477661 0.031682912 0.74900001 4294967295
-0.14337756 0.031686772 0.74900001 4294967294
-0.14216813 0.031732909 0.75 4294967291
-0.14076726 0.031736698 0.75 4294967294
-0.13973808 0.031825092 0.75199997 4294967293
-0.13925333 0.032040443 0.75700003 4294967293
-0.13783948 0.032044146 0.75700003 4294967293
-0.13642566 0.032047812 0.75700003 4294967291
-0.13501185 0.032051433 0.75700003 4294967290
-0.13430403 0.032224394 0.76099998 4294967290
-0.13340667 0.032355003 0.764 4294967288
-0.1319799 0.032358538 0.764 4294967286
-0.13055313 0.032362025 0.764 4294966263
-0.12912641 0.032365479 0.764 4294967290
-0.12803401 0.032453619 0.76599997 4294967031
-0.12709944 0.032584116 0.76899999 4294966517
-0.12566344 0.032587465 0.76899999 4294966506
-0.12422748 0.032590773 0.76899999 4294966764
-0.12311091 0.032678809 0.77100003 4294967016
-0.12167129 0.032682043 0.77100003 4294702301
-0.12054356 0.032770019 0.773 4294768104
-0.11987064 0.032985166 0.778 4294702310
-0.115673 0.033464 0.78899997 4293584345
-0.11419996 0.033467002 0.78899997 4293518541
-0.25269181 0.033242401 0.76200002 4280486923
-0.25126609 0.033249248 0.76200002 4279895042
-0.24984033 0.033256058 0.76200002 4284959538
-0.24841467 0.033262834 0.76200002 4291999389
-0.24698904 0.033269569 0.76200002 4290756530
-0.24524121 0.033232588 0.76099998 4291743425
-0.24189524 0.032977168 0.755 4292796632
-0.23952727 0.032852665 0.75199997 4293717478
-0.23748723 0.032771774 0.75 4294178292
-0.23576951 0.03273451 0.74900001 4294178292
-0.23374264 0.03265347 0.74699998 4293651687
-0.23234542 0.032659814 0.74699998 4294178031
-0.23063903 0.032622382 0.74599999 4294375158
-0.22924373 0.032628641 0.74599999 4294835709
-0.22723761 0.032547366 0.74400002 4294901754
-0.22523901 0.032466017 0.74199998 4294967292
-0.22385131 0.032472122 0.74199998 4294967034
-0.22216386 0.03243443 0.741 4294967291
-0.22077809 0.032440454 0.741 4294703353
-0.21939236 0.03244644 0.741 4294967295
-0.21800669 0.03245239 0.741 4294967295
-0.21662103 0.032458302 0.741 4294967295
-0.21465451 0.032376558 0.73900002 4294967295
-0.21298407 0.032338556 0.73799998 4294967295
-0.2116041 0.03234433 0.73799998 4294967295
-0.21022423 0.032350067 0.73799998 4294967295
-0.20884438 0.032355767 0.73799998 4294967295
-0.20746455 0.032361429 0.73799998 4294967295
-0.20496778 0.032191627 0.73400003 4294967295
-0.2035955 0.032197177 0.73400003 4294967295
-0.20194775 0.032158826 0.73299998 4294967295
-0.20057739 0.032164298 0.73299998 4294967295
-0.19866355 0.032081958 0.73100001 4294967295
-0.19729699 0.032087341 0.73100001 4294967295
-0.19646652 0.032180488 0.73299998 4294967295
-0.19509633 0.032185812 0.73299998 4294967295
-0.19372617 0.032191094 0.73299998 4294967295
-0.19261843 0.032240268 0.73400003 4294967295
-0.19124644 0.032245483 0.73400003 4294967295
-0.18987447 0.032250658 0.73400003 4294967295
-0.18850255 0.032255799 0.73400003 4294967290
-0.18713064 0.032260899 0.73400003 4294967295
-0.18575877 0.032265961 0.73400003 4294967295
-0.18413569 0.032227013 0.73299998 4294967295
-0.18276575 0.03223199 0.73299998 4294967295
-0.18139584 0.03223693 0.73299998 4294967295
-0.18002594 0.032241836 0.73299998 4294967295
-0.17865609 0.032246701 0.73299998 4294967295
-0.17728627 0.032251526 0.73299998 4294967295
-0.17591645 0.032256309 0.73299998 4294967295
-0.17454667 0.032261062 0.73299998 4294967295
-0.17341319 0.032309789 0.73400003 4294967295
-0.17204161 0.032314468 0.73400003 4294967295
-0.17067006 0.03231911 0.73400003 4294967295
-0.17022111 0.032499857 0.73799998 4294967294
-0.16884214 0.032504447 0.73799998 4294967295
-0.16632861 0.032288741 0.73299998 4294967295
-0.16495903 0.032293219 0.73299998 4294967295
-0.16470535 0.032517973 0.73799998 4294967295
-0.16332649 0.032522403 0.73799998 4294967295
-0.16194762 0.032526791 0.73799998 4294967295
-0.16078641 0.032575227 0.73900002 4294967292
-0.15940572 0.032579545 0.73900002 4294967293
-0.15802512 0.032583825 0.73900002 4294967295
-0.15706842 0.032676261 0.741 4294967295
-0.15568411 0.03268047 0.741 4294967295
-0.15492453 0.032816976 0.74400002 4294967292
-0.15394737 0.032909352 0.74599999 4294967295
-0.15255378 0.032913473 0.74599999 4294967291
-0.15136287 0.032961685 0.74699998 4294967292
-0.14996748 0.032965731 0.74699998 4294967295
-0.1485721 0.032969739 0.74699998 4294967295
-0.14757082 0.033061992 0.74900001 4294967292
-0.14617178 0.033065934 0.74900001 4294967293
-0.14477275 0.033069827 0.74900001 4294967288
-0.14337376 0.033073686 0.74900001 4294967287
-0.14216432 0.033121668 0.75 4294967291
-0.1411389 0.033213783 0.75199997 4294967289
-0.13973437 0.033217534 0.75199997 4294967284
-0.13924964 0.033442132 0.75700003 4294967282
-0.13783583 0.033445831 0.75700003 4294967284
-0.13642204 0.03344949 0.75700003 4294967284
-0.13500829 0.033453103 0.75700003 4294967288
-0.13394751 0.033545069 0.759 4294967028
-0.13340315 0.033769619 0.764 4294835182
-0.13197641 0.033773147 0.764 4294835182
-0.13089141 0.033865046 0.76599997 4294966001
-0.12946102 0.033868499 0.76599997 4294966001
-0.12853205 0.034004565 0.76899999 4294966255
-0.12742664 0.034096397 0.77100003 4294966513
-0.12598695 0.034099746 0.77100003 4294966506
-0.1245473 0.034103058 0.77100003 4294966506
-0.12310769 0.034106322 0.77100003 4294965992
-0.1219837 0.034198023 0.773 4294767842
-0.12100822 0.034333948 0.77600002 4294965994
-0.11986748 0.034425609 0.778 4294965737
-0.25268495 0.034653831 0.76200002 4279832602
-0.2512593 0.034660675 0.76200002 4278583303
-0.24983361 0.034667473 0.76200002 4282789133
-0.24840799 0.034674235 0.76200002 4289895033
-0.24665825 0.034635443 0.76099998 4291280800
-0.24523461 0.034642126 0.76099998 4291807144
-0.24188872 0.034375582 0.755 4293124307
-0.23952079 0.034245513 0.75199997 4293650652
-0.23748085 0.034160905 0.75 4294243304
-0.23576312 0.034121782 0.74900001 4294309097
-0.23436216 0.034128163 0.74900001 4293980398
-0.23233911 0.034043368 0.74699998 4294375156
-0.23094194 0.03404966 0.74699998 4294440690
-0.22923753 0.034010321 0.74599999 4294769398
-0.2278423 0.034016535 0.74599999 4294901239
-0.22523293 0.033840276 0.74199998 4294967290
-0.22384524 0.033846378 0.74199998 4294967289
-0.22245763 0.033852439 0.74199998 4294967290
-0.22077212 0.03381284 0.741 4294967295
-0.21938641 0.033818819 0.741 4294967295
-0.21800077 0.03382476 0.741 4294967295
-0.2166152 0.033830669 0.741 4294967295
-0.21464868 0.033745211 0.73900002 4294967295
-0.21326691 0.033751022 0.73900002 4294967295
-0.21188512 0.033756796 0.73900002 4294967295
-0.21021856 0.033716846 0.73799998 4294967295
-0.20883875 0.033722539 0.73799998 4294967295
-0.20745894 0.033728193 0.73799998 4294967295
-0.20496227 0.033550978 0.73400003 4294967295
-0.20358999 0.033556525 0.73400003 4294967295
-0.20221782 0.033562034 0.73400003 4294967295
-0.2008456 0.033567511 0.73400003 4294967295
-0.19865818 0.033435725 0.73100001 4294967295
-0.19729167 0.0334411 0.73100001 4294967295
-0.19646126 0.033537947 0.73299998 4294967295
-0.19509107 0.033543259 0.73299998 4294967295
-0.19372094 0.033548538 0.73299998 4294967295
-0.1926132 0.033599555 0.73400003 4294967295
-0.19124128 0.03360476 0.73400003 4294967295
-0.18986934 0.033609934 0.73400003 4294967295
-0.18849744 0.03361506 0.73400003 4294967295
-0.18712559 0.033620156 0.73400003 4294967295
-0.18575373 0.033625208 0.73400003 4294967285
-0.18438196 0.03363023 0.73400003 4294967284
-0.18276083 0.033589378 0.73299998 4294967295
-0.18139094 0.033594314 0.73299998 4294967295
-0.18002109 0.033599209 0.73299998 4294967295
-0.17865127 0.033604067 0.73299998 4294967295
-0.17752334 0.033654734 0.73400003 4294967295
-0.17591172 0.033613663 0.73299998 4294967295
-0.17454197 0.033618402 0.73299998 4294967295
-0.17340852 0.033668976 0.73400003 4294967295
-0.17203698 0.033673652 0.73400003 4294967294
-0.17113048 0.033770051 0.736 4294967290
-0.17021653 0.033866435 0.73799998 4294967290
-0.16883759 0.033871014 0.73799998 4294967290
-0.16700485 0.033783749 0.736 4294967289
-0.1656297 0.033788238 0.736 4294967290
-0.16470094 0.033884514 0.73799998 4294967288
-0.16332211 0.033888943 0.73799998 4294967290
-0.16194329 0.033893324 0.73799998 4294967291
-0.16078208 0.033943605 0.73900002 4294967290
-0.15940146 0.033947919 0.73900002 4294967285
-0.15802087 0.033952188 0.73900002 4294967284
-0.15706424 0.034048319 0.741 4294967284
-0.15589003 0.03409848 0.74199998 4294967284
-0.15492037 0.03419457 0.74400002 4294967284
-0.15394324 0.034290649 0.74599999 4294900203
-0.1527542 0.034340732 0.74699998 4294966261
-0.15135883 0.034344811 0.74699998 4294967291
-0.14996347 0.034348857 0.74699998 4294967287
-0.14856814 0.034352854 0.74699998 4294966769
-0.14717284 0.034356818 0.74699998 4294967286
-0.14616789 0.034452733 0.74900001 4294967294
-0.14476891 0.034456629 0.74900001 4294967287
-0.14336994 0.034460481 0.74900001 4294967287
-0.14216053 0.0345103 0.75 4294967284
-0.14113514 0.034606114 0.75199997 4294967024
-0.13973066 0.034609858 0.75199997 4294967029
-0.13924593 0.034843706 0.75700003 4294966772
-0.13783216 0.034847397 0.75700003 4294966766
-0.13641842 0.034851044 0.75700003 4294966509
-0.13500471 0.03485465 0.75700003 4294966252
-0.13394399 0.034950312 0.759 4294900203
-0.13339962 0.035184111 0.764 4294966252
-0.13231839 0.03527974 0.76599997 4294637288
-0.13088799 0.035283227 0.76599997 4294965739
-0.12945759 0.035286669 0.76599997 4294965996
-0.12852867 0.035428286 0.76899999 4294964967
-0.12742327 0.035523806 0.77100003 4294701795
-0.12598366 0.035527151 0.77100003 4294702308
-0.12454404 0.035530448 0.77100003 4294702308
-0.1234238 0.035625879 0.773 4294636769
-0.12213831 0.035675194 0.77399999 4294373598
-0.12100506 0.035770573 0.77600002 4294768353
-0.11986437 0.035865922 0.778 4294900196
-0.25267819 0.036065143 0.76200002 4278916369
-0.2512525 0.036071971 0.76200002 4278190848
-0.24982685 0.036078762 0.76200002 4280290304
-0.24840127 0.036085516 0.76200002 4289040767
-0.24665157 0.03604487 0.76099998 4289835161
-0.24522799 0.036051538 0.76099998 4291282607
-0.24316365 0.035963401 0.759 4292400587
-0.24015135 0.035733026 0.75400001 4293058516
-0.23810768 0.035644718 0.75199997 4293321693
-0.23607153 0.035556342 0.75 4293782244
-0.23435581 0.035515316 0.74900001 4293585379
-0.23233286 0.035426799 0.74699998 4293980137
-0.23093569 0.035433084 0.74699998 4294506483
-0.22923134 0.03539189 0.74599999 4294506483
-0.22783615 0.035398092 0.74599999 4294374894
-0.22522682 0.03521442 0.74199998 4294769652
-0.22383921 0.035220515 0.74199998 4294440949
-0.22245164 0.035226569 0.74199998 4294704377
-0.22106411 0.035232589 0.74199998 4294967295
-0.21938048 0.035191078 0.741 4294967295
-0.2179949 0.035197012 0.741 4294901500
-0.21660934 0.035202913 0.741 4294967294
-0.21522379 0.035208769 0.741 4294967295
-0.21383831 0.035214592 0.741 4294967295
-0.21245283 0.035220377 0.741 4294967295
-0.21021289 0.035083506 0.73799998 4294967295
-0.2088331 0.035089195 0.73799998 4294967295
-0.20745334 0.035094842 0.73799998 4294967295
-0.20551516 0.035005331 0.736 4294967295
-0.20358449 0.034915749 0.73400003 4294967295
-0.20221232 0.034921255 0.73400003 4294967295
-0.20084022 0.03492672 0.73400003 4294967295
-0.19946808 0.034932148 0.73400003 4294967295
-0.1978261 0.034889936 0.73299998 4294967295
-0.19645593 0.034895282 0.73299998 4294967295
-0.19535199 0.034948207 0.73400003 4294967295
-0.19398001 0.034953482 0.73400003 4294967295
-0.19260804 0.034958724 0.73400003 4294967295
-0.19123614 0.034963921 0.73400003 4294967295
-0.19038156 0.035064366 0.736 4294967295
-0.18849239 0.03497421 0.73400003 4294967294
-0.18712054 0.034979295 0.73400003 4294967292
-0.18625487 0.035079669 0.736 4294967283
-0.18437697 0.034989353 0.73400003 4294967285
-0.18300526 0.034994327 0.73400003 4294967295
-0.18138605 0.034951571 0.73299998 4294967295
-0.18001625 0.034956459 0.73299998 4294967292
-0.17889018 0.035009008 0.73400003 4294967294
-0.17751858 0.035013828 0.73400003 4294967294
-0.17614697 0.035018608 0.73400003 4294967290
-0.17477541 0.03502335 0.73400003 4294967292
-0.17387633 0.03512349 0.736 4294967292
-0.1725011 0.035128169 0.736 4294967294
-0.17159091 0.035228275 0.73799998 4294967290
-0.17021197 0.03523289 0.73799998 4294967292
-0.16837552 0.035141967 0.736 4294967291
-0.16700037 0.03514649 0.736 4294703855
-0.16562526 0.035150971 0.736 4294506733
-0.16469651 0.035250943 0.73799998 4294966000
-0.16331771 0.035255358 0.73799998 4294966772
-0.16193895 0.035259735 0.73799998 4294966515
-0.16056021 0.035264079 0.73799998 4294966772
-0.1593972 0.035316169 0.73900002 4294967285
-0.15844429 0.035416022 0.741 4294966511
-0.15727198 0.035468061 0.74199998 4294900203
-0.15630606 0.035567876 0.74400002 4294966509
-0.15491624 0.035572056 0.74400002 4294967289
-0.15393914 0.035671826 0.74599999 4294967024
-0.15275015 0.035723753 0.74699998 4294834158
-0.1513548 0.035727825 0.74699998 4294967286
-0.14995947 0.03573186 0.74699998 4294967291
-0.14856419 0.035735849 0.74699998 4294966257
-0.14716892 0.035739806 0.74699998 4294835184
-0.14577369 0.035743717 0.74699998 4294967286
-0.14476506 0.035843305 0.74900001 4294966766
-0.14336613 0.035847146 0.74900001 4294966766
-0.14215678 0.035898812 0.75 4294966255
-0.14113139 0.035998318 0.75199997 4294965742
-0.14009859 0.03609781 0.75400001 4294966257
-0.13924225 0.036245156 0.75700003 4294966515
-0.13819267 0.036344606 0.759 4294966515
-0.13677524 0.036348257 0.759 4294966000
-0.13535783 0.036351863 0.759 4294506214
-0.13429341 0.036451228 0.76099998 4294835180
-0.1333961 0.036598478 0.764 4294966766
-0.13231491 0.036697801 0.76599997 4294637288
-0.13105543 0.036749195 0.76700002 4294570722
-0.1296232 0.036752634 0.76700002 4294636515
-0.12852529 0.036851875 0.76899999 4294570722
-0.12741995 0.036951091 0.77100003 4294439393
-0.12598035 0.036954422 0.77100003 4294439906
-0.12454078 0.036957715 0.77100003 4294439906
-0.12342057 0.037056837 0.773 4294440158
-0.12245072 0.037203886 0.77600002 4294374109
-0.12131377 0.03730296 0.778 4294308064
-0.12016937 0.037402015 0.77999997 4294308064
-0.25267139 0.037476331 0.76200002 4279177479
-0.25124574 0.037483148 0.76200002 4278979844
-0.24982011 0.037489936 0.76200002 4279504143
-0.24839456 0.037496679 0.76200002 4285885808
-0.24664494 0.037454169 0.76099998 4289109365
-0.24522135 0.037460823 0.76099998 4291280277
-0.24315712 0.037368983 0.759 4292333501
-0.24046335 0.037178576 0.755 4292728003
-0.2390511 0.037185073 0.755 4293386462
-0.23732416 0.037142269 0.75400001 4293847013
-0.23466238 0.036951605 0.75 4293650140
-0.23325962 0.036957949 0.75 4293715934
-0.23154776 0.036914967 0.74900001 4294177261
-0.23014697 0.036921218 0.74900001 4294374640
-0.22783004 0.036779534 0.74599999 4294374640
-0.22582786 0.036687069 0.74400002 4294835191
-0.22443654 0.036693171 0.74400002 4294506744
-0.22244564 0.036600579 0.74199998 4294375158
-0.22105813 0.036606595 0.74199998 4294901754
-0.21967062 0.036612563 0.74199998 4294967291
-0.21828319 0.036618497 0.74199998 4294967293
-0.2168958 0.036624394 0.74199998 4294967293
-0.21521799 0.03658089 0.741 4294967295
-0.21383254 0.036586706 0.741 4294967295
-0.21244709 0.036592484 0.741 4294967295
-0.21020722 0.036450051 0.73799998 4294967295
-0.20882747 0.036455728 0.73799998 4294967295
-0.20744777 0.036461372 0.73799998 4294967295
-0.20550963 0.036368143 0.736 4294967295
-0.20357902 0.036274854 0.73400003 4294967295
-0.20220688 0.036280349 0.73400003 4294967295
-0.2008348 0.03628581 0.73400003 4294967295
-0.1994627 0.03629123 0.73400003 4294967295
-0.19809067 0.036296614 0.73400003 4294967295
-0.19725467 0.036400873 0.736 4294967295
-0.19534668 0.036307268 0.73400003 4294967295
-0.19397476 0.036312539 0.73400003 4294967295
-0.19312765 0.036416724 0.736 4294967295
-0.19175205 0.036421936 0.736 4294967293
-0.19037643 0.036427103 0.736 4294967293
-0.18900089 0.03643224 0.736 4294967293
-0.18762536 0.036437329 0.736 4294967293
-0.18624985 0.036442384 0.736 4294967290
-0.1848744 0.036447402 0.736 4294967291
-0.18300033 0.036353327 0.73400003 4294967286
-0.18162866 0.036358248 0.73400003 4294703342
-0.18025701 0.03636314 0.73400003 4294835184
-0.17937282 0.036467083 0.736 4294835184
-0.17799748 0.036471907 0.736 4294967026
-0.1766222 0.03647669 0.736 4294967026
-0.17572314 0.03658057 0.73799998 4294769650
-0.17387168 0.036486149 0.736 4294638064
-0.17249647 0.036490817 0.736 4294769652
-0.17158629 0.036594618 0.73799998 4294835445
-0.1702074 0.036599223 0.73799998 4294967287
-0.16837101 0.036504593 0.736 4294967288
-0.16654213 0.036409903 0.73400003 4294703090
-0.16517079 0.036414359 0.73400003 4294505710
-0.1642458 0.036518022 0.736 4294966515
-0.16287078 0.036522415 0.736 4294967029
-0.16193461 0.036626033 0.73799998 4294966769
-0.16055594 0.036630366 0.73799998 4294637290
-0.15939294 0.036684297 0.73900002 4294703342
-0.15844007 0.036787849 0.741 4294703342
-0.15726778 0.036841732 0.74199998 4294769135
-0.1558817 0.036845922 0.74199998 4294769135
-0.15491211 0.036949411 0.74400002 4294967281
-0.15393505 0.037052874 0.74599999 4294967284
-0.15254159 0.037056979 0.74599999 4294967286
-0.15114816 0.037061036 0.74599999 4294966769
-0.14995548 0.037114736 0.74699998 4294966766
-0.14856024 0.037118725 0.74699998 4294966766
-0.14716502 0.037122674 0.74699998 4294967028
-0.14576982 0.037126575 0.74699998 4294967288
-0.1447612 0.037229858 0.74900001 4294966772
-0.14336233 0.037233692 0.74900001 4294966257
-0.14215301 0.037287202 0.75 4294966257
-0.14112765 0.037390407 0.75199997 4294966257
-0.14102389 0.03774222 0.759 4294900207
-0.13960645 0.037745945 0.759 4294373607
-0.13855314 0.037849098 0.76099998 4294439656
-0.13713202 0.037852746 0.76099998 4294505449
-0.13588926 0.037906103 0.76200002 4294637285
-0.13446632 0.037909679 0.76200002 4294900457
-0.1333926 0.038012721 0.764 4294900455
-0.13231145 0.038115736 0.76599997 4294505697
-0.13105197 0.03816897 0.76700002 4294439906
-0.1299578 0.038271938 0.76899999 4294110941
-0.12852193 0.038275335 0.76899999 4294241757
-0.12741661 0.038378246 0.77100003 4294110171
-0.12597707 0.038381573 0.77100003 4294308318
-0.12486058 0.038484424 0.773 4294768869
-0.12357701 0.038537465 0.77399999 4294571226
-0.12244754 0.038640261 0.77600002 4294373848
-0.12131061 0.03874303 0.778 4294176988
-0.12016626 0.038845778 0.77999997 4294111195
-0.25189838 0.038996287 0.764 4279111182
-0.24981341 0.038900983 0.76200002 4278650381
-0.24838792 0.038907718 0.76200002 4283782235
-0.24696244 0.038914416 0.76200002 4287135055
-0.24521476 0.038869999 0.76099998 4291346063
-0.24379125 0.038876612 0.76099998 4291150004
-0.24173084 0.038780998 0.759 4292202692
-0.23904471 0.038583107 0.755 4293057238
-0.23731779 0.038538445 0.75400001 4293320153
-0.23590755 0.038544849 0.75400001 4293386716
-0.23325334 0.0383467 0.75 4293715682
-0.23154153 0.038301855 0.74900001 4293914343
-0.23014079 0.038308106 0.74900001 4294309101
-0.22782385 0.038160853 0.74599999 4294309101
-0.22642881 0.038167004 0.74599999 4294045930
-0.22443046 0.038070772 0.74400002 4293914607
-0.22303921 0.038076829 0.74400002 4293783021
-0.22105215 0.037980471 0.74199998 4294440436
-0.21966471 0.037986435 0.74199998 4294440436
-0.21827732 0.037992366 0.74199998 4294570992
-0.21688996 0.037998255 0.74199998 4294636786
-0.21521217 0.037952889 0.741 4294637301
-0.21382678 0.0379587 0.741 4294834680
-0.21186799 0.037861995 0.73900002 4294967295
-0.21020156 0.037816472 0.73799998 4294967294
-0.20882188 0.037822142 0.73799998 4294967293
-0.20744213 0.037827779 0.73799998 4294967293
-0.20550409 0.037730843 0.736 4294967291
-0.20412822 0.037736386 0.736 4294967292
-0.20275241 0.037741888 0.736 4294967292
-0.20082937 0.037644785 0.73400003 4294967294
-0.19945733 0.037650198 0.73400003 4294967295
-0.19808534 0.037655573 0.73400003 4294967295
-0.19724938 0.037763529 0.736 4294967295
-0.19587369 0.037768841 0.736 4294967295
-0.19449808 0.037774123 0.736 4294967295
-0.19364724 0.037882019 0.73799998 4294967295
-0.19226792 0.037887234 0.73799998 4294638580
-0.19088863 0.037892409 0.73799998 4294638580
-0.18950938 0.03789755 0.73799998 4294967289
-0.18762031 0.037799936 0.736 4294967032
-0.18624486 0.037804984 0.736 4294966773
-0.18486942 0.03780999 0.736 4294967288
-0.18299542 0.037712205 0.73400003 4294967288
-0.18162377 0.037717126 0.73400003 4294967290
-0.18025218 0.037722006 0.73400003 4294967286
-0.179368 0.037829645 0.736 4294967026
-0.17847639 0.037937272 0.73799998 4294967285
-0.1770974 0.037942063 0.73799998 4294966513
-0.17571843 0.037946813 0.73799998 4294835184
-0.17433949 0.037951529 0.73799998 4294835184
-0.17296058 0.037956208 0.73799998 4294768367
-0.1715817 0.037960842 0.73799998 4294965746
-0.17020284 0.037965439 0.73799998 4294967285
-0.16836651 0.037867099 0.736 4294967285
-0.16653767 0.037768699 0.73400003 4294769139
-0.16516636 0.037773155 0.73400003 4294703090
-0.16424139 0.037880503 0.736 4294967289
-0.16286641 0.037884895 0.736 4294967288
-0.16193028 0.037992205 0.73799998 4294967029
-0.16055162 0.037996527 0.73799998 4294899694
-0.15938869 0.038052306 0.73900002 4294834158
-0.15843584 0.038159549 0.741 4294834158
-0.15726361 0.03821528 0.74199998 4294967285
-0.15587756 0.038219463 0.74199998 4294835184
-0.15449157 0.038223617 0.74199998 4294704107
-0.15351827 0.038330767 0.74400002 4294967281
-0.15253755 0.038437895 0.74599999 4294967292
-0.15114415 0.038441956 0.74599999 4294769650
-0.14975078 0.038445964 0.74599999 4294834412
-0.14855631 0.038501479 0.74699998 4294900205
-0.14716113 0.03850542 0.74699998 4294965996
-0.14576598 0.038509317 0.74699998 4294768104
-0.14437085 0.038513176 0.74699998 4294570724
-0.14297575 0.038516987 0.74699998 4294702310
-0.14195973 0.038623899 0.74900001 4294833899
-0.14112394 0.038782362 0.75199997 4294833899
-0.14139175 0.039250284 0.76099998 4294637036
-0.13997062 0.03925401 0.76099998 4294110691
-0.13873157 0.039309286 0.76200002 4294176485
-0.13730863 0.039312933 0.76200002 4294044898
-0.13588567 0.039316535 0.76200002 4294110171
-0.13481572 0.039423302 0.764 4294373600
-0.13338912 0.039426833 0.764 4294439652
-0.13230798 0.039533552 0.76599997 4294373859
-0.13104856 0.039588623 0.76700002 4294505699
-0.12961642 0.03959205 0.76700002 4294176735
-0.12851858 0.039698675 0.76899999 4294111455
-0.1274133 0.039805282 0.77100003 4293848539
-0.12630056 0.039911855 0.773 4293979866
-0.12485734 0.039915141 0.773 4294111708
-0.12357382 0.039970022 0.77399999 4294176988
-0.12244437 0.040076513 0.77600002 4294176988
-0.12099565 0.040079679 0.77600002 4293584597
-0.12016315 0.040289417 0.77999997 4293913562
-0.2498067 0.040311914 0.76200002 4278190864
-0.24838121 0.040318638 0.76200002 4282007886
-0.24695577 0.040325325 0.76200002 4286610248
-0.2455304 0.040331982 0.76200002 4289834105
-0.24378473 0.040285654 0.76099998 4291017387
-0.24172431 0.040186331 0.759 4291741110
-0.23903826 0.039981019 0.755 4292398790
-0.23731141 0.039934501 0.75400001 4293056720
-0.23590122 0.039940897 0.75400001 4293255135
-0.23324707 0.039735332 0.75 4293847015
-0.23184443 0.039741617 0.75 4293979616
-0.23044185 0.039747864 0.75 4294111203
-0.22812311 0.03959506 0.74699998 4294308836
-0.22642273 0.039548196 0.74599999 4293848285
-0.22442442 0.039448254 0.74400002 4293980146
-0.2230332 0.0394543 0.74400002 4293914353
-0.22164203 0.039460316 0.74400002 4294046193
-0.21965879 0.039360192 0.74199998 4294046193
-0.21827143 0.039366119 0.74199998 4294176750
-0.21688415 0.039372001 0.74199998 4294176750
-0.21520638 0.039324772 0.741 4294571252
-0.21324393 0.039224423 0.73900002 4294505458
-0.21186228 0.039230164 0.73900002 4294440438
-0.21019591 0.039182778 0.73799998 4294703353
-0.20881623 0.039188441 0.73799998 4294769652
-0.20743658 0.039194066 0.73799998 4294769652
-0.20549858 0.039093424 0.736 4294966519
-0.20412274 0.039098959 0.736 4294967294
-0.20274694 0.039104454 0.736 4294966263
-0.20082399 0.039003637 0.73400003 4294966263
-0.19945197 0.03900905 0.73400003 4294967037
-0.19808002 0.039014418 0.73400003 4294966780
-0.19724406 0.039126065 0.736 4294966782
-0.19586846 0.039131377 0.736 4294967039
-0.19449283 0.039136644 0.736 4294966513
-0.19364202 0.039248239 0.73799998 4294769135
-0.19226275 0.039253443 0.73799998 4294637551
-0.1908835 0.039258614 0.73799998 4294637551
-0.18950427 0.039263748 0.73799998 4294637551
-0.18812513 0.039268844 0.73799998 4294571758
-0.18674593 0.039273895 0.73799998 4294966773
-0.18486446 0.039172463 0.736 4294966773
-0.18348911 0.039177433 0.736 4294967285
-0.18161891 0.039075885 0.73400003 4294967286
-0.18024734 0.039080761 0.73400003 4294967283
-0.17985058 0.03929859 0.73799998 4294967022
-0.17847161 0.039303411 0.73799998 4294966769
-0.17709266 0.039308198 0.73799998 4294637803
-0.1757137 0.03931294 0.73799998 4294835184
-0.17433482 0.039317649 0.73799998 4294835184
-0.17295595 0.039322317 0.73799998 4294308588
-0.17157713 0.039326947 0.73799998 4294242795
-0.17019829 0.039331537 0.73799998 4294571242
-0.16836201 0.03922949 0.736 4294768365
-0.16653322 0.039127376 0.73400003 4294505710
-0.16516195 0.039131824 0.73400003 4294308588
-0.16468331 0.039349508 0.73799998 4294374381
-0.16330464 0.039353907 0.73799998 4294637297
-0.16214539 0.039411593 0.73900002 4294833645
-0.1607649 0.039415915 0.73900002 4294702058
-0.15938443 0.039420199 0.73900002 4294373348
-0.15843162 0.039531138 0.741 4294373348
-0.15725942 0.039588712 0.74199998 4294636769
-0.15587343 0.039592892 0.74199998 4294702562
-0.15448746 0.039597031 0.74199998 4294637539
-0.15351422 0.03970788 0.74400002 4294637539
-0.15212455 0.039711952 0.74400002 4294571494
-0.15114014 0.039822746 0.74599999 4294571494
-0.14974681 0.039826751 0.74599999 4294571242
-0.14855237 0.039884113 0.74699998 4294505449
-0.14715724 0.039888043 0.74699998 4294374109
-0.14576212 0.039891932 0.74699998 4294308316
-0.14436702 0.039895777 0.74699998 4294439652
-0.14297198 0.039899595 0.74699998 4294439652
-0.141956 0.040010203 0.74900001 4293979355
-0.14205854 0.040441327 0.75700003 4294045148
-0.14101647 0.040551919 0.759 4293979103
-0.14015087 0.040715925 0.76200002 4293847517
-0.13872792 0.040719606 0.76200002 4293979105
-0.13730501 0.040723246 0.76200002 4293979105
-0.13623877 0.040833741 0.764 4293715163
-0.13481218 0.040837307 0.764 4293715163
-0.13338563 0.040840827 0.764 4293847256
-0.13230452 0.040951237 0.76599997 4293715413
-0.13104513 0.041008152 0.76700002 4293584597
-0.12961304 0.041011564 0.76700002 4294045148
-0.12851524 0.041121889 0.76899999 4293979355
-0.12740998 0.041232187 0.77100003 4293913562
-0.12629728 0.04134246 0.773 4293913560
-0.1248541 0.04134573 0.773 4293453009
-0.12388992 0.041509438 0.77600002 4293913049
-0.12244119 0.041512638 0.77600002 4294307807
-0.12099251 0.041515794 0.77600002 4293716184
-0.12031411 0.041786432 0.78100002 4293518804
-0.24837457 0.041729435 0.76200002 4284246370
-0.24694914 0.041736115 0.76200002 4286546320
-0.24552381 0.041742757 0.76200002 4289178040
-0.24377817 0.04169457 0.76099998 4289702297
-0.24171783 0.041591536 0.759 4291215536
-0.23903185 0.041378818 0.755 4291543995
-0.23730502 0.041330434 0.75400001 4292399303
-0.23589487 0.04133682 0.75400001 4293254360
-0.23386277 0.041233502 0.75199997 4293451996
-0.2318382 0.041130118 0.75 4293124828
-0.23043567 0.041136358 0.75 4293519586
-0.22872776 0.041087706 0.74900001 4294440686
-0.22641662 0.040929265 0.74599999 4294046184
-0.2244184 0.040825613 0.74400002 4294046193
-0.22302724 0.040831663 0.74400002 4293980400
-0.22163609 0.04083766 0.74400002 4293914089
