# .PCD v0.7 - Point Cloud Data file format
VERSION 0.7
FIELDS x y z rgba
SIZE 4 4 4 4
TYPE F F F U
COUNT 1 1 1 1
WIDTH 1077
HEIGHT 1
VIEWPOINT 0 0 0 1 0 0 0
POINTS 1077
DATA ascii
0.17933215 -0.036517706 0.78100002 4294967293
0.18078114 -0.036522113 0.78100002 4294835191
0.18223004 -0.036526557 0.78100002 4294835191
0.18367888 -0.036531046 0.78100002 4294899955
0.18560171 -0.036629133 0.78299999 4294636784
0.18705413 -0.036633715 0.78299999 4294636784
0.18850648 -0.036638334 0.78299999 4294373611
0.18995875 -0.036642998 0.78299999 4293715682
0.19141096 -0.0366477 0.78299999 4293584095
0.19286308 -0.036652442 0.78299999 4293255637
0.19431512 -0.036657225 0.78299999 4292926415
0.20882216 -0.037212521 0.79400003 4291017904
0.21135338 -0.037405241 0.79799998 4291149491
0.21283258 -0.037410535 0.79799998 4291017904
0.21377461 -0.0373221 0.796 4290753447
0.2152499 -0.037327465 0.796 4290753447
0.21672519 -0.037332874 0.796 4290621861
0.2182004 -0.037338324 0.796 4290490275
0.22022751 -0.037437644 0.79799998 4290359457
0.22170629 -0.037443191 0.79799998 4289898906
0.22318497 -0.037448786 0.79799998 4290095519
0.22410057 -0.037360545 0.796 4289898141
0.22557546 -0.037366208 0.796 4289568919
0.22762075 -0.037465811 0.79799998 4289174417
0.23053466 -0.037706356 0.80299997 4289239949
0.23260021 -0.037806127 0.80500001 4288713349
0.2346731 -0.037905965 0.80699998 4288516488
0.23733863 -0.038099837 0.81099999 4288516488
0.23884094 -0.038105864 0.81099999 4287991688
0.24034314 -0.038111936 0.81099999 4287399551
0.24184531 -0.03811805 0.81099999 4286873707
0.26255116 -0.041132778 0.875 4286479205
0.26417172 -0.041139476 0.875 4287266184
0.26518473 -0.04105217 0.87300003 4288450458
0.26680145 -0.041058943 0.87300003 4288978315
0.2684181 -0.04106576 0.87300003 4289899417
0.27219996 -0.041401956 0.88 4290228398
0.2738294 -0.041408926 0.88 4291149500
0.27608496 -0.041510072 0.88200003 4291740610
0.27771804 -0.041517153 0.88200003 4291740610
0.279351 -0.041524276 0.88200003 4291609538
0.28098395 -0.041531455 0.88200003 4291609538
0.28261685 -0.041538678 0.88200003 4291347136
0.111333 -0.037396174 0.83700001 4294967268
0.11262006 -0.037309345 0.83499998 4294967295
0.11389959 -0.037222553 0.833 4294967295
0.11517165 -0.037135787 0.83099997 4294967295
0.11643616 -0.037049051 0.829 4294967295
0.11769318 -0.036962345 0.82700002 4294967295
0.11894267 -0.036875665 0.82499999 4294967295
0.12018465 -0.036789011 0.82300001 4294967295
0.12141912 -0.036702387 0.82099998 4294967295
0.12264609 -0.036615796 0.81900001 4294967295
0.1232591 -0.036350377 0.81300002 4294967295
0.12415666 -0.036174394 0.80900002 4294967295
0.12534991 -0.036087859 0.80699998 4294967295
0.1265357 -0.036001347 0.80500001 4294967295
0.12803204 -0.036004312 0.80500001 4294967295
0.12920652 -0.03591786 0.80299997 4294967295
0.13053623 -0.035876166 0.80199999 4294967295
0.13202678 -0.035879247 0.80199999 4294967295
0.13351727 -0.035882365 0.80199999 4294967295
0.13467099 -0.035796035 0.80000001 4294967295
0.13615762 -0.035799224 0.80000001 4294967295
0.13730003 -0.03571295 0.79799998 4294967295
0.13878278 -0.03571621 0.79799998 4294967295
0.13991393 -0.035629995 0.796 4294967295
0.14139283 -0.035633329 0.796 4294967295
0.14287165 -0.035636704 0.796 4294967295
0.14362499 -0.035461023 0.792 4294967295
0.14509624 -0.035464462 0.792 4294967295
0.14693753 -0.035557512 0.79400003 4294967295
0.14803851 -0.035471462 0.792 4294967295
0.14950953 -0.035475019 0.792 4294967295
0.15098044 -0.035478622 0.792 4294967295
0.15245134 -0.035482261 0.792 4294967295
0.15392216 -0.035485946 0.792 4294967295
0.15539287 -0.035489663 0.792 4294967295
0.15725966 -0.035583057 0.79400003 4294967295
0.15873393 -0.035586871 0.79400003 4294967295
0.16020817 -0.035590723 0.79400003 4294967295
0.16168234 -0.03559462 0.79400003 4294967295
0.16315641 -0.03559855 0.79400003 4294967295
0.1642157 -0.035512842 0.792 4294967295
0.16463992 -0.035292629 0.787 4294967295
0.16610079 -0.035296649 0.787 4294967295
0.16756158 -0.035300709 0.787 4294967295
0.16859278 -0.035215091 0.78500003 4294967295
0.1700497 -0.035219219 0.78500003 4294967295
0.17150654 -0.035223387 0.78500003 4294967295
0.17296335 -0.0352276 0.78500003 4294967295
0.17397568 -0.03514209 0.78299999 4294967295
0.17542863 -0.035146371 0.78299999 4294967295
0.17688146 -0.035150692 0.78299999 4294967295
0.17833427 -0.035155058 0.78299999 4294967295
0.179787 -0.035159457 0.78299999 4294967291
0.18123965 -0.035163905 0.78299999 4294966776
0.18269224 -0.035168387 0.78299999 4294834932
0.18414474 -0.035172913 0.78299999 4294965235
0.18559717 -0.035177473 0.78299999 4294636013
0.18704955 -0.035182085 0.78299999 4294636013
0.18850185 -0.03518673 0.78299999 4294636013
0.18995407 -0.035191424 0.78299999 4293847013
0.19140624 -0.035196148 0.78299999 4293255133
0.19285831 -0.035200916 0.78299999 4293254612
0.19431034 -0.035205726 0.78299999 4293254612
0.20535457 -0.035640456 0.792 4292070591
0.20682278 -0.035645612 0.792 4291478201
0.20881698 -0.035740834 0.79400003 4291215286
0.21028875 -0.03574609 0.79400003 4291083696
0.21229389 -0.035841439 0.796 4290623145
0.21376924 -0.035846788 0.796 4290884517
0.21524453 -0.035852183 0.796 4290818724
0.21671982 -0.035857614 0.796 4290360240
0.21819492 -0.03586309 0.796 4290096812
0.220222 -0.03595873 0.79799998 4289834657
0.22170073 -0.035964303 0.79799998 4289703328
0.22317939 -0.03596992 0.79799998 4289964447
0.22465803 -0.035975583 0.79799998 4289569945
0.22670332 -0.036071464 0.80000001 4289173652
0.22875595 -0.036167413 0.80199999 4289239445
0.23052889 -0.03621833 0.80299997 4289370511
0.23259436 -0.036314424 0.80500001 4288844167
0.23466723 -0.036410585 0.80699998 4288647304
0.23733263 -0.036597069 0.81099999 4288515717
0.2388349 -0.036603123 0.81099999 4287662980
0.2409298 -0.036699504 0.81300002 4287070842
0.2424356 -0.036705662 0.81300002 4287331948
0.26254451 -0.039511535 0.875 4287529326
0.26416504 -0.039518259 0.875 4287593852
0.26517799 -0.039434683 0.87300003 4288580747
0.26679468 -0.039441481 0.87300003 4288450956
0.26841131 -0.039448328 0.87300003 4289569693
0.27219298 -0.039771587 0.88 4290227115
0.27382246 -0.039778579 0.88 4291016887
0.2760779 -0.039876051 0.88200003 4291805890
0.27771094 -0.039883155 0.88200003 4291805890
0.27934387 -0.039890312 0.88200003 4292268238
0.28097683 -0.039897516 0.88200003 4291676100
0.28260964 -0.03990477 0.88200003 4291150788
0.28520924 -0.040047821 0.88499999 4291742925
0.11288725 -0.0358456 0.83700001 4294967295
0.11389702 -0.035676893 0.833 4294967295
0.11516903 -0.035593856 0.83099997 4294967295
0.11643351 -0.035510857 0.829 4294967295
0.11797511 -0.035513565 0.829 4294967295
0.11922829 -0.035430633 0.82700002 4294967295
0.12018189 -0.035262026 0.82300001 4294967295
0.12141632 -0.035179142 0.82099998 4294967295
0.12294276 -0.035181984 0.82099998 4294967295
0.12355945 -0.034927737 0.815 4294967295
0.1244607 -0.034759205 0.81099999 4294967295
0.12534703 -0.034590684 0.80699998 4294967295
0.12684712 -0.034593638 0.80699998 4294967295
0.12802906 -0.034510903 0.80500001 4294967295
0.1292035 -0.034428183 0.80299997 4294967295
0.13069594 -0.034431245 0.80299997 4294967295
0.13218831 -0.034434356 0.80299997 4294967295
0.13351412 -0.034394618 0.80199999 4294967295
0.13466784 -0.034312021 0.80000001 4294967295
0.1361544 -0.034315236 0.80000001 4294967295
0.13764089 -0.034318492 0.80000001 4294967295
0.13877952 -0.034235984 0.79799998 4294967295
0.13991064 -0.034153499 0.796 4294967295
0.14138947 -0.034156859 0.796 4294967295
0.14286825 -0.03416026 0.796 4294967295
0.14362159 -0.033992026 0.792 4294967295
0.14509279 -0.033995491 0.792 4294967295
0.14693403 -0.034084857 0.79400003 4294967295
0.1484088 -0.034088407 0.79400003 4294967295
0.14950597 -0.034006126 0.792 4294967295
0.15097685 -0.034009755 0.792 4294967295
0.15244769 -0.034013413 0.792 4294967295
0.15391846 -0.034017131 0.792 4294967295
0.15538913 -0.034020875 0.792 4294967295
0.15685974 -0.034024663 0.792 4294967295
0.15873012 -0.03411442 0.79400003 4294967295
0.16020429 -0.034118295 0.79400003 4294967295
0.16167842 -0.034122217 0.79400003 4294967295
0.16233052 -0.033954255 0.79000002 4294967295
0.16379705 -0.033958238 0.79000002 4294967295
0.16505431 -0.03391926 0.78899997 4294967295
0.16609676 -0.033837326 0.787 4294967295
0.16755749 -0.033841416 0.787 4294967295
0.16901819 -0.033845544 0.787 4294967295
0.17047879 -0.033849709 0.787 4294967295
0.17150238 -0.033767886 0.78500003 4294967295
0.17295912 -0.033772122 0.78500003 4294967295
0.17441581 -0.033776399 0.78500003 4294967295
0.17587243 -0.033780724 0.78500003 4294967295
0.17687716 -0.033698998 0.78299999 4294967295
0.1783299 -0.033703387 0.78299999 4294967292
0.17978258 -0.033707816 0.78299999 4294966773
0.18123519 -0.033712287 0.78299999 4294966265
0.18268773 -0.033716798 0.78299999 4294833908
0.18414022 -0.033721346 0.78299999 4294636013
0.18559259 -0.033725936 0.78299999 4294438891
0.18704493 -0.03373057 0.78299999 4294176233
0.18849717 -0.033735242 0.78299999 4294176233
0.18994939 -0.033739962 0.78299999 4293912808
0.1914015 -0.033744711 0.78299999 4293189085
0.19285353 -0.033749506 0.78299999 4293320405
0.20534945 -0.034172542 0.792 4291610294
0.20681763 -0.034177728 0.792 4291676089
0.20881177 -0.03426927 0.79400003 4291478453
0.21028349 -0.034274548 0.79400003 4291082664
0.21228857 -0.03436622 0.796 4290687906
0.21376391 -0.034371596 0.796 4290687654
0.21523912 -0.034377012 0.796 4290358946
0.21671434 -0.034382474 0.796 4289898413
0.21818946 -0.034387976 0.796 4289767084
0.22021648 -0.034479935 0.79799998 4290030494
0.2222508 -0.034571972 0.80000001 4290227617
0.2237331 -0.034577627 0.80000001 4289898393
0.22521539 -0.034583326 0.80000001 4289437842
0.22669759 -0.034589063 0.80000001 4289239193
0.22875018 -0.034681335 0.80199999 4289239193
0.23109721 -0.034816928 0.80500001 4289239949
0.23258848 -0.03482284 0.80500001 4288581763
0.23466127 -0.034915321 0.80699998 4288514954
0.23732664 -0.035094421 0.81099999 4288449161
0.23882885 -0.035100501 0.81099999 4287924864
0.25929669 -0.037877064 0.875 4286937968
0.2603209 -0.037797127 0.87300003 4286938748
0.26193777 -0.03780381 0.87300003 4287465348
0.26355451 -0.037810545 0.87300003 4287529856
0.26517123 -0.037817325 0.87300003 4287990407
0.26678789 -0.037824154 0.87300003 4288189335
0.26901931 -0.037917696 0.875 4288518300
0.27218604 -0.03814134 0.88 4289305501
0.27381545 -0.038148366 0.88 4290028968
0.27700984 -0.038372237 0.88499999 4291016115
0.27864841 -0.038379394 0.88499999 4291542715
0.28028685 -0.038386598 0.88499999 4292004548
0.28192526 -0.038393855 0.88499999 4292267719
0.28356361 -0.038401164 0.88499999 4291939538
0.28520191 -0.03840851 0.88499999 4292465882
0.1138944 -0.034131348 0.833 4294967295
0.11516636 -0.034052055 0.83099997 4294967295
0.11671172 -0.034054749 0.83099997 4294967295
0.11797237 -0.033975519 0.829 4294967295
0.11922552 -0.03389632 0.82700002 4294967295
0.12047116 -0.033817146 0.82499999 4294967295
0.12170928 -0.033738006 0.82300001 4294967295
0.12293987 -0.033658884 0.82099998 4294967295
0.1244662 -0.033661794 0.82099998 4294967295
0.12507164 -0.033418719 0.815 4294967295
0.12565473 -0.033175644 0.80900002 4294967295
0.12684415 -0.033096611 0.80699998 4294967295
0.12834412 -0.033099636 0.80699998 4294967295
0.12952225 -0.033020664 0.80500001 4294967295
0.13069284 -0.03294171 0.80299997 4294967295
0.13218521 -0.032944847 0.80299997 4294967295
0.13351098 -0.032906987 0.80199999 4294967295
0.13500129 -0.032910194 0.80199999 4294967295
0.13615118 -0.032831367 0.80000001 4294967295
0.13763765 -0.032834649 0.80000001 4294967295
0.13877621 -0.032755874 0.79799998 4294967295
0.1399073 -0.032677125 0.796 4294967295
0.14138609 -0.032680511 0.796 4294967295
0.14286484 -0.032683939 0.796 4294967295
0.14361815 -0.032523148 0.792 4294967295
0.14508931 -0.032526638 0.792 4294967295
0.1469305 -0.032612316 0.79400003 4294967295
0.14840524 -0.032615896 0.79400003 4294967295
0.14950237 -0.032537349 0.792 4294967295
0.15097322 -0.032540999 0.792 4294967295
0.15244401 -0.032544691 0.792 4294967295
0.15391475 -0.032548424 0.792 4294967295
0.15538538 -0.032552198 0.792 4294967295
0.15685594 -0.032556005 0.792 4294967295
0.15832645 -0.03255986 0.792 4294967295
0.15979688 -0.032563753 0.792 4294967295
0.16126724 -0.032567691 0.792 4294967295
0.16232659 -0.032489419 0.79000002 4294967295
0.16379309 -0.03249342 0.79000002 4294967295
0.16505028 -0.032456331 0.78899997 4294967295
0.16651477 -0.03246041 0.78899997 4294967295
0.1679792 -0.032464534 0.78899997 4294967295
0.16901407 -0.032386392 0.787 4294967295
0.17047463 -0.032390587 0.787 4294967295
0.17149815 -0.032312497 0.78500003 4294967295
0.17295489 -0.032316759 0.78500003 4294967295
0.17441151 -0.032321062 0.78500003 4294967295
0.17586809 -0.032325409 0.78500003 4294967295
0.17687279 -0.03224742 0.78299999 4294967295
0.1783255 -0.032251835 0.78299999 4294967293
0.17977814 -0.03225629 0.78299999 4294901237
0.18123072 -0.032260783 0.78299999 4294966263
0.18268321 -0.032265324 0.78299999 4294636784
0.18413565 -0.032269899 0.78299999 4294570220
0.185588 -0.032274518 0.78299999 4294438891
0.18751805 -0.032361627 0.78500003 4293584097
0.18897396 -0.032366335 0.78500003 4293847013
0.18994467 -0.032288615 0.78299999 4293847267
0.19139674 -0.03229339 0.78299999 4293189337
0.19334134 -0.032380715 0.78500003 4293450708
0.20534433 -0.032704752 0.792 4291478455
0.20681246 -0.03270996 0.792 4291544510
0.20880651 -0.032797828 0.79400003 4291281594
0.21027821 -0.032803133 0.79400003 4290754983
0.2117499 -0.032808479 0.79400003 4290557603
0.2137585 -0.032896519 0.796 4290622115
0.21523374 -0.032901965 0.796 4290358944
0.21670888 -0.032907452 0.796 4289832613
0.21818396 -0.032912981 0.796 4289832613
0.21965902 -0.032918554 0.796 4289897370
0.22224517 -0.033089612 0.80000001 4289766041
0.22372745 -0.033095296 0.80000001 4289437071
0.2252097 -0.033101019 0.80000001 4289502865
0.22725856 -0.033189554 0.80199999 4289239697
0.22902961 -0.033236772 0.80299997 4289107855
0.23166546 -0.033408239 0.80699998 4288779659
0.23316042 -0.033414189 0.80699998 4288450695
0.23523684 -0.033503 0.80900002 4288515204
0.23732062 -0.033591893 0.81099999 4288186496
0.23941176 -0.033680856 0.81300002 4287595649
0.25929007 -0.036256019 0.875 4287003512
0.26031429 -0.036179814 0.87300003 4286609787
0.26133096 -0.036103625 0.87099999 4287859854
0.26294401 -0.036110371 0.87099999 4287335554
0.26455697 -0.036117166 0.87099999 4287401348
0.26678103 -0.036206961 0.87300003 4288189846
0.26839757 -0.03621386 0.87300003 4288584604
0.27156052 -0.036428262 0.87800002 4289239706
0.27443075 -0.036601286 0.88200003 4290095015
0.27700272 -0.036732916 0.88499999 4290095265
0.27864119 -0.036740106 0.88499999 4290621609
0.28027964 -0.036747344 0.88499999 4291082162
0.28191802 -0.036754627 0.88499999 4291608506
0.28355634 -0.036761958 0.88499999 4292070089
0.11544088 -0.032588612 0.833 4294967295
0.11670901 -0.032513093 0.83099997 4294967295
0.11825424 -0.032515854 0.83099997 4294967295
0.11951105 -0.032440398 0.829 4294967295
0.12076037 -0.032364964 0.82700002 4294967295
0.12170642 -0.032211285 0.82300001 4294967295
0.12323648 -0.032214187 0.82300001 4294967295
0.12446326 -0.032138836 0.82099998 4294967295
0.12506871 -0.031906918 0.815 4294967295
0.12627304 -0.031831611 0.81300002 4294967295
0.1271555 -0.031678017 0.80900002 4294967295
0.12834109 -0.031602748 0.80699998 4294967295
0.12951918 -0.031527512 0.80500001 4294967295
0.13101526 -0.031530637 0.80500001 4294967295
0.13218203 -0.031455453 0.80299997 4294967295
0.13367426 -0.03145865 0.80299997 4294967295
0.13499807 -0.031422708 0.80199999 4294967295
0.13648829 -0.031425979 0.80199999 4294967295
0.13763434 -0.031350922 0.80000001 4294967295
0.13912068 -0.031354271 0.80000001 4294967295
0.14060697 -0.031357657 0.80000001 4294967295
0.14209317 -0.031361084 0.80000001 4294967295
0.14322034 -0.031286143 0.79799998 4294967295
0.14397736 -0.031132806 0.79400003 4294967295
0.14545219 -0.031136332 0.79400003 4294967295
0.14692695 -0.03113989 0.79400003 4294967295
0.14840163 -0.031143501 0.79400003 4294967295
0.14949873 -0.031068685 0.792 4294967295
0.15096955 -0.031072363 0.792 4294967295
0.15244029 -0.031076079 0.792 4294967295
0.15391099 -0.031079838 0.792 4294967295
0.15538161 -0.031083634 0.792 4294967295
0.15685214 -0.031087477 0.792 4294967295
0.15832259 -0.031091353 0.792 4294967295
0.15979297 -0.031095274 0.792 4294967295
0.16126327 -0.031099234 0.792 4294967295
0.1623226 -0.031024693 0.79000002 4294967295
0.16378905 -0.031028727 0.79000002 4294967295
0.16504623 -0.030993514 0.78899997 4294967295
0.1665107 -0.030997623 0.78899997 4294967295
0.16797507 -0.031001769 0.78899997 4294967295
0.16943939 -0.031005958 0.78899997 4294967295
0.17090364 -0.031010188 0.78899997 4294967295
0.17193086 -0.030935843 0.787 4294967295
0.1729506 -0.030861514 0.78500003 4294967295
0.17440721 -0.030865844 0.78500003 4294967295
0.17586373 -0.030870212 0.78500003 4294967295
0.17686841 -0.030795963 0.78299999 4294967295
0.17832106 -0.0308004 0.78299999 4294967290
0.17977369 -0.030804884 0.78299999 4294967285
0.18168911 -0.030888097 0.78500003 4294966261
0.1831453 -0.030892676 0.78500003 4294374381
0.18507171 -0.030976005 0.787 4294374381
0.18653142 -0.030980673 0.787 4294505710
0.1879911 -0.030985378 0.787 4293847785
0.18945071 -0.030990129 0.787 4293716199
0.19042507 -0.030916149 0.78500003 4293649622
0.19188082 -0.030920971 0.78500003 4292925900
0.1933365 -0.030925829 0.78500003 4293122513
0.20533916 -0.031237077 0.792 4291346867
0.20680724 -0.031242315 0.792 4291346104
0.20880121 -0.031326495 0.79400003 4291148469
0.21027289 -0.031331833 0.79400003 4291082662
0.21174455 -0.031337205 0.79400003 4290687904
0.21375312 -0.031421568 0.796 4290622113
0.21522826 -0.031427037 0.796 4290490527
0.2167034 -0.03143255 0.796 4290029472
0.21817844 -0.031438105 0.796 4290029472
0.21965344 -0.0314437 0.796 4289897111
0.22223952 -0.031607375 0.80000001 4289962904
0.22372177 -0.031613089 0.80000001 4289568147
0.22520395 -0.031618834 0.80000001 4289502353
0.23036975 -0.032138534 0.81300002 4289042062
0.23073502 -0.031986311 0.80900002 4288976268
0.23223369 -0.031992257 0.80900002 4288779146
0.23257664 -0.031840034 0.80500001 4288581511
0.23406774 -0.031846039 0.80500001 4288580481
0.23672928 -0.032010354 0.80900002 4287922552
0.23999457 -0.032253921 0.815 4287593602
0.24150397 -0.032260131 0.815 4287462016
0.26030761 -0.034562636 0.87300003 4287265153
0.26132432 -0.034490183 0.87099999 4288646806
0.26293725 -0.034496959 0.87099999 4288254337
0.26455018 -0.03450378 0.87099999 4288451460
0.26677421 -0.03458989 0.87300003 4288386448
0.26839063 -0.034596823 0.87300003 4289044379
0.27155355 -0.034801986 0.87800002 4289371043
0.27442369 -0.034967635 0.88200003 4290226351
0.2769956 -0.035093736 0.88499999 4290029470
0.27863404 -0.035100956 0.88499999 4290227105
0.28027242 -0.03510822 0.88499999 4290293932
0.28254783 -0.035194889 0.88700002 4290754483
0.28418979 -0.035202265 0.88700002 4291478201
0.11571531 -0.031117875 0.83499998 4294967295
0.11698715 -0.031046094 0.833 4294967295
0.11825145 -0.030974343 0.83099997 4294967295
0.11950824 -0.030902622 0.829 4294967295
0.12075753 -0.030830925 0.82700002 4294967295
0.12199929 -0.030759258 0.82499999 4294967295
0.12323356 -0.030687615 0.82300001 4294967295
0.12385392 -0.030466836 0.81699997 4294967295
0.12506571 -0.03039524 0.815 4294967295
0.12595938 -0.030249065 0.81099999 4294967295
0.12715247 -0.030177513 0.80900002 4294967295
0.12833802 -0.03010598 0.80699998 4294967295
0.12951609 -0.030034479 0.80500001 4294967295
0.13101211 -0.030037627 0.80500001 4294967295
0.13217886 -0.029966179 0.80299997 4294967295
0.13367105 -0.029969404 0.80299997 4294967295
0.13499483 -0.029935341 0.80199999 4294967295
0.136485 -0.02993864 0.80199999 4294967295
0.13849121 -0.030053983 0.80500001 4294967295
0.13911732 -0.029870687 0.80000001 4294967295
0.14060356 -0.029874099 0.80000001 4294967295
0.14208971 -0.029877549 0.80000001 4294967295
0.14321686 -0.029806344 0.79799998 4294967295
0.14397386 -0.029660452 0.79400003 4294967295
0.14544865 -0.029663999 0.79400003 4294967295
0.14729345 -0.029742315 0.796 4294967295
0.14839801 -0.029671218 0.79400003 4294967295
0.1498726 -0.029674893 0.79400003 4294967295
0.1513471 -0.029678602 0.79400003 4294967295
0.15243658 -0.02960759 0.792 4294967295
0.15390722 -0.02961137 0.792 4294967295
0.15537779 -0.029615194 0.792 4294967295
0.15684828 -0.029619059 0.792 4294967295
0.1583187 -0.029622965 0.792 4294967295
0.15978904 -0.029626908 0.792 4294967295
0.16125931 -0.029630894 0.792 4294967295
0.16272953 -0.029634921 0.792 4294967295
0.16378503 -0.029564144 0.79000002 4294967295
0.16525134 -0.029568244 0.79000002 4294967295
0.16650657 -0.029534947 0.78899997 4294967295
0.16797093 -0.029539119 0.78899997 4294967295
0.16943519 -0.029543335 0.78899997 4294967295
0.17089939 -0.029547591 0.78899997 4294967295
0.1723635 -0.029551888 0.78899997 4294967295
0.17338693 -0.029481307 0.787 4294967295
0.17440286 -0.029410738 0.78500003 4294967295
0.17585936 -0.029415134 0.78500003 4294967295
0.17686401 -0.02934462 0.78299999 4294967295
0.17831662 -0.029349079 0.78299999 4294967294
0.1797692 -0.029353587 0.78299999 4294967032
0.18168458 -0.029433124 0.78500003 4294835191
0.18314071 -0.029437725 0.78500003 4294506483
0.18506707 -0.029517381 0.787 4294571504
0.18652676 -0.029522071 0.787 4294242795
0.18798639 -0.029526802 0.787 4293782757
0.19016813 -0.029644152 0.79000002 4293585379
0.19139057 -0.029611452 0.78899997 4293189589
0.1928537 -0.029616322 0.78899997 4292926161
0.19431673 -0.029621234 0.78899997 4293188304
0.19528346 -0.029551087 0.787 4292530373
0.19870546 -0.02963621 0.78899997 4292463304
0.20188653 -0.029683979 0.79000002 4291610305
0.20335102 -0.029689144 0.79000002 4291610040
0.20481543 -0.029694347 0.79000002 4290886316
0.20732427 -0.029849973 0.79400003 4291474608
0.20879596 -0.02985529 0.79400003 4291408815
0.21026759 -0.029860647 0.79400003 4291081127
0.21173915 -0.029866045 0.79400003 4290752418
0.21374768 -0.02994673 0.796 4290227617
0.21576355 -0.030027481 0.79799998 4290227617
0.2166979 -0.029957768 0.796 4290095013
0.21817286 -0.029963344 0.796 4289832098
0.22019966 -0.030044265 0.79799998 4289961882
0.22223385 -0.03012526 0.80000001 4290027675
0.22371605 -0.030130995 0.80000001 4289765269
0.22576119 -0.030212114 0.80199999 4289436560
0.23036385 -0.030632414 0.81300002 4289042316
0.23129953 -0.030562999 0.81099999 4288976522
0.23280185 -0.030568987 0.81099999 4288777611
0.23257068 -0.030348817 0.80500001 4288711817
0.23406179 -0.030354844 0.80500001 4288448896
0.23672324 -0.030511776 0.80900002 4287527794
0.2399884 -0.030744258 0.815 4287658353
0.24149778 -0.030750491 0.815 4287921268
0.26089722 -0.03302107 0.875 4287527548
0.26191759 -0.032952368 0.87300003 4288382601
0.26293048 -0.03288367 0.87099999 4288120698
0.26454335 -0.032890521 0.87099999 4288976007
0.26737845 -0.033048499 0.875 4288713362
0.26899856 -0.033055469 0.875 4289239706
0.27154648 -0.033175848 0.87800002 4289305249
0.2744166 -0.033334117 0.88200003 4289831594
0.27698845 -0.03345469 0.88499999 4289504161
0.27862683 -0.033461932 0.88499999 4289898919
0.28026512 -0.033469226 0.88499999 4290228398
0.28254056 -0.033552222 0.88700002 4290688949
0.11698437 -0.029500972 0.833 4294967287
0.11824864 -0.029432958 0.83099997 4294967295
0.1197937 -0.029435806 0.83099997 4294967295
0.12104668 -0.029367857 0.829 4294967295
0.12229215 -0.029299932 0.82700002 4294967295
0.12323061 -0.02916117 0.82300001 4294967295
0.12385096 -0.028951546 0.81699997 4294967295
0.12506273 -0.028883681 0.815 4294967295
0.12595637 -0.028744949 0.81099999 4294967295
0.12714942 -0.02867713 0.80900002 4294967295
0.128653 -0.028680241 0.80900002 4294967295
0.12983473 -0.028612472 0.80699998 4294967295
0.13100895 -0.028544739 0.80500001 4294967295
0.13217567 -0.028477022 0.80299997 4294967295
0.13366781 -0.028480271 0.80299997 4294967295
0.13515988 -0.028483564 0.80299997 4294967295
0.13699222 -0.028557846 0.80500001 4294967295
0.13848783 -0.028561223 0.80500001 4294967295
0.13946173 -0.028458189 0.80199999 4294967295
0.14060013 -0.028390659 0.80000001 4294967295
0.14208625 -0.028394137 0.80000001 4294967295
0.14321338 -0.028326666 0.79799998 4294967295
0.14397034 -0.028188212 0.79400003 4294967295
0.14544508 -0.028191784 0.79400003 4294967295
0.14728984 -0.028266426 0.796 4294967295
0.14876817 -0.02827009 0.796 4294967295
0.14986894 -0.028202755 0.79400003 4294967295
0.15134338 -0.028206494 0.79400003 4294967295
0.15281777 -0.028210269 0.79400003 4294967295
0.15429208 -0.02821409 0.79400003 4294967295
0.15576631 -0.028217947 0.79400003 4294967295
0.15724048 -0.028221849 0.79400003 4294967295
0.15831476 -0.02815469 0.792 4294967295
0.15978509 -0.028158665 0.792 4294967295
0.16125531 -0.028162673 0.792 4294967295
0.16272548 -0.028166728 0.792 4294967295
0.16419558 -0.028170822 0.792 4294967295
0.16566557 -0.02817495 0.792 4294967295
0.16671348 -0.028107973 0.79000002 4294967295
0.16817963 -0.028112179 0.79000002 4294967295
0.16943097 -0.02808083 0.78899997 4294967295
0.17089513 -0.028085113 0.78899997 4294967295
0.1723592 -0.028089434 0.78899997 4294967295
0.1733826 -0.028022585 0.787 4294967295
0.17484282 -0.028026978 0.787 4294967295
0.176303 -0.028031411 0.787 4294967295
0.17731132 -0.027964635 0.78500003 4294967295
0.17876762 -0.027969137 0.78500003 4294967292
0.18022385 -0.027973685 0.78500003 4294901239
0.18214288 -0.028049549 0.787 4294966521
0.18360269 -0.028054187 0.787 4294703092
0.18506241 -0.028058862 0.787 4294373609
0.18652208 -0.028063584 0.787 4293518300
0.18798165 -0.028068345 0.787 4293518554
0.1901633 -0.028180156 0.79000002 4293584347
0.19138575 -0.028149338 0.78899997 4293386714
0.19284883 -0.028154235 0.78899997 4292991956
0.19381927 -0.028087791 0.787 4292859591
0.19527851 -0.028092757 0.787 4292267454
0.19870043 -0.028174231 0.78899997 4292134850
0.2001632 -0.028179331 0.78899997 4291872961
0.20162584 -0.028184472 0.78899997 4291675583
0.20308846 -0.028189655 0.78899997 4291675569
0.20481023 -0.028230619 0.79000002 4290820260
0.20679672 -0.028307375 0.792 4291015602
0.20879065 -0.028384198 0.79400003 4290884016
0.21026222 -0.028389584 0.79400003 4290490023
0.21173373 -0.028395008 0.79400003 4290227107
0.21374223 -0.028472016 0.796 4290030496
0.21575804 -0.02854909 0.79799998 4289832861
0.21723677 -0.028554665 0.79799998 4289897893
0.21871543 -0.028560286 0.79799998 4289634464
0.22019406 -0.028565949 0.79799998 4289633951
0.22222815 -0.028643264 0.80000001 4289568158
0.2237103 -0.028649027 0.80000001 4289306003
0.22575542 -0.028726472 0.80199999 4289240210
0.23035793 -0.029126415 0.81300002 4288779659
0.23129357 -0.029060736 0.81099999 4288713866
0.23279588 -0.029066747 0.81099999 4288448907
0.23429808 -0.029072803 0.81099999 4288054405
0.23521875 -0.029007193 0.80900002 4287989112
0.2367171 -0.029013319 0.80900002 4287133803
0.23998217 -0.029234715 0.815 4286937719
0.25927007 -0.031393684 0.875 4287398269
0.26089051 -0.031400457 0.875 4287464063
0.26251087 -0.031407267 0.875 4288253835
0.26352742 -0.031342328 0.87300003 4288187266
0.26514396 -0.031349216 0.87300003 4288713866
0.26737151 -0.031427991 0.875 4288713112
0.26991388 -0.031542771 0.87800002 4289107870
0.272158 -0.031621709 0.88 4289107618
0.27534282 -0.031808555 0.88499999 4289831598
0.27698123 -0.031815782 0.88499999 4289635498
0.27861956 -0.031823054 0.88499999 4289964462
0.28089124 -0.031902306 0.88700002 4289966257
0.28253317 -0.031909689 0.88700002 4290492601
0.11698158 -0.027955974 0.833 4294967267
0.11853041 -0.02795882 0.833 4294967295
0.11979083 -0.02789457 0.83099997 4294967295
0.12104377 -0.027830353 0.829 4294967295
0.1222892 -0.027766161 0.82700002 4294967295
0.12352711 -0.027701998 0.82499999 4294967295
0.12384798 -0.027436374 0.81699997 4294967295
0.12505969 -0.027372239 0.815 4294967295
0.12595332 -0.027240954 0.81099999 4294967295
0.12714632 -0.027176866 0.80900002 4294967295
0.12864986 -0.027180001 0.80900002 4294967295
0.12983158 -0.027115971 0.80699998 4294967295
0.13100576 -0.02705197 0.80500001 4294967295
0.13217245 -0.026987987 0.80299997 4294967295
0.13366455 -0.026991261 0.80299997 4294967295
0.1354932 -0.027061814 0.80500001 4294967295
0.13698886 -0.027065177 0.80500001 4294967295
0.13848443 -0.02706858 0.80500001 4294967295
0.1396322 -0.027004762 0.80299997 4294967295
0.14094818 -0.026974607 0.80199999 4294967295
0.14208277 -0.026910841 0.80000001 4294967295
0.14320984 -0.026847104 0.79799998 4294967295
0.14432941 -0.026783386 0.796 4294967295
0.14580785 -0.026786996 0.796 4294967295
0.14765625 -0.026857961 0.79799998 4294967295
0.14876448 -0.026794337 0.796 4294967295
0.1502427 -0.026798068 0.796 4294967295
0.15172084 -0.026801843 0.796 4294967295
0.15281399 -0.026738307 0.79400003 4294967295
0.15428825 -0.026742151 0.79400003 4294967295
0.15576245 -0.026746035 0.79400003 4294967295
0.15723656 -0.026749963 0.79400003 4294967295
0.15871061 -0.026753923 0.79400003 4294967295
0.16018459 -0.026757935 0.79400003 4294967295
0.16125129 -0.026694566 0.792 4294967295
0.16272141 -0.026698649 0.792 4294967295
0.16419148 -0.026702769 0.792 4294967295
0.16566142 -0.026706927 0.792 4294967295
0.1667093 -0.026643682 0.79000002 4294967295
0.1681754 -0.02664791 0.79000002 4294967295
0.16964145 -0.026652183 0.79000002 4294967295
0.17110744 -0.026656495 0.79000002 4294967295
0.17235486 -0.026627099 0.78899997 4294967295
0.17337824 -0.02656398 0.787 4294967295
0.17483844 -0.026568398 0.787 4294967295
0.17629854 -0.026572861 0.787 4294967295
0.17730686 -0.026509818 0.78500003 4294967295
0.17876311 -0.026514348 0.78500003 4294967295
0.18021931 -0.026518919 0.78500003 4294440690
0.18213829 -0.026591104 0.787 4294307818
0.18359804 -0.026595764 0.787 4294307818
0.18505773 -0.026600469 0.787 4293978853
0.18699133 -0.026672827 0.78899997 4293518302
0.18845458 -0.026677623 0.78899997 4293715165
0.19015847 -0.026716284 0.79000002 4293517787
0.19162345 -0.02672117 0.79000002 4293123796
0.19284393 -0.026692268 0.78899997 4292926161
0.19381435 -0.026629554 0.787 4292399557
0.19527355 -0.026634546 0.787 4292136386
0.19723262 -0.026707279 0.78899997 4292201159
0.19869538 -0.026712364 0.78899997 4291609022
0.20015809 -0.026717491 0.78899997 4291412408
0.20162067 -0.02672266 0.78899997 4291478201
0.20308328 -0.02672787 0.78899997 4291412149
0.204805 -0.026767004 0.79000002 4290885549
0.20679146 -0.026840085 0.792 4290753713
0.20878531 -0.026913229 0.79400003 4290424748
0.21025683 -0.026918638 0.79400003 4289767840
0.21226163 -0.026991909 0.796 4289767840
0.21373674 -0.026997417 0.796 4290029724
0.21575253 -0.027070815 0.79799998 4289898395
0.21777566 -0.027144277 0.80000001 4289635738
0.21925795 -0.027149944 0.80000001 4289503896
0.22074024 -0.027155643 0.80000001 4289503646
0.22277798 -0.027229292 0.80199999 4289437853
0.22426382 -0.027235098 0.80199999 4288847249
0.22603108 -0.02727491 0.80299997 4288584334
0.23091866 -0.027688488 0.815 4288517001
0.23185802 -0.02762655 0.81300002 4288517001
0.23336396 -0.027632611 0.81300002 4288056454
0.23486981 -0.027638704 0.81300002 4287727489
0.23637563 -0.027644847 0.81300002 4287726971
0.25690019 -0.029861752 0.87800002 4287069042
0.2585263 -0.02986848 0.87800002 4286611323
0.26015225 -0.029875251 0.87800002 4286742652
0.26177821 -0.029882072 0.87800002 4286940545
0.26250404 -0.02978681 0.875 4287795853
0.26412427 -0.029793696 0.875 4287924864
0.26574445 -0.029800637 0.875 4288517001
0.26828125 -0.029909814 0.87800002 4288713360
0.26990685 -0.029916869 0.87800002 4288910996
0.2721509 -0.029992133 0.88 4288910492
0.27533564 -0.030169746 0.88499999 4289700007
0.27697402 -0.030177003 0.88499999 4289439136
0.27861232 -0.030184299 0.88499999 4289833894
0.28088388 -0.030259881 0.88700002 4289966257
0.28252578 -0.030267287 0.88700002 4290426808
0.11782134 -0.026601335 0.83899999 4294370515
0.1190967 -0.026540808 0.83700001 4294967295
0.12007623 -0.026416881 0.833 4294967295
0.12133285 -0.026356405 0.83099997 4294967295
0.12258197 -0.026295958 0.829 4294967295
0.12382355 -0.026235532 0.82700002 4294967295
0.12536082 -0.02623859 0.82700002 4294967295
0.12505665 -0.025860919 0.815 4294967295
0.12626085 -0.025800548 0.81300002 4294967295
0.12745754 -0.025740203 0.81099999 4294967295
0.12896475 -0.025743369 0.81099999 4294967295
0.13047192 -0.025746576 0.81099999 4294967295
0.13100255 -0.025559321 0.80500001 4294967295
0.1321692 -0.025499076 0.80299997 4294967295
0.13366126 -0.025502373 0.80299997 4294967295
0.13582648 -0.025632767 0.80699998 4294967295
0.13732584 -0.025636163 0.80699998 4294967295
0.13848104 -0.025576057 0.80500001 4294967295
0.1399765 -0.025579531 0.80500001 4294967295
0.14112042 -0.025519477 0.80299997 4294967295
0.14243445 -0.025491238 0.80199999 4294967295
0.14356522 -0.025431244 0.80000001 4294967295
0.14468847 -0.025371267 0.79799998 4294967295
0.14617057 -0.025374908 0.79799998 4294967295
0.1476526 -0.025378594 0.79799998 4294967295
0.1487608 -0.025318708 0.796 4294967295
0.15023896 -0.025322463 0.796 4294967295
0.15209824 -0.025389891 0.79799998 4294967295
0.15281016 -0.025266455 0.79400003 4294967295
0.15428439 -0.025270328 0.79400003 4294967295
0.15575854 -0.025274238 0.79400003 4294967295
0.15723263 -0.025278186 0.79400003 4294967295
0.15870665 -0.025282184 0.79400003 4294967295
0.1601806 -0.025286218 0.79400003 4294967295
0.16124725 -0.025226586 0.792 4294967295
0.16271733 -0.025230689 0.792 4294967295
0.16418736 -0.025234835 0.792 4294967295
0.16565727 -0.025239022 0.792 4294967295
0.16712713 -0.025243251 0.792 4294967295
0.16817117 -0.025183761 0.79000002 4294967295
0.16963719 -0.025188057 0.79000002 4294967295
0.1711031 -0.025192399 0.79000002 4294967295
0.17235051 -0.025164882 0.78899997 4294967295
0.17381445 -0.025169296 0.78899997 4294967295
0.17527828 -0.025173752 0.78899997 4294967295
0.17629409 -0.02511443 0.787 4294967295
0.17730235 -0.02505512 0.78500003 4294967295
0.17875856 -0.025059676 0.78500003 4294835195
0.18021473 -0.025064267 0.78500003 4293848044
0.18213364 -0.025132777 0.787 4293912808
0.18359336 -0.025137465 0.787 4294044394
0.18552329 -0.025206089 0.78899997 4293978853
0.18722357 -0.025242826 0.79000002 4293452509
0.18868864 -0.025247658 0.79000002 4293452509
0.19015363 -0.025252528 0.79000002 4293189337
0.19161856 -0.02525744 0.79000002 4293056716
0.19308342 -0.025262391 0.79000002 4292859593
0.1943019 -0.025235405 0.78899997 4292399557
0.19576479 -0.025240434 0.78899997 4292004800
0.19722757 -0.025245504 0.78899997 4291938503
0.19869028 -0.025250619 0.78899997 4291412158
0.20040663 -0.025287786 0.79000002 4291346867
0.20187108 -0.025292987 0.79000002 4291149489
0.20333543 -0.025298228 0.79000002 4290951346
0.2053182 -0.025367569 0.792 4290425002
0.20730834 -0.025436984 0.79400003 4290621100
0.2087799 -0.025442379 0.79400003 4290489258
0.21025141 -0.025447816 0.79400003 4290030242
0.21225616 -0.025517406 0.796 4289832863
0.21373121 -0.025522944 0.796 4289832859
0.21574694 -0.025592659 0.79799998 4289767066
0.21777003 -0.025662446 0.80000001 4289437844
0.2192523 -0.025668133 0.80000001 4289306001
0.22128639 -0.025738047 0.80199999 4289504402
0.22277224 -0.025743838 0.80199999 4289570195
0.22425798 -0.025749667 0.80199999 4288584082
0.22602519 -0.025787648 0.80299997 4288386446
0.25201502 -0.028215775 0.87800002 4288056454
0.25526744 -0.028229048 0.87800002 4287529856
0.25689349 -0.028235758 0.87800002 4286740340
0.25851956 -0.028242512 0.87800002 4286742402
0.26014552 -0.02824931 0.87800002 4287071624
0.26177135 -0.028256161 0.87800002 4287203203
0.26339722 -0.028263055 0.87800002 4287992976
0.26502296 -0.028269995 0.87800002 4288450945
0.26664862 -0.028276982 0.87800002 4288714116
0.26888537 -0.028348451 0.88 4288647817
0.2711294 -0.028419992 0.88200003 4288977039
0.2736901 -0.02852384 0.88499999 4288977052
0.27532843 -0.028531075 0.88499999 4289503396
0.27696678 -0.028538357 0.88499999 4289373843
0.27860504 -0.028545683 0.88499999 4289900443
0.28087652 -0.028617589 0.88700002 4289966509
0.12036159 -0.024931896 0.83499998 4294967295
0.1216219 -0.02487516 0.833 4294967295
0.12287468 -0.02481845 0.83099997 4294967295
0.12411997 -0.02476177 0.829 4294967295
0.1256609 -0.024764864 0.829 4294967295
0.12505358 -0.024349723 0.815 4294967295
0.12656835 -0.024352845 0.815 4294967295
0.12776874 -0.024296245 0.81300002 4294967295
0.1292796 -0.024299441 0.81300002 4294967295
0.13079043 -0.02430268 0.81300002 4294967295
0.13230117 -0.024305964 0.81300002 4294967295
0.13348266 -0.024249485 0.81099999 4294967295
0.13432373 -0.024133222 0.80699998 4294967295
0.13582312 -0.024136603 0.80699998 4294967295
0.13732241 -0.024140025 0.80699998 4294967295
0.13882163 -0.024143489 0.80699998 4294967295
0.13997303 -0.02408715 0.80500001 4294967295
0.1411169 -0.024030833 0.80299997 4294967295
0.14260848 -0.024034403 0.80299997 4294967295
0.14356163 -0.023948207 0.80000001 4294967295
0.14504747 -0.023951849 0.80000001 4294967295
0.14653324 -0.023955526 0.80000001 4294967295
0.14801894 -0.023959246 0.80000001 4294967295
0.14950459 -0.023963006 0.80000001 4294967295
0.15061267 -0.02390689 0.79799998 4294967295
0.15209441 -0.023910724 0.79799998 4294967295
0.15319121 -0.023854662 0.796 4294967295
0.15466912 -0.02385857 0.796 4294967295
0.15575463 -0.02380256 0.79400003 4294967295
0.15722868 -0.023806538 0.79400003 4294967295
0.15870264 -0.023810556 0.79400003 4294967295
0.16017653 -0.023814615 0.79400003 4294967295
0.16124317 -0.023758717 0.792 4294967295
0.16271321 -0.023762846 0.792 4294967295
0.16418318 -0.023767021 0.792 4294967295
0.16565308 -0.023771234 0.792 4294967295
0.1671229 -0.023775486 0.792 4294967295
0.16859265 -0.02377978 0.792 4294967295
0.16963287 -0.023724055 0.79000002 4294967295
0.17109875 -0.023728419 0.79000002 4294967295
0.17234613 -0.02370278 0.78899997 4294967295
0.17381002 -0.023707222 0.78899997 4294967295
0.17527385 -0.023711706 0.78899997 4294967295
0.17628959 -0.023656113 0.787 4294967293
0.17774956 -0.023660662 0.787 4294967035
0.17920943 -0.023665253 0.787 4294308595
0.18066926 -0.023669889 0.787 4293782251
0.182129 -0.023674564 0.787 4293716199
0.18358868 -0.023679281 0.787 4293847785
0.18551853 -0.023744222 0.78899997 4293978853
0.18721877 -0.023779135 0.79000002 4293452509
0.18868381 -0.023783991 0.79000002 4293517789
0.19014876 -0.023788888 0.79000002 4293057238
0.19161364 -0.023793828 0.79000002 4292990157
0.19307846 -0.023798807 0.79000002 4292727242
0.19429694 -0.023773698 0.78899997 4292267715
0.19575974 -0.023778753 0.78899997 4291939006
0.19747245 -0.023813996 0.79000002 4291872961
0.19893698 -0.023819141 0.79000002 4291478204
0.20040147 -0.023824329 0.79000002 4291478201
0.20237687 -0.023889882 0.792 4291149493
0.20384495 -0.023895167 0.792 4290491306
0.20583139 -0.023960847 0.79400003 4290294184
0.20782514 -0.024026591 0.796 4290752166
0.20982628 -0.02409241 0.79799998 4290620580
0.21130514 -0.024097899 0.79799998 4290030496
0.21278395 -0.024103431 0.79799998 4289832861
0.21479969 -0.024169428 0.80000001 4289570708
0.21628208 -0.024175061 0.80000001 4289241744
0.21830879 -0.024241185 0.80199999 4289238925
0.21979472 -0.024246911 0.80199999 4289502353
0.22128062 -0.024252685 0.80199999 4289504661
0.22304419 -0.024288746 0.80299997 4289307539
0.22453175 -0.024294607 0.80299997 4288256143
0.22714522 -0.024421562 0.80699998 4288190350
0.2552608 -0.026603157 0.87800002 4287004797
0.25688681 -0.026609892 0.87800002 4287004797
0.25910166 -0.026677307 0.88 4287004804
0.26073128 -0.026684152 0.88 4287004804
0.26236081 -0.026691044 0.88 4287202177
0.26459026 -0.026758661 0.88200003 4288254608
0.2662234 -0.026765661 0.88200003 4288451458
0.26785645 -0.026772711 0.88200003 4288451458
0.27040598 -0.026870891 0.88499999 4287661696
0.27204445 -0.026878059 0.88499999 4288911507
0.27368286 -0.026885275 0.88499999 4288846745
0.2759434 -0.02695331 0.88700002 4289241503
0.27758539 -0.026960636 0.88700002 4289439386
0.27922729 -0.026968008 0.88700002 4289636765
0.28086916 -0.026975429 0.88700002 4289438634
0.11937544 -0.023492642 0.83899999 4289437310
0.12064692 -0.023439618 0.83700001 4294967275
0.1219109 -0.023386624 0.83499998 4294967295
0.12287164 -0.023277635 0.83099997 4294967295
0.12441635 -0.023280717 0.83099997 4294967295
0.12565778 -0.023227807 0.829 4294967295
0.12658484 -0.023118874 0.82499999 4294967295
0.1265652 -0.022841796 0.815 4294967295
0.12776555 -0.022788925 0.81300002 4294967295
0.12927639 -0.022792149 0.81300002 4294967295
0.13078716 -0.022795415 0.81300002 4294967295
0.13229786 -0.022798723 0.81300002 4294967295
0.13347933 -0.022745976 0.81099999 4294967295
0.13432038 -0.022637155 0.80699998 4294967295
0.13581972 -0.022640562 0.80699998 4294967295
0.13731897 -0.022644009 0.80699998 4294967295
0.13881814 -0.0226475 0.80699998 4294967295
0.13996951 -0.022594893 0.80500001 4294967295
0.14111337 -0.022542311 0.80299997 4294967295
0.1426049 -0.022545904 0.80299997 4294967295
0.14355803 -0.022465302 0.80000001 4294967295
0.14504382 -0.022468962 0.80000001 4294967295
0.14689587 -0.022528848 0.80199999 4294967295
0.14838524 -0.022532603 0.80199999 4294967295
0.14987457 -0.022536397 0.80199999 4294967295
0.15098633 -0.022484027 0.80000001 4294967295
0.15247177 -0.022487897 0.80000001 4294967295
0.15318733 -0.022379346 0.796 4294967295
0.1546652 -0.022383278 0.796 4294967295
0.15614298 -0.022387251 0.796 4294967295
0.15722468 -0.022335006 0.79400003 4294967295
0.15869862 -0.02233905 0.79400003 4294967295
0.16017246 -0.022343135 0.79400003 4294967295
0.16164625 -0.02234726 0.79400003 4294967295
0.16270909 -0.022295129 0.792 4294967295
0.164179 -0.022299323 0.792 4294967295
0.16564885 -0.022303563 0.792 4294967295
0.16711862 -0.022307841 0.792 4294967295
0.16858834 -0.022312161 0.792 4294967295
0.17005798 -0.022316523 0.792 4294967295
0.17109439 -0.022264559 0.79000002 4294967295
0.1723417 -0.022240801 0.78899997 4294967295
0.17380556 -0.022245267 0.78899997 4294967295
0.17526935 -0.022249777 0.78899997 4294966782
0.17628507 -0.022197913 0.787 4294966000
0.17774498 -0.022202492 0.787 4294637036
0.17920484 -0.022207111 0.787 4294308849
0.1806646 -0.022211771 0.787 4294243056
0.18212432 -0.022216473 0.787 4293914091
0.18405049 -0.022277683 0.78899997 4293519334
0.18551378 -0.022282477 0.78899997 4293255644
0.18721396 -0.022315562 0.79000002 4293255644
0.18867894 -0.022320446 0.79000002 4293452248
0.19062521 -0.022381889 0.792 4292991697
0.19209377 -0.022386868 0.792 4292596435
0.19356225 -0.022391886 0.792 4292004298
0.19503064 -0.022396946 0.792 4292135866
0.196499 -0.02240205 0.792 4292135866
0.19796729 -0.022407195 0.792 4291544249
0.19943547 -0.022412376 0.792 4291083698
0.20141096 -0.022474214 0.79400003 4291215034
0.20288269 -0.022479497 0.79400003 4291017655
0.20435444 -0.022484817 0.79400003 4290753450
0.2073814 -0.022660132 0.80000001 4290556070
0.20886408 -0.022665577 0.80000001 4290751905
0.2103467 -0.022671068 0.80000001 4290159512
0.21182922 -0.022676598 0.80000001 4290095515
0.21331172 -0.022682171 0.80000001 4289832600
0.21533106 -0.022744503 0.80199999 4289767315
0.21762817 -0.022835275 0.80500001 4289175435
0.2191197 -0.022841012 0.80500001 4289107855
0.22061116 -0.022846788 0.80500001 4289305490
0.22265437 -0.022909382 0.80699998 4289372049
0.22414941 -0.022915259 0.80699998 4289372049
0.22564435 -0.022921178 0.80699998 4288714636
0.22939096 -0.023154423 0.815 4288122243
0.25805038 -0.02509799 0.88200003 4287070338
0.2596837 -0.025104828 0.88200003 4287070338
0.26131698 -0.025111722 0.88200003 4287070338
0.26384455 -0.025204094 0.88499999 4287333254
0.26458329 -0.02512564 0.88200003 4288254356
0.26621634 -0.025132669 0.88200003 4288450945
0.26876041 -0.025225254 0.88499999 4288648323
0.27039891 -0.025232404 0.88499999 4287924110
0.27265209 -0.025296638 0.88700002 4288977054
0.27429417 -0.025303898 0.88700002 4288715413
0.27593613 -0.0253112 0.88700002 4288978585
0.27757812 -0.025318557 0.88700002 4289175964
0.27921993 -0.025325958 0.88700002 4289636515
0.11937248 -0.021937039 0.83899999 4285226526
0.1209322 -0.021940049 0.83899999 4293055893
0.12219987 -0.021890797 0.83700001 4294967295
0.12375573 -0.021893885 0.83700001 4294967295
0.12501208 -0.021844696 0.83499998 4294967295
0.12595779 -0.021743201 0.83099997 4294967295
0.12750226 -0.021746397 0.83099997 4294967295
0.12656203 -0.021330865 0.815 4294967295
0.12807666 -0.021334084 0.815 4294967295
0.12959118 -0.021337342 0.815 4294967295
0.1307839 -0.021288272 0.81300002 4294967295
0.13229455 -0.021291604 0.81300002 4294967295
0.13380513 -0.021294978 0.81300002 4294967295
0.13464987 -0.021193605 0.80900002 4294967295
0.13615289 -0.021197045 0.80900002 4294967295
0.13765582 -0.021200528 0.80900002 4294967295
0.13881464 -0.02115163 0.80699998 4294967295
0.14031371 -0.021155186 0.80699998 4294967295
0.14146125 -0.021106347 0.80500001 4294967295
0.1426013 -0.021057528 0.80299997 4294967295
0.14391327 -0.021034963 0.80199999 4294967295
0.14540274 -0.021038661 0.80199999 4294967295
0.14707531 -0.021068638 0.80299997 4294967295
0.1485665 -0.021072425 0.80299997 4294967295
0.14987075 -0.021050002 0.80199999 4294967295
0.15098248 -0.021001367 0.80000001 4294967295
0.15246788 -0.021005262 0.80000001 4294967295
0.15395319 -0.021009197 0.80000001 4294967295
0.15504983 -0.02096064 0.79799998 4294967295
0.15613902 -0.020912107 0.796 4294967295
0.15761669 -0.020916145 0.796 4294967295
0.15909429 -0.020920226 0.796 4294967295
0.16057181 -0.020924348 0.796 4294967295
0.16204928 -0.02092851 0.796 4294967295
0.16352667 -0.020932714 0.796 4294967295
0.16458939 -0.020884352 0.79400003 4294967295
0.16606291 -0.020888627 0.79400003 4294967295
0.16711435 -0.020840317 0.792 4294967295
0.168584 -0.020844663 0.792 4294967295
0.1700536 -0.020849051 0.792 4294967295
0.17108998 -0.020800818 0.79000002 4294967295
0.17255571 -0.020805277 0.79000002 4294967295
0.17402138 -0.020809777 0.79000002 4294966009
0.17548698 -0.020814316 0.79000002 4294768887
0.17740047 -0.0208716 0.792 4294703090
0.1777404 -0.020744441 0.787 4294571504
0.17920022 -0.020749085 0.787 4294243572
0.18065993 -0.020753773 0.787 4294111986
0.18258244 -0.02081125 0.78899997 4293783275
0.18404573 -0.020816032 0.78899997 4293585640
0.18550895 -0.020820854 0.78899997 4293189851
0.18720908 -0.020852109 0.79000002 4293189851
0.18867405 -0.020857021 0.79000002 4293057751
0.19013892 -0.02086197 0.79000002 4292662993
0.19208878 -0.020919789 0.792 4292530894
0.19355722 -0.020924835 0.792 4292136136
0.19551809 -0.020982776 0.79400003 4292266941
0.1974863 -0.021040784 0.796 4291806390
0.19896194 -0.021045977 0.796 4291215032
0.2009411 -0.021104109 0.79799998 4291149239
0.20242034 -0.0211094 0.79799998 4291083698
0.20441051 -0.021167656 0.80000001 4291017904
0.20589328 -0.021173045 0.80000001 4290753447
0.20789444 -0.021231418 0.80199999 4290556068
0.20938075 -0.02123691 0.80199999 4290817698
0.21112999 -0.021268925 0.80299997 4290291354
0.21261801 -0.0212745 0.80299997 4290095519
0.21463931 -0.021333124 0.80500001 4289832348
0.21666786 -0.021391815 0.80699998 4289898654
0.21816312 -0.021397548 0.80699998 4289175187
0.21965834 -0.021403324 0.80699998 4289041548
0.22115344 -0.021409143 0.80699998 4289370513
0.22264856 -0.021415001 0.80699998 4289106825
0.22414349 -0.021420905 0.80699998 4289172618
0.22619766 -0.021479957 0.80900002 4288910223
0.22938493 -0.021645308 0.815 4288318343
0.25950643 -0.023598008 0.88700002 4287136132
0.26114899 -0.02360492 0.88700002 4287397764
0.26219887 -0.023558635 0.88499999 4287529606
0.26383758 -0.023565626 0.88499999 4288055689
0.26547626 -0.023572659 0.88499999 4287989896
0.26711479 -0.023579743 0.88499999 4287989892
0.26936072 -0.023640174 0.88700002 4288318856
0.27100277 -0.023647366 0.88700002 4287727237
0.27264491 -0.023654606 0.88700002 4288714132
0.27428693 -0.023661897 0.88700002 4288518036
0.27655101 -0.0237226 0.889 4288846745
0.27819657 -0.02373 0.889 4288912792
0.11936948 -0.020381562 0.83899999 4284241964
0.12092917 -0.020384597 0.83899999 4284899894
0.1224888 -0.020387679 0.83899999 4292066699
0.12375263 -0.020342195 0.83700001 4294967262
