# .PCD v0.7 - Point Cloud Data file format
VERSION 0.7
FIELDS x y z rgba
SIZE 4 4 4 4
TYPE F F F U
COUNT 1 1 1 1
WIDTH 1099
HEIGHT 1
VIEWPOINT 0 0 0 1 0 0 0
POINTS 1099
DATA ascii
0.10859368 0.022763286 0.77399999 4294967295
0.11003143 0.022759836 0.77399999 4294967295
0.11132509 0.022726947 0.773 4294967295
0.11276085 0.022723421 0.773 4294967295
0.1139011 0.022661071 0.77100003 4294967295
0.11533301 0.022657473 0.77100003 4294967295
0.11646195 0.022595065 0.76899999 4294967295
0.11788999 0.022591392 0.76899999 4294967295
0.11900766 0.022528935 0.76700002 4294967295
0.12027484 0.022495819 0.76599997 4294967295
0.12169712 0.022492038 0.76599997 4294967295
0.12279787 0.0224295 0.764 4294967295
0.12421627 0.022425646 0.764 4294967295
0.12563463 0.022421753 0.764 4294967295
0.12705292 0.022417819 0.764 4294967295
0.12847112 0.022413841 0.764 4294967295
0.12988925 0.022409823 0.764 4294967295
0.13130735 0.022405766 0.764 4294967295
0.13272534 0.022401668 0.764 4294967295
0.13449441 0.022456158 0.76599997 4294967295
0.13556111 0.02239335 0.764 4294967295
0.13697889 0.022389127 0.764 4294967295
0.13803433 0.022326268 0.76200002 4294967295
0.13944827 0.022321975 0.76200002 4294967295
0.14067727 0.022288354 0.76099998 4294967295
0.1420892 0.022283988 0.76099998 4294967295
0.14274681 0.022162477 0.75700003 4294967295
0.14415118 0.022158051 0.75700003 4294967295
0.14555548 0.022153588 0.75700003 4294967295
0.14695972 0.022149082 0.75700003 4294967292
0.14875586 0.022203043 0.759 4294967291
0.15016368 0.022198446 0.759 4294967290
0.15157141 0.02219381 0.759 4294769650
0.15297906 0.022189131 0.759 4294571242
0.15479349 0.022242872 0.76099998 4294571242
0.15640998 0.022267323 0.76200002 4294571244
0.157823 0.022262506 0.76200002 4294373609
0.15923595 0.022257648 0.76200002 4293913560
0.16064882 0.02225275 0.76200002 4293913560
0.16248699 0.022306204 0.764 4293454042
0.16390345 0.022301214 0.764 4293256663
0.16575259 0.022354547 0.76599997 4293124044
0.16739084 0.02237864 0.76700002 4293124044
0.16969301 0.022490188 0.77100003 4293058253
0.17112215 0.02248499 0.77100003 4292729288
0.17299882 0.022538058 0.773 4292466632
0.17443153 0.022532765 0.773 4292400839
0.17586415 0.022527428 0.773 4292269251
0.17729671 0.022522053 0.773 4291808700
0.17872922 0.022516636 0.773 4291546558
0.18016165 0.02251118 0.773 4291415229
0.181594 0.022505682 0.773 4291414455
0.18302627 0.022500142 0.773 4291283126
0.18445849 0.022494562 0.773 4291150006
0.18589064 0.022488944 0.773 4291150006
0.18804972 0.022570541 0.77600002 4290754987
0.19070821 0.02271021 0.78100002 4290754987
0.19264704 0.02276255 0.78299999 4290886566
0.19459321 0.022814821 0.78500003 4291018152
0.19604723 0.022808911 0.78500003 4290032543
0.19800436 0.022861052 0.787 4289900956
0.19996883 0.022913123 0.78899997 4290229406
0.20219599 0.022994157 0.792 4289702806
0.20417704 0.023046076 0.79400003 4289570195
0.20668335 0.023155959 0.79799998 4289043851
0.20816101 0.023149699 0.79799998 4288976511
0.20963863 0.023143398 0.79799998 4288581753
0.21111618 0.023137053 0.79799998 4287334530
0.21312654 0.023188643 0.80000001 4281544490
0.21514416 0.023240155 0.80199999 4280428838
0.072454482 0.025748927 0.82099998 4294967295
0.07344082 0.025558328 0.815 4294967295
0.074772656 0.025493152 0.81300002 4294967295
0.076096982 0.025427945 0.81099999 4294967295
0.077413812 0.0253627 0.80900002 4294967295
0.078723125 0.025297428 0.80699998 4294967295
0.079826117 0.025169432 0.80299997 4294967295
0.081217982 0.025135446 0.80199999 4294967295
0.082502916 0.025070086 0.80000001 4294967295
0.083990328 0.025067365 0.80000001 4294967295
0.085050285 0.024939276 0.796 4294967295
0.086530127 0.024936477 0.796 4294967295
0.087788776 0.024870995 0.79400003 4294967295
0.089039899 0.024805477 0.792 4294967295
0.090169251 0.024708617 0.78899997 4294967295
0.091635808 0.024705673 0.78899997 4294967295
0.092866287 0.024640076 0.787 4294967295
0.094089277 0.024574446 0.78500003 4294967295
0.095548183 0.024571391 0.78500003 4294967295
0.096759886 0.024505701 0.78299999 4294967295
0.097964078 0.024439983 0.78100002 4294967295
0.099415354 0.024436817 0.78100002 4294967295
0.10073742 0.024402322 0.77999997 4294967295
0.10192467 0.024336519 0.778 4294967295
0.10337016 0.02433324 0.778 4294967295
0.10481559 0.024329916 0.778 4294967295
0.10598779 0.024264019 0.77600002 4294967295
0.10715248 0.024198093 0.77399999 4294967295
0.10859025 0.024194662 0.77399999 4294967295
0.11002798 0.024191193 0.77399999 4294967295
0.1113216 0.024156431 0.773 4294967295
0.11275733 0.024152884 0.773 4294967295
0.11389753 0.024086811 0.77100003 4294967295
0.1153294 0.024083186 0.77100003 4294967295
0.1164583 0.024017056 0.76899999 4294967295
0.11788631 0.024013363 0.76899999 4294967295
0.11900396 0.023947177 0.76700002 4294967295
0.12042811 0.023943409 0.76700002 4294967295
0.12169333 0.023908388 0.76599997 4294967295
0.12279405 0.023842128 0.764 4294967295
0.12421241 0.02383825 0.764 4294967295
0.12563074 0.023834329 0.764 4294967295
0.12704897 0.023830373 0.764 4294967295
0.12846714 0.023826372 0.764 4294967295
0.12988526 0.023822332 0.764 4294967295
0.13130325 0.023818247 0.764 4294967295
0.13272122 0.023814125 0.764 4294967295
0.13413912 0.023809964 0.764 4294967295
0.13555692 0.023805756 0.764 4294967295
0.13697468 0.023801511 0.764 4294967295
0.13803007 0.023734927 0.76200002 4294967295
0.13944396 0.023730613 0.76200002 4294967295
0.14085777 0.023726257 0.76200002 4294967295
0.14227155 0.023721861 0.76200002 4294967295
0.14311954 0.023624049 0.759 4294967295
0.14452757 0.023619585 0.759 4294967295
0.14593555 0.023615086 0.759 4294967295
0.14734346 0.023610543 0.759 4294967293
0.1487513 0.023605963 0.759 4294901237
0.15015908 0.02360134 0.759 4294703090
0.15156674 0.023596678 0.759 4294703090
0.15297438 0.023591978 0.759 4294374894
0.15478872 0.023649387 0.76099998 4294243052
0.15681569 0.023737805 0.764 4294045161
0.15781818 0.023670821 0.76200002 4293781990
0.15923108 0.02366594 0.76200002 4293847244
0.16064392 0.023661016 0.76200002 4293847244
0.16248204 0.023718143 0.764 4293715150
0.16389844 0.023713125 0.764 4293254599
0.16574754 0.023770131 0.76599997 4292926667
0.16738574 0.023796046 0.76700002 4292795082
0.16968785 0.023914959 0.77100003 4292729542
0.17111695 0.023909736 0.77100003 4292466114
0.17254597 0.023904469 0.77100003 4292466114
0.17442623 0.023961155 0.773 4292071356
0.17585881 0.023955796 0.773 4292005311
0.17729135 0.023950391 0.773 4291808188
0.1787238 0.023944952 0.773 4291611836
0.18015617 0.023939466 0.773 4291480250
0.18158849 0.023933943 0.773 4291151789
0.18302074 0.02392838 0.773 4290954410
0.18445291 0.023922773 0.773 4290886835
0.18660644 0.024009952 0.77600002 4290821041
0.18804403 0.024004243 0.77600002 4291082412
0.19045827 0.024122197 0.77999997 4291082412
0.19214916 0.024147296 0.78100002 4290951846
0.19458733 0.024265073 0.78500003 4291148968
0.19654079 0.02432094 0.787 4290229152
0.19850156 0.024376737 0.78899997 4289900443
0.20072316 0.02446335 0.792 4289965466
0.20270045 0.024518996 0.79400003 4289899417
0.20417085 0.024512826 0.79400003 4289832597
0.20564117 0.024506612 0.79400003 4288714116
0.20815478 0.024623783 0.79799998 4288910451
0.20963238 0.024617452 0.79799998 4288186727
0.21110985 0.024611084 0.79799998 4287596403
0.21312013 0.024666343 0.80000001 4281345811
0.073438376 0.027066043 0.815 4294967295
0.074770175 0.026997143 0.81300002 4294967295
0.076094463 0.026928209 0.81099999 4294967295
0.077411249 0.026859246 0.80900002 4294967295
0.07872054 0.02679025 0.80699998 4294967295
0.079823494 0.026654836 0.80299997 4294967295
0.081215307 0.026618978 0.80199999 4294967295
0.082706466 0.026616268 0.80199999 4294967295
0.083987594 0.026547153 0.80000001 4294967295
0.085047513 0.026411634 0.796 4294967295
0.086527318 0.026408818 0.796 4294967295
0.087785922 0.026339611 0.79400003 4294967295
0.089037016 0.026270375 0.792 4294967295
0.090280622 0.026201107 0.79000002 4294967295
0.09163285 0.026164977 0.78899997 4294967295
0.092863299 0.026095655 0.787 4294967295
0.094086252 0.026026303 0.78500003 4294967295
0.095545121 0.026023226 0.78500003 4294967295
0.096756779 0.025953813 0.78299999 4294967295
0.098211795 0.025950655 0.78299999 4294967295
0.099412173 0.025881186 0.78100002 4294967295
0.1007342 0.025844818 0.77999997 4294967295
0.10218342 0.025841549 0.77999997 4294967295
0.10336687 0.025771987 0.778 4294967295
0.10481225 0.02576864 0.778 4294967295
0.10598441 0.025699023 0.77600002 4294967295
0.10714906 0.025629375 0.77399999 4294967295
0.1085868 0.02562592 0.77399999 4294967295
0.11002449 0.025622427 0.77399999 4294967295
0.11146209 0.025618894 0.77399999 4294967295
0.11275376 0.02558222 0.773 4294967295
0.11389393 0.025512425 0.77100003 4294967295
0.11532576 0.02550878 0.77100003 4294967295
0.11675752 0.025505096 0.77100003 4294967295
0.1178826 0.025435211 0.76899999 4294967295
0.11931051 0.025431447 0.76899999 4294967295
0.12073833 0.025427643 0.76899999 4294967295
0.12184839 0.025357677 0.76700002 4294967295
0.12311164 0.025320746 0.76599997 4294967295
0.12420852 0.025250733 0.764 4294967295
0.1256268 0.025246792 0.764 4294967295
0.12704499 0.025242809 0.764 4294967295
0.12846312 0.025238784 0.764 4294967295
0.1298812 0.02523472 0.764 4294967295
0.13129917 0.025230611 0.764 4294967295
0.13271709 0.025226461 0.764 4294967295
0.13413493 0.025222274 0.764 4294967295
0.1355527 0.025218047 0.764 4294967295
0.1369704 0.025213778 0.764 4294967295
0.13838805 0.025209466 0.764 4294967295
0.13943964 0.025139136 0.76200002 4294967295
0.14085342 0.025134753 0.76200002 4294967295
0.14226714 0.025130332 0.76200002 4294967295
0.1431151 0.025026947 0.759 4294967295
0.1445231 0.025022464 0.759 4294967295
0.14593105 0.02501794 0.759 4294967295
0.14733891 0.025013376 0.759 4294967295
0.1487467 0.025008766 0.759 4294901241
0.15015444 0.025004121 0.759 4294505708
0.15156208 0.024999432 0.759 4294571758
0.15337273 0.02506057 0.76099998 4294178029
0.15498739 0.025088713 0.76200002 4293651685
0.15681088 0.025149722 0.764 4293650402
0.15822752 0.025144843 0.764 4293518815
0.15922619 0.025074111 0.76200002 4292991163
0.16063899 0.025069164 0.76200002 4293188543
0.16247705 0.025129961 0.764 4293121981
0.16389342 0.025124921 0.764 4293319361
0.16530971 0.025119837 0.764 4293188041
0.16738062 0.025213333 0.76700002 4293122248
0.1692425 0.02527388 0.76899999 4292729804
0.17066784 0.02526864 0.76899999 4292400839
0.17254069 0.02532907 0.77100003 4292466886
0.17442091 0.025389425 0.773 4291874493
0.17585345 0.025384041 0.773 4292070845
0.17728594 0.025378615 0.773 4291939002
0.17871836 0.025373146 0.773 4291545532
0.1801507 0.025367634 0.773 4291347897
0.18158296 0.025362086 0.773 4290888365
0.18301517 0.025356496 0.773 4290954158
0.1844473 0.025350863 0.773 4290624693
0.18708169 0.025509134 0.778 4290624693
0.18852295 0.025503388 0.778 4291017904
0.19045247 0.025563145 0.77999997 4290754733
0.19214332 0.025590062 0.78100002 4290688417
0.19458143 0.025715208 0.78500003 4290688417
0.19603536 0.025709242 0.78500003 4290426017
0.19874714 0.025866952 0.79000002 4289965466
0.20122392 0.025991809 0.79400003 4289569421
0.20269433 0.025985647 0.79400003 4290096021
0.073976547 0.028783981 0.82099998 4294967295
0.074951604 0.028571116 0.815 4294967295
0.076279581 0.028498454 0.81300002 4294967295
0.077600047 0.028425759 0.81099999 4294967295
0.078717917 0.028282939 0.80699998 4294967295
0.08001966 0.028210189 0.80500001 4294967295
0.081212632 0.028102372 0.80199999 4294967295
0.082703732 0.028099641 0.80199999 4294967295
0.083984822 0.028026799 0.80000001 4294967295
0.085044727 0.027883869 0.796 4294967295
0.086524472 0.027881028 0.796 4294967295
0.087783046 0.027808098 0.79400003 4294967295
0.089034118 0.027735138 0.792 4294967295
0.090277679 0.027662152 0.79000002 4294967295
0.09162987 0.027624147 0.78899997 4294967295
0.092860281 0.027551102 0.787 4294967295
0.094083205 0.02747803 0.78500003 4294967295
0.095542021 0.027474929 0.78500003 4294967295
0.096753657 0.027401794 0.78299999 4294967295
0.098208621 0.027398614 0.78299999 4294967295
0.099408977 0.027325423 0.78100002 4294967295
0.10086009 0.027322168 0.78100002 4294967295
0.10191814 0.027213935 0.778 4294967295
0.10309784 0.027140658 0.77600002 4294967295
0.10453946 0.0271373 0.77600002 4294967295
0.10598104 0.027133899 0.77600002 4294967295
0.10714564 0.027060531 0.77399999 4294967295
0.10858335 0.027057054 0.77399999 4294967295
0.11002099 0.027053537 0.77399999 4294967295
0.11145853 0.027049975 0.77399999 4294967295
0.11275017 0.027011434 0.773 4294967295
0.11389031 0.026937917 0.77100003 4294967295
0.11532211 0.026934246 0.77100003 4294967295
0.11675382 0.026930533 0.77100003 4294967295
0.11787887 0.026856929 0.76899999 4294967295
0.11930674 0.026853144 0.76899999 4294967295
0.12073451 0.026849316 0.76899999 4294967295
0.12184454 0.026775628 0.76700002 4294967295
0.12310775 0.026736822 0.76599997 4294967295
0.12420462 0.026663089 0.764 4294967295
0.12562285 0.026659127 0.764 4294967295
0.127041 0.026655117 0.764 4294967295
0.1284591 0.026651068 0.764 4294967295
0.12987711 0.026646981 0.764 4294967295
0.13129506 0.02664285 0.764 4294967295
0.13271293 0.026638677 0.764 4294967295
0.13413075 0.026634466 0.764 4294967295
0.13554847 0.026630212 0.764 4294967295
0.13696612 0.026625916 0.764 4294967295
0.13838372 0.026621582 0.764 4294967295
0.13980126 0.02661721 0.764 4294967295
0.14121872 0.026612792 0.764 4294967295
0.14226273 0.026538678 0.76200002 4294967295
0.14367631 0.026534187 0.76200002 4294967295
0.1445186 0.026425218 0.759 4294967295
0.14592651 0.026420668 0.759 4294967039
0.14733434 0.026416076 0.759 4294967030
0.14913404 0.02648104 0.76099998 4294769137
0.15054545 0.026476355 0.76099998 4294505710
0.15215644 0.02650642 0.76200002 4294769139
0.15356953 0.026501648 0.76200002 4294375146
0.15498258 0.026496833 0.76200002 4293782753
0.15680604 0.026561517 0.764 4293650402
0.15822265 0.026556611 0.764 4293518815
0.15922129 0.026482163 0.76200002 4293517519
0.16063404 0.02647719 0.76200002 4293386189
0.16204673 0.026472177 0.76200002 4293517257
0.16345935 0.02646712 0.76200002 4293583050
0.16530462 0.026531477 0.764 4292991174
0.16737548 0.026630495 0.76700002 4292399294
0.16923729 0.026694711 0.76899999 4292597702
0.17066261 0.026689449 0.76899999 4292597702
0.1725354 0.026753545 0.77100003 4292202944
0.17441554 0.026817573 0.773 4291676600
0.17584807 0.026812162 0.773 4291939002
0.1772805 0.026806708 0.773 4291412658
0.17871289 0.026801214 0.773 4291150004
0.1801452 0.02679568 0.773 4291084211
0.18157743 0.026790105 0.773 4290953645
0.18300958 0.026784491 0.773 4290953645
0.18515749 0.026882762 0.77600002 4290492088
0.187076 0.026946312 0.778 4290360502
0.18851721 0.026940538 0.778 4290556840
0.19044667 0.027003961 0.77999997 4290556840
0.19213748 0.027032709 0.78100002 4290557342
0.19407977 0.027095998 0.78299999 4290359707
0.19552995 0.02709002 0.78299999 4290163098
0.19748324 0.027153185 0.78500003 4289899669
0.19944386 0.027216278 0.787 4289636753
0.20141181 0.027279299 0.78899997 4289702547
0.072623663 0.03037885 0.82300001 4294967295
0.073974043 0.030302521 0.82099998 4294967295
0.075316928 0.030226158 0.81900001 4294967295
0.076464653 0.030075954 0.815 4294967295
0.077788807 0.029999536 0.81300002 4294967295
0.078910373 0.029849291 0.80900002 4294967295
0.080215782 0.029772814 0.80699998 4294967295
0.081311181 0.029622529 0.80299997 4294967295
0.08270099 0.029582884 0.80199999 4294967295
0.083982043 0.029506324 0.80000001 4294967295
0.085041903 0.029355967 0.796 4294967295
0.086304225 0.029279353 0.79400003 4294967295
0.087780163 0.029276455 0.79400003 4294967295
0.089031182 0.029199777 0.792 4294967295
0.090274714 0.029123068 0.79000002 4294967295
0.091743 0.029120052 0.79000002 4294967295
0.093093216 0.029080136 0.78899997 4294967295
0.09431982 0.029003337 0.787 4294967295
0.095538907 0.028926507 0.78500003 4294967295
0.096750513 0.028849652 0.78299999 4294967295
0.097954594 0.028772768 0.78100002 4294967295
0.099405751 0.028769536 0.78100002 4294967295
0.10072766 0.028729418 0.77999997 4294967295
0.10191485 0.02865245 0.778 4294967295
0.10309451 0.028575454 0.77600002 4294967295
0.10453609 0.028572071 0.77600002 4294967295
0.1059776 0.028568646 0.77600002 4294967295
0.1071422 0.028491559 0.77399999 4294967295
0.10857987 0.028488062 0.77399999 4294967295
0.10987531 0.028447717 0.773 4294967295
0.11131097 0.028444139 0.773 4294967295
0.11274658 0.028440518 0.773 4294967295
0.11388668 0.028363284 0.77100003 4294967295
0.11531841 0.028359586 0.77100003 4294967295
0.11644725 0.028282296 0.76899999 4294967295
0.11787512 0.028278526 0.76899999 4294967295
0.11930294 0.028274719 0.76899999 4294967295
0.12073069 0.028270865 0.76899999 4294967295
0.12184066 0.028193459 0.76700002 4294967295
0.12310385 0.028152779 0.76599997 4294967295
0.12452581 0.028148821 0.76599997 4294967295
0.12594771 0.028144818 0.76599997 4294967295
0.12736954 0.028140778 0.76599997 4294967295
0.1287913 0.028136693 0.76599997 4294967295
0.12987301 0.028059121 0.764 4294967295
0.13129091 0.028054962 0.764 4294967295
0.13270874 0.028050771 0.764 4294967295
0.13447763 0.028119948 0.76599997 4294967295
0.13589904 0.028115662 0.76599997 4294967295
0.13732038 0.028111333 0.76599997 4294967295
0.13837938 0.028033577 0.764 4294967295
0.13979688 0.028029177 0.764 4294967295
0.14121428 0.028024733 0.764 4294967295
0.14263164 0.028020253 0.764 4294967295
0.1440489 0.028015725 0.764 4294967295
0.14508529 0.027937839 0.76200002 4294967033
0.14649872 0.027933244 0.76200002 4294834932
0.14791209 0.027928613 0.76200002 4294834932
0.14971727 0.027997226 0.764 4294571504
0.15113421 0.027992504 0.764 4294242795
0.15295039 0.028060999 0.76599997 4294242795
0.15437087 0.02805618 0.76599997 4294243045
0.1557913 0.028051317 0.76599997 4293848287
0.15721165 0.028046414 0.76599997 4293650654
0.15821774 0.027968258 0.764 4293716447
0.15963423 0.027963288 0.764 4294176739
0.16105065 0.027958274 0.764 4293255637
0.16204171 0.027880052 0.76200002 4293583053
0.16345428 0.027874969 0.76200002 4293583053
0.16573222 0.02801615 0.76599997 4293056968
0.16737029 0.028047532 0.76700002 4292530623
0.16923206 0.028115418 0.76899999 4292334535
0.17110118 0.028183242 0.77100003 4292136899
0.1725301 0.0281779 0.77100003 4291676602
0.17441016 0.028245594 0.773 4291742395
0.17584263 0.028240157 0.773 4292399040
0.17727505 0.028234681 0.773 4291477938
0.17870738 0.028229157 0.773 4291346352
0.18013963 0.0282236 0.773 4291280559
0.18157184 0.028217999 0.773 4291018668
0.18300395 0.028212354 0.773 4291018668
0.1851518 0.028316144 0.77600002 4290557865
0.18707025 0.028383363 0.778 4290163107
0.18851143 0.028377563 0.778 4290358173
0.19044085 0.028444657 0.77999997 4290687395
0.19213158 0.028475221 0.78100002 4290491295
0.19407383 0.028542178 0.78299999 4290293916
0.19552399 0.028536178 0.78299999 4289768601
0.19747722 0.028603015 0.78500003 4289702808
0.19943778 0.028669769 0.787 4289309333
0.20140563 0.028736457 0.78899997 4288848783
0.072621174 0.031900983 0.82300001 4294967295
0.073971517 0.031820931 0.82099998 4294967295
0.075314358 0.031740848 0.81900001 4294967295
0.076649703 0.031660732 0.81699997 4294967295
0.077594817 0.031425584 0.81099999 4294967295
0.078907706 0.031345416 0.80900002 4294967295
0.080213077 0.031265218 0.80699998 4294967295
0.081510969 0.03118499 0.80500001 4294967295
0.082801342 0.031104732 0.80299997 4294967295
0.083979219 0.030985713 0.80000001 4294967295
0.085039072 0.030827941 0.796 4294967295
0.086301357 0.030747607 0.79400003 4294967295
0.087777242 0.030744685 0.79400003 4294967295
0.089028217 0.030664278 0.792 4294967295
0.090271726 0.030583855 0.79000002 4294967295
0.091739975 0.030580815 0.79000002 4294967295
0.093090154 0.030539028 0.78899997 4294967295
0.094316721 0.03045851 0.787 4294967295
0.095535778 0.030377956 0.78500003 4294967295
0.096747331 0.03029738 0.78299999 4294967295
0.097951397 0.030216776 0.78100002 4294967295
0.099275224 0.030174831 0.77999997 4294967295
0.10072439 0.030171534 0.77999997 4294967295
0.10191153 0.030090844 0.778 4294967295
0.10309116 0.030010127 0.77600002 4294967295
0.1045327 0.030006722 0.77600002 4294967295
0.10597417 0.030003272 0.77600002 4294967295
0.10713873 0.029922459 0.77399999 4294967295
0.10857636 0.029918943 0.77399999 4294967295
0.10987177 0.029876726 0.773 4294967295
0.11130738 0.029873123 0.773 4294967295
0.11274293 0.029869478 0.773 4294967295
0.11388301 0.02978852 0.77100003 4294967295
0.11531471 0.029784804 0.77100003 4294967295
0.1164435 0.029703788 0.76899999 4294967295
0.11787135 0.0297 0.76899999 4294967295
0.11929913 0.029696163 0.76899999 4294967295
0.12072682 0.02969229 0.76899999 4294967295
0.12183677 0.029611163 0.76700002 4294967295
0.12326063 0.029607214 0.76700002 4294967295
0.1246844 0.029603222 0.76700002 4294967295
0.12610812 0.029599195 0.76700002 4294967295
0.12786432 0.029672295 0.76899999 4294967295
0.12929161 0.029668173 0.76899999 4294967295
0.13071881 0.029664006 0.76899999 4294967295
0.13214596 0.0296598 0.76899999 4294967295
0.13322563 0.029578427 0.76700002 4294967295
0.13447337 0.029535586 0.76599997 4294967295
0.13589475 0.029531274 0.76599997 4294967295
0.13731605 0.029526923 0.76599997 4294967295
0.13873726 0.029522527 0.76599997 4294967295
0.1401584 0.029518085 0.76599997 4294967295
0.14157949 0.029513611 0.76599997 4294967295
0.14262713 0.029432047 0.764 4294967295
0.14404437 0.029427499 0.764 4294901241
0.14508075 0.029345889 0.76200002 4294966255
0.14649414 0.029341269 0.76200002 4294966255
0.14790745 0.029336615 0.76200002 4294834680
0.14971259 0.0294089 0.764 4294703094
0.15112947 0.029404148 0.764 4294176233
0.15294559 0.029476317 0.76599997 4294110439
0.15436606 0.029471474 0.76599997 4293716184
0.15578642 0.029466586 0.76599997 4293453011
0.15720673 0.029461661 0.76599997 4293518804
0.15821281 0.029379781 0.764 4293124046
0.15962926 0.029374784 0.764 4293254614
0.16104564 0.029369745 0.764 4293057236
0.16246195 0.029364673 0.764 4293057222
0.1638782 0.029359557 0.764 4293057222
0.16572706 0.029431239 0.76599997 4292662212
0.16736509 0.029464446 0.76700002 4292333247
0.16922681 0.029536001 0.76899999 4292070341
0.17065206 0.029530689 0.76899999 4292004548
0.17252475 0.029602125 0.77100003 4291872959
0.17395356 0.02959672 0.77100003 4291675837
0.1758372 0.029668029 0.773 4291544501
0.17726956 0.029662523 0.773 4291346865
0.17870185 0.029656976 0.773 4291215534
0.18013409 0.029651392 0.773 4290754983
0.18156625 0.029645765 0.773 4291149222
0.18323505 0.029678445 0.77399999 4290951844
0.18514611 0.029749403 0.77600002 4290753951
0.18706448 0.029820291 0.778 4290293400
0.18850563 0.029814461 0.778 4290358944
0.19043498 0.029885223 0.77999997 4290622115
0.19212568 0.029917611 0.78100002 4290490523
0.19357218 0.029911641 0.78100002 4290227607
0.19551799 0.029982211 0.78299999 4289702295
0.19747117 0.030052712 0.78500003 4289241744
0.19892485 0.030046584 0.78500003 4289045394
0.20088898 0.030116955 0.787 4288453256
0.072618671 0.033422977 0.82300001 4294967295
0.073968969 0.033339202 0.82099998 4294967295
0.075495698 0.033336613 0.82099998 4294967295
0.076647066 0.033171564 0.81699997 4294967295
0.077592172 0.0329253 0.81099999 4294967295
0.078905024 0.032841414 0.80900002 4294967295
0.080210365 0.032757495 0.80699998 4294967295
0.081508204 0.032673545 0.80500001 4294967295
0.082798533 0.032589562 0.80299997 4294967295
0.083976403 0.032464977 0.80000001 4294967295
0.085036211 0.032299783 0.796 4294967295
0.086298458 0.032215726 0.79400003 4294967295
0.087774299 0.032212783 0.79400003 4294967295
0.089025252 0.032128658 0.792 4294967295
0.090268716 0.032044508 0.79000002 4294967295
0.09173692 0.032041453 0.79000002 4294967295
0.093087055 0.031997792 0.78899997 4294967295
0.094313592 0.031913549 0.787 4294967295
0.095532618 0.031829279 0.78500003 4294967295
0.096991248 0.031826064 0.78500003 4294967295
0.097948164 0.031660657 0.78100002 4294967295
0.099271931 0.031616841 0.77999997 4294967295
0.10072108 0.031613525 0.77999997 4294967295
0.10190818 0.031529106 0.778 4294967295
0.10308778 0.031444669 0.77600002 4294967295
0.10452928 0.031441242 0.77600002 4294967295
0.10597071 0.031437773 0.77600002 4294967295
0.10741206 0.03143426 0.77600002 4294967295
0.10857282 0.031349692 0.77399999 4294967295
0.11001033 0.031346105 0.77399999 4294967295
0.11130377 0.031301983 0.773 4294967295
0.11273929 0.031298313 0.773 4294967295
0.11387932 0.031213636 0.77100003 4294967295
0.11531099 0.031209892 0.77100003 4294967295
0.11674257 0.031206114 0.77100003 4294967295
0.11786752 0.031121347 0.76899999 4294967295
0.11929528 0.031117488 0.76899999 4294967295
0.12072294 0.031113589 0.76899999 4294967295
0.12183287 0.031028742 0.76700002 4294967295
0.12325668 0.031024771 0.76700002 4294967295
0.12468041 0.031020759 0.76700002 4294967295
0.12643291 0.031097582 0.76899999 4294967295
0.12786023 0.031093476 0.76899999 4294967295
0.12928747 0.031089328 0.76899999 4294967295
0.13071464 0.031085139 0.76899999 4294967295
0.13214174 0.031080902 0.76899999 4294967295
0.1330477 0.0309554 0.76599997 4294967295
0.13446909 0.030951103 0.76599997 4294967295
0.13589042 0.030946765 0.76599997 4294967295
0.13731168 0.030942388 0.76599997 4294967295
0.13873284 0.030937962 0.76599997 4294967295
0.14015396 0.030933503 0.76599997 4294967295
0.14157501 0.030929005 0.76599997 4294967295
0.14299598 0.03092446 0.76599997 4294967295
0.14441688 0.030919876 0.76599997 4294967291
0.14545693 0.03083453 0.764 4294967285
0.146874 0.03082988 0.764 4294835184
0.14829096 0.030825185 0.764 4294834162
0.15009977 0.030901128 0.76599997 4294834162
0.15152033 0.03089634 0.76599997 4293978340
0.15294079 0.030891512 0.76599997 4293846754
0.1543612 0.030886641 0.76599997 4293386964
0.15578154 0.030881731 0.76599997 4293518550
0.1572018 0.030876776 0.76599997 4293715665
0.15820783 0.030791178 0.764 4292926150
0.15962425 0.03078616 0.764 4293056970
0.16104059 0.0307811 0.764 4292991176
0.16245688 0.030775998 0.764 4292597439
0.16387309 0.030770857 0.764 4292400059
0.16572189 0.030846208 0.76599997 4292136640
0.16735989 0.030881237 0.76700002 4292267969
0.16922154 0.030956464 0.76899999 4292201157
0.17064674 0.030951126 0.76899999 4292135364
0.17251937 0.031026227 0.77100003 4291872959
0.17394812 0.031020794 0.77100003 4291478201
0.17583175 0.031095773 0.773 4291018668
0.17726405 0.031090241 0.773 4291084461
0.1786963 0.03108467 0.773 4291215538
0.1801285 0.031079063 0.773 4290952109
0.18179548 0.031113608 0.77399999 4291214764
0.18322939 0.031107908 0.77399999 4290951848
0.18514037 0.031182535 0.77600002 4290557351
0.1870587 0.031257089 0.778 4290491558
0.18849979 0.031251241 0.778 4290753963
0.19042911 0.031325668 0.77999997 4290359205
0.19211975 0.031359874 0.78100002 4290161560
0.19356622 0.03135388 0.78100002 4290095767
0.19551197 0.031428117 0.78299999 4289832851
0.19746506 0.031502284 0.78500003 4289635216
0.19891873 0.031496134 0.78500003 4289176210
0.20088279 0.031570174 0.787 4288518536
0.074146584 0.034942262 0.82300001 4294967295
0.075676978 0.034939636 0.82300001 4294967295
0.078902304 0.034337275 0.80900002 4294967295
0.080207616 0.034249637 0.80699998 4294967295
0.081505425 0.034161966 0.80500001 4294967295
0.082795709 0.034074266 0.80299997 4294967295
0.083973549 0.033944104 0.80000001 4294967295
0.085033327 0.033771496 0.796 4294967295
0.086295538 0.033683721 0.79400003 4294967295
0.087771341 0.033680756 0.79400003 4294967295
0.089022256 0.03359291 0.792 4294967295
0.090494208 0.033589862 0.792 4294967295
0.091733843 0.033501957 0.79000002 4294967295
0.093201913 0.033498831 0.79000002 4294967295
0.09455011 0.03345326 0.78899997 4294967295
0.09552943 0.033280469 0.78500003 4294967295
0.096988022 0.033277236 0.78500003 4294967295
0.097944915 0.033104409 0.78100002 4294967295
0.099268667 0.033058722 0.77999997 4294967295
0.10045949 0.032970622 0.778 4294967295
0.10190482 0.032967243 0.778 4294967295
0.10308438 0.032879088 0.77600002 4294967295
0.10452584 0.032875638 0.77600002 4294967295
0.10596722 0.03287214 0.77600002 4294967295
0.10740856 0.032868605 0.77600002 4294967295
0.10856926 0.032780323 0.77399999 4294967295
0.11000672 0.03277671 0.77399999 4294967295
0.11130014 0.032730717 0.773 4294967295
0.1127356 0.032727025 0.773 4294967295
0.11387561 0.032638624 0.77100003 4294967295
0.11530722 0.032634862 0.77100003 4294967295
0.11673878 0.032631051 0.77100003 4294967295
0.11786371 0.032542568 0.76899999 4294967295
0.1192914 0.032538686 0.76899999 4294967295
0.12071904 0.032534763 0.76899999 4294967295
0.1221466 0.0325308 0.76899999 4294967295
0.12357408 0.032526791 0.76899999 4294967295
0.12500149 0.032522749 0.76899999 4294967295
0.12642883 0.032518659 0.76899999 4294967295
0.12785611 0.032514527 0.76899999 4294967295
0.12928331 0.032510359 0.76899999 4294967295
0.13071045 0.032506142 0.76899999 4294967295
0.13213749 0.032501888 0.76899999 4294967295
0.13304344 0.032370817 0.76599997 4294967295
0.1344648 0.032366492 0.76599997 4294967295
0.13588609 0.032362133 0.76599997 4294967295
0.13730729 0.032357723 0.76599997 4294967295
0.13872842 0.032353286 0.76599997 4294967295
0.14014949 0.0323488 0.76599997 4294967295
0.14157049 0.03234427 0.76599997 4294967295
0.14299144 0.032339703 0.76599997 4294967295
0.14460084 0.03237731 0.76700002 4294967034
0.14583306 0.032330442 0.76599997 4294966513
0.1472538 0.032325756 0.76599997 4294703342
0.14867444 0.032321021 0.76599997 4294637036
0.15009503 0.032316249 0.76599997 4294439656
0.15151553 0.032311436 0.76599997 4293912806
0.15293595 0.032306585 0.76599997 4293847013
0.15435632 0.032301683 0.76599997 4293847002
0.15496317 0.032128099 0.76200002 4293781208
0.15637597 0.032123148 0.76200002 4293715654
0.15820286 0.032202452 0.764 4292860345
0.15961923 0.032197412 0.764 4293057220
0.16103552 0.032192323 0.764 4292991426
0.16287704 0.032271456 0.76599997 4292794050
0.1642969 0.03226627 0.76599997 4292530621
0.16571669 0.032261055 0.76599997 4292004800
0.16779099 0.032382119 0.76899999 4292136386
0.16921623 0.0323768 0.76899999 4292201157
0.17064139 0.032371435 0.76899999 4291609020
0.17251398 0.032450207 0.77100003 4291477688
0.17394269 0.032444745 0.77100003 4291411895
0.17582624 0.032523397 0.773 4291215018
0.17725854 0.032517839 0.773 4291017639
0.17892189 0.032554302 0.77399999 4290753713
0.18035589 0.032548659 0.77399999 4290753713
0.18225957 0.032627065 0.77600002 4290951076
0.18369713 0.032621328 0.77600002 4290753953
0.18561177 0.032699607 0.778 4290293934
0.18705289 0.032693774 0.778 4290227885
0.18897851 0.032771923 0.77999997 4290292651
0.19042319 0.032765985 0.77999997 4290226601
0.1921138 0.032802012 0.78100002 4290227096
0.19356021 0.032795992 0.78100002 4289963667
0.19600531 0.032957867 0.78500003 4289701011
0.19745895 0.032951731 0.78500003 4289635218
0.19941935 0.033029489 0.787 4289044883
0.20087659 0.033023261 0.787 4287992194
0.080204844 0.035741642 0.80699998 4294967295
0.081502624 0.035650257 0.80500001 4294967295
0.082792863 0.035558835 0.80299997 4294967295
0.083970673 0.035423107 0.80000001 4294967295
0.085030422 0.035243079 0.796 4294967295
0.086292602 0.035151578 0.79400003 4294967295
0.087768354 0.035148595 0.79400003 4294967295
0.089019231 0.035057027 0.792 4294967295
0.090491138 0.035053961 0.792 4294967295
0.091730736 0.03496233 0.79000002 4294967295
0.093198784 0.034959186 0.79000002 4294967295
0.094546929 0.034911741 0.78899997 4294967295
0.095526218 0.034731537 0.78500003 4294967295
0.096984774 0.034728281 0.78500003 4294967295
0.097816207 0.034503795 0.77999997 4294967295
0.09926533 0.034500476 0.77999997 4294967295
0.10045616 0.034408655 0.778 4294967295
0.10190143 0.034405258 0.778 4294967295
0.10308096 0.034313381 0.77600002 4294967295
0.10452238 0.034309901 0.77600002 4294967295
0.10596371 0.034306388 0.77600002 4294967295
0.10740498 0.034302827 0.77600002 4294967295
0.1088462 0.034299225 0.77600002 4294967295
0.1100031 0.034207188 0.77399999 4294967295
0.11144045 0.034203511 0.77399999 4294967295
0.11287774 0.034199789 0.77399999 4294967295
0.11431495 0.03419603 0.77399999 4294967295
0.11560255 0.034148052 0.773 4294967295
0.11673497 0.034055874 0.77100003 4294967295
0.1181664 0.034051999 0.77100003 4294967295
0.11959776 0.034048084 0.77100003 4294967295
0.1207151 0.033955812 0.76899999 4294967295
0.12214262 0.033951826 0.76899999 4294967295
0.12357007 0.033947796 0.76899999 4294967295
0.12499742 0.033943724 0.76899999 4294967295
0.12642473 0.033939611 0.76899999 4294967295
0.12785198 0.033935457 0.76899999 4294967295
0.12927914 0.033931263 0.76899999 4294967295
0.13070622 0.033927027 0.76899999 4294967295
0.13213323 0.033922743 0.76899999 4294967295
0.13321283 0.033830211 0.76700002 4294967295
0.13446046 0.033781756 0.76599997 4294967295
0.13588171 0.033777371 0.76599997 4294967295
0.13730288 0.033772945 0.76599997 4294967295
0.13872395 0.033768475 0.76599997 4294967295
0.14014499 0.033763964 0.76599997 4294967294
0.1417508 0.033803489 0.76700002 4294967291
0.14317355 0.033798892 0.76700002 4294967291
0.1445962 0.03379425 0.76700002 4294704375
0.1460188 0.033789571 0.76700002 4294374379
0.14744134 0.033784848 0.76700002 4294308586
0.14886381 0.033780087 0.76700002 4294307814
0.15009025 0.033731248 0.76599997 4294176485
0.1515107 0.033726409 0.76599997 4293321439
0.1525318 0.033633482 0.764 4293518561
0.15394843 0.033628576 0.764 4293978072
0.15495826 0.033535607 0.76200002 4293846742
0.15637103 0.033530634 0.76200002 4293320907
0.15819786 0.033613607 0.764 4292926150
0.15961416 0.033608533 0.764 4293319876
0.16103044 0.033603426 0.764 4293188547
0.16287188 0.033686228 0.76599997 4293056968
0.16429172 0.03368102 0.76599997 4292267452
0.16592783 0.033719741 0.76700002 4291873209
0.16778572 0.033802357 0.76899999 4291939002
0.1692109 0.033797011 0.76899999 4292135614
0.17063603 0.03379162 0.76899999 4291675063
0.17250855 0.033874061 0.77100003 4291608756
0.17393723 0.033868577 0.77100003 4291477170
0.17582072 0.033950895 0.773 4291345318
0.17725298 0.033945315 0.773 4291345318
0.17891631 0.033983599 0.77399999 4290884519
0.18035026 0.03397793 0.77399999 4290950313
0.18225388 0.034059998 0.77600002 4291016617
0.18416482 0.034142002 0.778 4290556066
0.18560596 0.03413618 0.778 4290292901
0.18752788 0.034218058 0.77999997 4290292901
0.18897259 0.034212142 0.77999997 4290094500
0.1906614 0.034250036 0.78100002 4290226342
0.19210781 0.034244023 0.78100002 4290423966
0.19454549 0.034413334 0.78500003 4289897622
0.19599919 0.034407213 0.78500003 4289372560
0.19795591 0.0344887 0.787 4289372560
0.19941318 0.034482475 0.787 4288847510
0.20087035 0.034476221 0.787 4287795079
0.20309877 0.034601316 0.79000002 4287926397
0.08170227 0.037230682 0.80699998 4294967295
0.082790002 0.03704327 0.80299997 4294967295
0.084177688 0.036994226 0.80199999 4294967295
0.085454769 0.036899026 0.80000001 4294967295
0.086506993 0.036711551 0.796 4294967295
0.087765343 0.036616303 0.79400003 4294967295
0.089016192 0.036521021 0.792 4294967295
0.090488054 0.036517926 0.792 4294967295
0.091959842 0.036514789 0.792 4294967295
0.093195617 0.03641941 0.79000002 4294967295
0.09466356 0.036416192 0.79000002 4294967295
0.096009724 0.036366839 0.78899997 4294967295
0.096981496 0.036179189 0.78500003 4294967295
0.097812921 0.035945445 0.77999997 4294967295
0.099262007 0.035942104 0.77999997 4294967295
0.10045279 0.035846565 0.778 4294967295
0.10189801 0.035843141 0.778 4294967295
0.10307751 0.035747547 0.77600002 4294967295
0.10451888 0.035744045 0.77600002 4294967295
0.10596018 0.035740502 0.77600002 4294967295
0.10740142 0.035736922 0.77600002 4294967295
0.1088426 0.035733297 0.77600002 4294967295
0.1102837 0.035729628 0.77600002 4294967295
0.11143675 0.035633843 0.77399999 4294967295
0.112874 0.035630096 0.77399999 4294967295
0.11460657 0.03571837 0.77600002 4294967295
0.11559875 0.035576463 0.773 4294967295
0.11703391 0.035572596 0.773 4294967295
0.11816251 0.035476662 0.77100003 4294967295
0.11959384 0.035472725 0.77100003 4294967295
0.12071114 0.035376735 0.76899999 4294967295
0.12213861 0.035372727 0.76899999 4294967295
0.12356601 0.03536867 0.76899999 4294967295
0.12499334 0.035364579 0.76899999 4294967295
0.1264206 0.035360441 0.76899999 4294967295
0.12784781 0.035356261 0.76899999 4294967295
0.12927492 0.03535204 0.76899999 4294967295
0.13070199 0.035347778 0.76899999 4294967295
0.13212895 0.035343476 0.76899999 4294967295
0.13355584 0.035339128 0.76899999 4294967295
0.13498269 0.035334747 0.76899999 4294967295
0.13640946 0.035330318 0.76899999 4294967295
0.1374777 0.035233974 0.76700002 4294967295
0.13890061 0.035229474 0.76700002 4294967295
0.14032345 0.035224933 0.76700002 4294967292
0.14174622 0.035220355 0.76700002 4294967291
0.14316893 0.035215728 0.76700002 4294901239
0.14459157 0.035211068 0.76700002 4294769652
0.14601412 0.035206359 0.76700002 4294571504
0.1474366 0.035201617 0.76700002 4294176746
0.14885904 0.03519683 0.76700002 4294176739
0.15008543 0.035146113 0.76599997 4294308068
0.15150587 0.035141252 0.76599997 4293518304
0.15252692 0.035044611 0.764 4293452255
0.15394352 0.035039678 0.764 4293517773
0.15536001 0.035034705 0.764 4293123015
0.15677644 0.035029687 0.764 4292992206
0.15819283 0.035024635 0.764 4292926413
0.15960911 0.035019543 0.764 4293123265
0.16102533 0.035014406 0.764 4292596920
0.16286673 0.035100874 0.76599997 4292465603
0.16428651 0.035095643 0.76599997 4292005052
0.16592257 0.035136186 0.76700002 4291676085
0.16778043 0.035222471 0.76899999 4291478705
0.16964561 0.035308689 0.77100003 4291609773
0.17107441 0.035303261 0.77100003 4291741360
0.17250311 0.035297792 0.77100003 4291149491
0.17393175 0.035292283 0.77100003 4290952111
0.17581518 0.035378262 0.773 4291017889
0.17747667 0.035418417 0.77399999 4291017889
0.17937298 0.03550427 0.77600002 4290753447
0.18081059 0.035498559 0.77600002 4290753447
0.18271786 0.035584286 0.778 4290293412
0.18415903 0.035578478 0.778 4290096289
0.18607727 0.035664078 0.77999997 4290096289
0.18752202 0.035658177 0.77999997 4290096289
0.18920898 0.035697944 0.78100002 4289832350
0.19114365 0.035783347 0.78299999 4289568921
0.1930857 0.035868686 0.78500003 4289569173
0.19503504 0.03595395 0.787 4289569173
0.19649242 0.035947785 0.787 4289372300
0.19845279 0.036032919 0.78899997 4288648321
0.19991368 0.03602666 0.78899997 4288254608
0.20137455 0.036020361 0.78899997 4287925899
0.20309247 0.036059666 0.79000002 4287794809
0.0819019 0.038818371 0.80900002 4294967295
0.082684018 0.038479593 0.80199999 4294967295
0.08417476 0.038476665 0.80199999 4294967295
0.085451804 0.038377739 0.80000001 4294967295
0.086503997 0.038182855 0.796 4294967295
0.087983385 0.038179807 0.796 4294967295
0.089237913 0.0380808 0.79400003 4294967295
0.090484947 0.03798176 0.792 4294967295
0.091956683 0.037978601 0.792 4294967295
0.093428358 0.037975401 0.792 4294967295
0.094660319 0.037876263 0.79000002 4294967295
0.096128143 0.037872985 0.79000002 4294967295
0.096978202 0.037629973 0.78500003 4294967295
0.097934999 0.037434902 0.78100002 4294967295
0.09938591 0.037431527 0.78100002 4294967295
0.10070761 0.037380185 0.77999997 4294967295
0.10189458 0.037280895 0.778 4294967295
0.10333969 0.037277408 0.778 4294967295
0.10478474 0.03727388 0.778 4294967295
0.10595664 0.037174497 0.77600002 4294967295
0.10739784 0.037170891 0.77600002 4294967295
0.10911946 0.037263028 0.778 4294967295
0.11028001 0.037163548 0.77600002 4294967295
0.11172099 0.037159815 0.77600002 4294967295
0.1131619 0.037156038 0.77600002 4294967295
0.11460276 0.037152223 0.77600002 4294967295
0.11604354 0.037148356 0.77600002 4294967295
0.11703005 0.037000857 0.773 4294967295
0.11815861 0.036901206 0.77100003 4294967295
0.11958989 0.036897242 0.77100003 4294967295
0.12070716 0.036797535 0.76899999 4294967295
0.12213459 0.0367935 0.76899999 4294967295
0.12356196 0.036789425 0.76899999 4294967295
0.12498925 0.036785305 0.76899999 4294967295
0.12641647 0.03678114 0.76899999 4294967295
0.12784362 0.036776941 0.76899999 4294967295
0.1292707 0.036772694 0.76899999 4294967295
0.13069771 0.03676841 0.76899999 4294967295
0.13246825 0.036859695 0.77100003 4294967295
0.13355151 0.036759716 0.76899999 4294967295
0.13497831 0.036755301 0.76899999 4294967295
0.13640504 0.036750853 0.76899999 4294967295
0.13747323 0.036650788 0.76700002 4294967295
0.13889609 0.036646262 0.76700002 4294967292
0.14068477 0.036737245 0.76899999 4294967292
0.14174163 0.036637094 0.76700002 4294967291
0.14316429 0.036632448 0.76700002 4294768365
0.14458689 0.036627758 0.76700002 4294834158
0.1460094 0.036623027 0.76700002 4294571758
0.14743185 0.036618259 0.76700002 4294045157
0.14885424 0.036613446 0.76700002 4293386966
0.15027654 0.036608592 0.76700002 4293650138
0.151501 0.036555976 0.76599997 4293517789
0.1529213 0.036551043 0.76599997 4293451996
0.15434153 0.036546074 0.76599997 4293320659
0.15535504 0.036445659 0.764 4292991695
0.15677142 0.036440615 0.764 4292795599
0.15818776 0.036435537 0.764 4292663756
0.159604 0.036430418 0.764 4292597961
0.16165248 0.036568291 0.76700002 4292203459
0.16349937 0.036658406 0.76899999 4292334281
0.16492467 0.036653131 0.76899999 4291742143
0.16634992 0.036647815 0.76899999 4291872950
0.16777509 0.036642455 0.76899999 4291609521
0.16964024 0.036732346 0.77100003 4291477420
0.17106898 0.036726892 0.77100003 4291346091
0.1729451 0.036816649 0.773 4291148457
0.1743774 0.036811098 0.773 4291082664
0.17580961 0.036805507 0.773 4290688669
0.17724179 0.036799878 0.773 4290688669
0.17936732 0.036937002 0.77600002 4290491810
0.18127088 0.03702645 0.778 4290491810
0.18318179 0.037115827 0.77999997 4289899419
0.18462661 0.037109982 0.77999997 4290031005
0.1860714 0.037104093 0.77999997 4290096287
0.18775652 0.037145726 0.78100002 4289898908
0.18968752 0.037234858 0.78299999 4289635998
0.19113766 0.037228823 0.78299999 4289438618
0.19307964 0.037317831 0.78500003 4289175953
0.19502893 0.037406757 0.787 4289175953
0.19648626 0.03740057 0.787 4289241744
0.19844656 0.037489373 0.78899997 4288386435
0.19990741 0.037483081 0.78899997 4288385163
0.20162347 0.037524261 0.79000002 4288122247
0.20308611 0.037517883 0.79000002 4288056954
0.080593906 0.040416211 0.81099999 4294967295
0.081899002 0.040313654 0.80900002 4294967295
0.0829904 0.040111404 0.80500001 4294967295
0.084171817 0.039958965 0.80199999 4294967295
0.085448816 0.039856322 0.80000001 4294967295
0.086935662 0.039853286 0.80000001 4294967295
0.087980315 0.039650951 0.796 4294967295
0.089459591 0.03964784 0.796 4294967295
0.090710305 0.039545082 0.79400003 4294967295
0.091953509 0.039442282 0.792 4294967295
0.09342514 0.03943906 0.792 4294967295
0.094657071 0.039336205 0.79000002 4294967295
0.09612485 0.039332904 0.79000002 4294967295
0.097221948 0.039180201 0.787 4294967295
0.09818244 0.038977701 0.78299999 4294967295
0.099637017 0.038974296 0.78299999 4294967295
0.1008333 0.038871307 0.78100002 4294967295
0.10215306 0.038818058 0.77999997 4294967295
0.10360184 0.038814537 0.77999997 4294967295
0.1047812 0.038711458 0.778 4294967295
0.10622612 0.038707864 0.778 4294967295
0.10767101 0.038704224 0.778 4294967295
0.10911579 0.03870054 0.778 4294967295
0.11056051 0.038696818 0.778 4294967295
0.11200518 0.038693052 0.778 4294967295
0.11344976 0.038689245 0.778 4294967295
0.11459893 0.038585946 0.77600002 4294967295
0.11603966 0.038582057 0.77600002 4294967295
0.11717755 0.038478702 0.77399999 4294967295
0.11846118 0.038425032 0.773 4294967295
0.11958592 0.038321633 0.77100003 4294967295
0.12101709 0.038317602 0.77100003 4294967295
0.12244819 0.038313534 0.77100003 4294967295
0.12387922 0.038309421 0.77100003 4294967295
0.12531017 0.038305271 0.77100003 4294967295
0.12674107 0.038301073 0.77100003 4294967295
0.12817189 0.038296834 0.77100003 4294967295
0.12960264 0.038292557 0.77100003 4294967295
0.13103332 0.038288236 0.77100003 4294967295
0.13246392 0.03828387 0.77100003 4294967295
0.13389446 0.03827947 0.77100003 4294967295
0.13532493 0.038275022 0.77100003 4294967295
0.13640058 0.038171258 0.76899999 4294967295
0.1378272 0.038166735 0.76899999 4294967293
0.13925372 0.038162179 0.76899999 4294967287
0.14068019 0.038157579 0.76899999 4294967294
0.14210661 0.038152937 0.76899999 4294966780
0.14353295 0.038148254 0.76899999 4294571756
0.14495921 0.038143523 0.76899999 4294637549
0.14638539 0.038138758 0.76899999 4294308836
0.14742708 0.038034778 0.76700002 4294045663
0.14884943 0.038029939 0.76700002 4293518815
0.15027168 0.038025063 0.76700002 4293584608
0.1514961 0.037970569 0.76599997 4293452509
0.15291636 0.037965614 0.76599997 4292991958
0.15433656 0.037960619 0.76599997 4293320153
0.1557567 0.037955582 0.76599997 4293188567
0.15738195 0.038000055 0.76700002 4292531405
0.15880382 0.037994932 0.76700002 4292268489
0.16022559 0.037989765 0.76700002 4292334281
0.16164729 0.037984561 0.76700002 4292465610
0.16349413 0.038078345 0.76899999 4292268489
0.16491939 0.038073041 0.76899999 4291281594
0.16677722 0.038166706 0.77100003 4291675063
0.16820605 0.038161308 0.77100003 4291675063
0.16963483 0.038155876 0.77100003 4291149741
0.17106353 0.038150396 0.77100003 4291083948
0.17249216 0.038144872 0.77100003 4291083948
0.17392069 0.038139313 0.77100003 4291149741
0.17580402 0.038232632 0.773 4290557855
0.17723614 0.038226973 0.773 4290557855
0.17936161 0.038369611 0.77600002 4290754465
0.18126512 0.038462725 0.778 4291149222
0.18317598 0.038555771 0.77999997 4290491808
0.18462077 0.038549904 0.77999997 4290426015
0.18630406 0.038593404 0.78100002 4289899421
0.18775059 0.038587444 0.78100002 4289307285
0.18968153 0.038680237 0.78299999 4289832861
0.19161983 0.038772967 0.78500003 4290293412
0.19307353 0.038766846 0.78500003 4289307791
0.19502281 0.038859442 0.787 4288715398
0.19697937 0.038951967 0.78899997 4288715911
0.1986918 0.038995061 0.79000002 4288387202
0.20015453 0.038988739 0.79000002 4288057733
0.20161712 0.038982376 0.79000002 4287860354
0.20359385 0.039074648 0.792 4287794559
0.080591038 0.041915085 0.81099999 4294967295
0.081896089 0.041808803 0.80900002 4294967295
0.082987458 0.04159914 0.80500001 4294967295
0.084273793 0.041492805 0.80299997 4294967295
0.085445814 0.041334774 0.80000001 4294967295
0.086932614 0.041331716 0.80000001 4294967295
0.088198282 0.041225288 0.79799998 4294967295
0.089456454 0.04111883 0.796 4294967295
0.090707138 0.04101235 0.79400003 4294967295
0.092182517 0.041009132 0.79400003 4294967295
0.093421899 0.040902589 0.792 4294967295
0.094893418 0.040899295 0.792 4294967295
0.096121527 0.040792689 0.79000002 4294967295
0.097465664 0.040737685 0.78899997 4294967295
0.098429851 0.040527765 0.78500003 4294967295
0.099888094 0.04052433 0.78500003 4294967295
0.10108805 0.040417612 0.78299999 4294967295
0.10228053 0.040310871 0.78100002 4294967295
0.10373113 0.040307321 0.78100002 4294967295
0.10504698 0.040252123 0.77999997 4294967295
0.10622252 0.040145293 0.778 4294967295
0.10766734 0.040141627 0.778 4294967295
0.10939259 0.040241104 0.77999997 4294967295
0.11084099 0.040237349 0.77999997 4294967295
0.11228931 0.040233545 0.77999997 4294967295
0.11344594 0.040126551 0.778 4294967295
0.11489041 0.04012268 0.778 4294967295
0.11603577 0.040015627 0.77600002 4294967295
0.11717362 0.039908554 0.77399999 4294967295
0.1184572 0.039853018 0.773 4294967295
0.11989213 0.039848998 0.773 4294967295
0.12101305 0.03974184 0.77100003 4294967295
0.12244412 0.03973775 0.77100003 4294967295
0.1238751 0.039733611 0.77100003 4294967295
0.12530603 0.039729435 0.77100003 4294967295
0.12673686 0.039725214 0.77100003 4294967295
0.12816764 0.039720956 0.77100003 4294967295
0.12959836 0.039716654 0.77100003 4294967295
0.13102899 0.039712306 0.77100003 4294967295
0.13245955 0.039707921 0.77100003 4294967295
0.13389005 0.039703492 0.77100003 4294967295
0.13532048 0.039699018 0.77100003 4294967295
0.13639608 0.039591532 0.76899999 4294967295
0.13782267 0.039586995 0.76899999 4294967295
0.13924916 0.039582413 0.76899999 4294967292
0.14067559 0.039577782 0.76899999 4294967293
0.14173236 0.039470199 0.76700002 4294769398
0.14315496 0.039465506 0.76700002 4294244078
0.14457749 0.039460763 0.76700002 4294112236
