# .PCD v0.7 - Point Cloud Data file format
VERSION 0.7
FIELDS x y z rgba
SIZE 4 4 4 4
TYPE F F F U
COUNT 1 1 1 1
WIDTH 1075
HEIGHT 1
VIEWPOINT 0 0 0 1 0 0 0
POINTS 1075
DATA ascii
-0.00099255133 0.17750385 0.78299999 4294967295
0.00046271639 0.17795523 0.78500003 4294967295
0.0019302547 0.17885987 0.78899997 4294967295
0.0033996885 0.17908444 0.79000002 4294967295
0.0048666247 0.17908224 0.79000002 4294967295
0.0063335085 0.17907996 0.79000002 4293916140
0.0078003425 0.17907766 0.79000002 4284507741
-0.12360568 0.17939046 0.78500003 4294967295
-0.12214442 0.1793925 0.78500003 4294967295
-0.11960705 0.17779483 0.778 4294967295
-0.11755139 0.17688265 0.77399999 4294967295
-0.11596069 0.17665601 0.773 4294967295
-0.11392933 0.17574371 0.76899999 4294967295
-0.11205915 0.17505988 0.76599997 4294967295
-0.11063346 0.17506163 0.76599997 4294967295
-0.10863756 0.17414916 0.76200002 4294967295
-0.10721941 0.17415078 0.76200002 4294967295
-0.10538472 0.17346674 0.759 4294967295
-0.10397223 0.17346829 0.759 4294967295
-0.10255976 0.17346978 0.759 4294967295
-0.10114732 0.17347124 0.759 4294967295
-0.099734925 0.17347264 0.759 4294967295
-0.098322563 0.17347401 0.759 4294967295
-0.096654885 0.17301822 0.75700003 4294967295
-0.095246308 0.17301947 0.75700003 4294967295
-0.09358985 0.17256357 0.755 4294967295
-0.09206298 0.17233618 0.75400001 4294967295
-0.090419613 0.17188016 0.75199997 4294967295
-0.088783741 0.17142412 0.75 4294967295
-0.087388381 0.17142513 0.75 4294967295
-0.085993044 0.17142613 0.75 4294967295
-0.084484972 0.1711985 0.74900001 4294967295
-0.083091572 0.1711994 0.74900001 4294967295
-0.081480041 0.17074308 0.74699998 4294967295
-0.080090448 0.17074388 0.74699998 4294967295
-0.078911602 0.1712018 0.74900001 4294967295
-0.077518351 0.1712025 0.74900001 4294967295
-0.076125145 0.17120315 0.74900001 4294967295
-0.074731961 0.17120376 0.74900001 4294967295
-0.073436745 0.17143291 0.75 4294967295
-0.072041787 0.17143343 0.75 4294967295
-0.070646867 0.17143391 0.75 4294967295
-0.069251977 0.17143434 0.75 4294967295
-0.067766644 0.17120615 0.74900001 4294967295
-0.066373706 0.17120649 0.74900001 4294967295
-0.065067552 0.17143536 0.75 4294967295
-0.063587926 0.17120703 0.74900001 4294967295
-0.062195085 0.1712072 0.74900001 4294967295
-0.060639933 0.17075017 0.74699998 4294967295
-0.059250902 0.17075028 0.74699998 4294967295
-0.057861906 0.17075035 0.74699998 4294967295
-0.056472935 0.17075035 0.74699998 4294967295
-0.055084024 0.17075031 0.74699998 4294967295
-0.053695142 0.17075022 0.74699998 4294967295
-0.052306302 0.17075008 0.74699998 4294967295
-0.051121987 0.17143565 0.75 4294967295
-0.049727648 0.17143542 0.75 4294967295
-0.048333351 0.17143513 0.75 4294967295
-0.046939082 0.1714348 0.75 4294967295
-0.045544874 0.17143443 0.75 4294967295
-0.044268429 0.17189117 0.75199997 4294967295
-0.042870577 0.17189069 0.75199997 4294967295
-0.041472767 0.17189018 0.75199997 4294967295
-0.040075 0.17188962 0.75199997 4294967295
-0.038677271 0.17188901 0.75199997 4294967295
-0.03727958 0.17188835 0.75199997 4294967295
-0.03588194 0.17188764 0.75199997 4294967295
-0.034484338 0.17188686 0.75199997 4294967295
-0.03308678 0.17188607 0.75199997 4294967295
-0.031689264 0.17188522 0.75199997 4294967295
-0.030291792 0.17188431 0.75199997 4294967295
-0.028894359 0.17188336 0.75199997 4294967295
-0.027496973 0.17188238 0.75199997 4294967295
-0.026169047 0.17233847 0.75400001 4294967295
-0.024800878 0.17256592 0.755 4294967295
-0.023460034 0.1730219 0.75700003 4294967295
-0.022111798 0.17347781 0.759 4294967295
-0.02078345 0.17416224 0.76200002 4294967295
-0.019367753 0.17416094 0.76200002 4294967295
-0.017952098 0.17415959 0.76200002 4294967295
-0.016536489 0.17415819 0.76200002 4294967295
-0.015200302 0.17507093 0.76599997 4294967295
-0.013777355 0.17506939 0.76599997 4294967295
-0.012354454 0.17506786 0.76599997 4294967295
-0.010931601 0.17506625 0.76599997 4294967295
-0.0095212087 0.17529315 0.76700002 4294967295
-0.0082338229 0.17826246 0.77999997 4294967295
-0.0067851092 0.17826067 0.77999997 4294967295
-0.0053432863 0.17848738 0.78100002 4294967295
-0.0038928138 0.17848548 0.78100002 4294967295
-0.0024486445 0.17894059 0.78299999 4294967295
-0.00099455612 0.1789386 0.78299999 4294967295
0.00046065595 0.17939362 0.78500003 4294967295
0.0019281333 0.1803056 0.78899997 4294967295
0.0033975136 0.18053196 0.79000002 4294967295
0.0048643993 0.18052974 0.79000002 4294967295
0.0063312324 0.18052746 0.79000002 4293785335
0.0077980156 0.18052515 0.79000002 4285692540
-0.12506485 0.18082801 0.78500003 4294967295
-0.12360363 0.18083009 0.78500003 4294967295
-0.12183122 0.18037142 0.78299999 4294967295
-0.11899016 0.17830014 0.77399999 4294967295
-0.11709388 0.17761098 0.77100003 4294967295
-0.11535881 0.1771521 0.76899999 4294967295
-0.11348308 0.17646281 0.76599997 4294967295
-0.11176483 0.17600384 0.764 4294967295
-0.11034292 0.17600554 0.764 4294967295
-0.10849334 0.1753161 0.76099998 4294967295
-0.10707708 0.17531772 0.76099998 4294967295
-0.10538318 0.17485854 0.759 4294967295
-0.10369676 0.17439932 0.75700003 4294967295
-0.10228806 0.17440078 0.75700003 4294967295
-0.10114591 0.174863 0.759 4294967295
-0.099470742 0.17440359 0.75700003 4294967295
-0.09806215 0.17440495 0.75700003 4294967295
-0.09665361 0.17440625 0.75700003 4294967295
-0.094993442 0.17394671 0.755 4294967295
-0.093588673 0.1739479 0.755 4294967295
-0.09206184 0.17371868 0.75400001 4294967295
-0.090418532 0.17325899 0.75199997 4294967295
-0.088782705 0.17279924 0.75 4294967295
-0.087270863 0.17256986 0.74900001 4294967295
-0.085877448 0.17257084 0.74900001 4294967295
-0.084484063 0.17257175 0.74900001 4294967295
-0.082868837 0.17211181 0.74699998 4294967295
-0.081479244 0.17211264 0.74699998 4294967295
-0.080089696 0.17211342 0.74699998 4294967295
-0.07870017 0.17211416 0.74699998 4294967295
-0.077310689 0.17211485 0.74699998 4294967295
-0.075921237 0.17211549 0.74699998 4294967295
-0.074531838 0.17211609 0.74699998 4294967295
-0.073142461 0.17211664 0.74699998 4294967295
-0.071945243 0.17257798 0.74900001 4294967295
-0.070552222 0.17257842 0.74900001 4294967295
-0.069159247 0.17257884 0.74900001 4294967295
-0.067766301 0.17257921 0.74900001 4294967295
-0.066373408 0.17257953 0.74900001 4294967295
-0.064980537 0.17257981 0.74900001 4294967295
-0.063417919 0.1721192 0.74699998 4294967295
-0.062028851 0.17211938 0.74699998 4294967295
-0.060639817 0.17211948 0.74699998 4294967295
-0.059250828 0.1721196 0.74699998 4294967295
-0.057861876 0.17211962 0.74699998 4294967295
-0.056472965 0.17211962 0.74699998 4294967295
-0.055084094 0.17211957 0.74699998 4294967295
-0.053695254 0.17211945 0.74699998 4294967295
-0.052306466 0.1721193 0.74699998 4294967295
-0.051054042 0.17257996 0.74900001 4294967295
-0.049661599 0.17257969 0.74900001 4294967295
-0.04826922 0.17257941 0.74900001 4294967295
-0.046876859 0.17257908 0.74900001 4294967295
-0.04554528 0.17280909 0.75 4294967295
-0.044151146 0.17280866 0.75 4294967295
-0.042871077 0.17326899 0.75199997 4294967295
-0.041473314 0.17326845 0.75199997 4294967295
-0.040075596 0.17326786 0.75199997 4294967295
-0.038677908 0.17326723 0.75199997 4294967295
-0.037280273 0.17326654 0.75199997 4294967295
-0.035882678 0.17326583 0.75199997 4294967295
-0.034485124 0.17326505 0.75199997 4294967295
-0.032999612 0.17280345 0.75 4294967295
-0.031605862 0.17280257 0.75 4294967295
-0.030292718 0.17326246 0.75199997 4294967295
-0.028895337 0.17326148 0.75199997 4294967295
-0.027497998 0.17326048 0.75199997 4294967295
-0.026100701 0.17325941 0.75199997 4294967295
-0.024769153 0.17371911 0.75400001 4294967295
-0.023399225 0.17394833 0.755 4294967295
-0.022113029 0.1748687 0.759 4294967295
-0.020784734 0.1755586 0.76200002 4294967295
-0.019369083 0.17555727 0.76200002 4294967295
-0.017953476 0.17555591 0.76200002 4294967295
-0.016581325 0.17601526 0.764 4294967295
-0.015162094 0.17601378 0.764 4294967295
-0.013778889 0.17647302 0.76599997 4294967295
-0.012323777 0.17601068 0.764 4294967295
-0.010904687 0.17600906 0.764 4294967295
-0.009510478 0.17646815 0.76599997 4294967295
-0.0082355849 0.17969166 0.77999997 4294967295
-0.0067869215 0.17968984 0.77999997 4294967295
-0.0053451522 0.17991836 0.78100002 4294967295
-0.0039047028 0.18037719 0.78299999 4294967295
-0.0024506154 0.18037522 0.78299999 4294967295
-0.00099912297 0.18083394 0.78500003 4294967295
0.00045857904 0.18083186 0.78500003 4294967295
0.001925995 0.18175116 0.78899997 4294967295
0.003391024 0.18174899 0.78899997 4294967295
0.0048560011 0.18174675 0.78899997 4294967295
0.006328939 0.1819748 0.79000002 4294573050
0.0077956705 0.18197247 0.79000002 4290165176
0.0092623513 0.18197007 0.79000002 4284182664
-0.12684637 0.18272978 0.787 4294967295
-0.12394757 0.1806422 0.778 4294967295
-0.12218449 0.18017988 0.77600002 4294967295
-0.12074009 0.18018189 0.77600002 4294967295
-0.11883452 0.17948724 0.773 4294967295
-0.11709201 0.17902476 0.77100003 4294967295
-0.11490695 0.17786559 0.76599997 4294967295
-0.11348131 0.17786738 0.76599997 4294967295
-0.11176311 0.17740473 0.764 4294967295
-0.11005239 0.17694202 0.76200002 4294967295
-0.10849171 0.17671145 0.76099998 4294967295
-0.10679411 0.17624864 0.759 4294967295
-0.10538166 0.1762502 0.759 4294967295
-0.10369527 0.17578728 0.75700003 4294967295
-0.10228662 0.17578875 0.75700003 4294967295
-0.10087799 0.17579016 0.75700003 4294967295
-0.099206612 0.17532708 0.755 4294967295
-0.097801775 0.17532842 0.755 4294967295
-0.096396998 0.17532969 0.755 4294967295
-0.09486641 0.1750987 0.75400001 4294967295
-0.093463548 0.17509988 0.75400001 4294967295
-0.09181653 0.17463656 0.75199997 4294967295
-0.090417467 0.17463766 0.75199997 4294967295
-0.088663302 0.173942 0.74900001 4294967295
-0.087269902 0.173943 0.74900001 4294967295
-0.085876517 0.17394397 0.74900001 4294967295
-0.084257588 0.17348036 0.74699998 4294967295
-0.082868002 0.17348123 0.74699998 4294967295
-0.081478447 0.17348203 0.74699998 4294967295
-0.080088936 0.17348281 0.74699998 4294967295
-0.07869947 0.17348352 0.74699998 4294967295
-0.077310033 0.17348421 0.74699998 4294967295
-0.075920627 0.17348482 0.74699998 4294967295
-0.074531265 0.17348541 0.74699998 4294967295
-0.07314194 0.17348595 0.74699998 4294967295
-0.07175266 0.17348644 0.74699998 4294967295
-0.07036341 0.17348689 0.74699998 4294967295
-0.068974197 0.17348729 0.74699998 4294967295
-0.067765974 0.17395213 0.74900001 4294967295
-0.066373117 0.17395243 0.74900001 4294967295
-0.064980298 0.17395268 0.74900001 4294967295
-0.063417725 0.17348839 0.74699998 4294967295
-0.062028702 0.17348857 0.74699998 4294967295
-0.060558539 0.17325643 0.74599999 4294967295
-0.059171461 0.1732565 0.74599999 4294967295
-0.057784408 0.17325652 0.74599999 4294967295
-0.056397405 0.17325649 0.74599999 4294967295
-0.055084176 0.17348866 0.74699998 4294967295
-0.053695392 0.17348856 0.74699998 4294967295
-0.052306645 0.17348839 0.74699998 4294967295
-0.051054262 0.17395268 0.74900001 4294967295
-0.049661878 0.17395242 0.74900001 4294967295
-0.048269533 0.1739521 0.74900001 4294967295
-0.046877228 0.17395176 0.74900001 4294967295
-0.045484971 0.17395136 0.74900001 4294967295
-0.044151612 0.17418313 0.75 4294967295
-0.042757571 0.17418262 0.75 4294967295
-0.041363578 0.17418209 0.75 4294967295
-0.039969619 0.17418149 0.75 4294967295
-0.038678572 0.17464533 0.75199997 4294967295
-0.03728098 0.17464463 0.75199997 4294967295
-0.035883427 0.17464389 0.75199997 4294967295
-0.034485925 0.17464311 0.75199997 4294967295
-0.033000462 0.1741778 0.75 4294967295
-0.031606756 0.17417692 0.75 4294967295
-0.030293662 0.17464046 0.75199997 4294967295
-0.028896332 0.17463946 0.75199997 4294967295
-0.027499041 0.17463844 0.75199997 4294967295
-0.026101794 0.17463736 0.75199997 4294967295
-0.024770293 0.1751007 0.75400001 4294967295
-0.023400415 0.17533176 0.755 4294967295
-0.022056 0.17579497 0.75700003 4294967295
-0.020758754 0.17672257 0.76099998 4294967295
-0.019370429 0.17695348 0.76200002 4294967295
-0.017954873 0.17695209 0.76200002 4294967295
-0.016582774 0.17741507 0.764 4294967295
-0.015163593 0.17741358 0.764 4294967295
-0.01374446 0.17741206 0.764 4294967295
-0.012325373 0.17741045 0.764 4294967295
-0.010906333 0.17740883 0.764 4294967295
-0.0095121758 0.17787156 0.76599997 4294967295
-0.0082479259 0.18135291 0.78100002 4294967295
-0.0067974562 0.18135111 0.78100002 4294967295
-0.0053470344 0.18134922 0.78100002 4294967295
-0.0039066402 0.18181169 0.78299999 4294967295
-0.0024526028 0.18180969 0.78299999 4294967295
-0.0010011661 0.18227206 0.78500003 4294967295
0.00045648555 0.18226999 0.78500003 4294967295
0.0019189637 0.18273221 0.787 4294967295
0.0033888184 0.18319437 0.78899997 4294967295
0.004853745 0.18319213 0.78899997 4294967295
0.0063266293 0.18342201 0.79000002 4294967291
0.0077933106 0.18341964 0.79000002 4291348932
0.0092599401 0.18341723 0.79000002 4288258472
-0.12571603 0.18253469 0.77999997 4294967295
-0.1239455 0.18206872 0.778 4294967295
-0.12218249 0.18160273 0.77600002 4294967295
-0.12073812 0.18160471 0.77600002 4294967295
-0.1188326 0.18090455 0.773 4294967295
-0.1167864 0.17997031 0.76899999 4294967295
-0.11490515 0.17927003 0.76599997 4294967295
-0.11318327 0.17880376 0.764 4294967295
-0.11146884 0.17833742 0.76200002 4294967295
-0.10990632 0.17810503 0.76099998 4294967295
-0.1084901 0.17810668 0.76099998 4294967295
-0.10679254 0.1776402 0.759 4294967295
-0.10538014 0.17764172 0.759 4294967295
-0.10369381 0.17717513 0.75700003 4294967295
-0.10228521 0.17717656 0.75700003 4294967295
-0.10087661 0.17717797 0.75700003 4294967295
-0.09920527 0.1767112 0.755 4294967295
-0.097670957 0.17647845 0.75400001 4294967295
-0.096268073 0.17647971 0.75400001 4294967295
-0.094865225 0.17648095 0.75400001 4294967295
-0.09321449 0.17601398 0.75199997 4294967295
-0.091815427 0.17601509 0.75199997 4294967295
-0.090055704 0.17531401 0.74900001 4294967295
-0.088662304 0.17531501 0.74900001 4294967295
-0.087035902 0.17484786 0.74699998 4294967295
-0.085646294 0.17484878 0.74699998 4294967295
-0.084256716 0.17484967 0.74699998 4294967295
-0.082867183 0.17485052 0.74699998 4294967295
-0.081477672 0.17485133 0.74699998 4294967295
-0.080088213 0.17485206 0.74699998 4294967295
-0.078698784 0.17485277 0.74699998 4294967295
-0.077309392 0.17485343 0.74699998 4294967295
-0.07592003 0.17485404 0.74699998 4294967295
-0.074530713 0.17485461 0.74699998 4294967295
-0.073141433 0.17485513 0.74699998 4294967295
-0.071752198 0.17485559 0.74699998 4294967295
-0.070362993 0.17485602 0.74699998 4294967295
-0.068973832 0.17485641 0.74699998 4294967295
-0.067584701 0.17485674 0.74699998 4294967295
-0.066195607 0.17485704 0.74699998 4294967295
-0.064980067 0.17532544 0.74900001 4294967295
-0.063417546 0.17485747 0.74699998 4294967295
-0.062028572 0.17485762 0.74699998 4294967295
-0.060396098 0.17415549 0.74400002 4294967295
-0.059012789 0.17415555 0.74400002 4294967295
-0.057784412 0.17462368 0.74599999 4294967295
-0.05639746 0.17462365 0.74599999 4294967295
-0.055010539 0.17462358 0.74599999 4294967295
-0.053623658 0.17462343 0.74599999 4294967295
-0.052306846 0.17485735 0.74699998 4294967295
-0.050918184 0.17485712 0.74699998 4294967295
-0.04952956 0.17485683 0.74699998 4294967295
-0.04814098 0.17485651 0.74699998 4294967295
-0.046752438 0.17485613 0.74699998 4294967295
-0.04536394 0.17485572 0.74699998 4294967295
-0.044093225 0.17532343 0.74900001 4294967295
-0.042758103 0.17555697 0.75 4294967295
-0.041364152 0.17555642 0.75 4294967295
-0.039970241 0.1755558 0.75 4294967295
-0.038576372 0.17555515 0.75 4294967295
-0.037182547 0.17555444 0.75 4294967295
-0.035788763 0.17555368 0.75 4294967295
-0.034395024 0.17555287 0.75 4294967295
-0.033001322 0.17555203 0.75 4294967295
-0.031607665 0.17555113 0.75 4294967295
-0.030214053 0.17555018 0.75 4294967295
-0.028820485 0.17554918 0.75 4294967295
-0.027500097 0.17601627 0.75199997 4294967295
-0.026102897 0.17601518 0.75199997 4294967295
-0.024771452 0.17648216 0.75400001 4294967295
-0.02340162 0.17671502 0.755 4294967295
-0.022057258 0.17718191 0.75700003 4294967295
-0.020760067 0.17811683 0.76099998 4294967295
-0.019371795 0.17834954 0.76200002 4294967295
-0.017956285 0.17834812 0.76200002 4294967295
-0.016540824 0.17834668 0.76200002 4294967295
-0.015165106 0.17881326 0.764 4294967295
-0.013746021 0.17881173 0.764 4294967295
-0.012326985 0.17881012 0.764 4294967295
-0.010950826 0.17951059 0.76700002 4294967295
-0.0095263105 0.17950888 0.76700002 4294967295
-0.0081229685 0.17997518 0.76899999 4294967295
-0.0067993039 0.1827818 0.78100002 4294967295
-0.0053626304 0.183248 0.78299999 4294967295
-0.0039085941 0.18324602 0.78299999 4294967295
-0.0024546068 0.18324402 0.78299999 4294967295
-0.0010006694 0.18324199 0.78299999 4294967295
0.00045321797 0.18323988 0.78299999 4294967295
0.0019119268 0.18370578 0.78500003 4294967295
0.0033780115 0.1841716 0.787 4294967293
0.0048514721 0.18463737 0.78899997 4294967287
0.0063243033 0.18486908 0.79000002 4294967295
0.0077909334 0.1848667 0.79000002 4292927194
0.0092575122 0.18486427 0.79000002 4290361783
-0.12716582 0.18396267 0.77999997 4294967295
-0.1253916 0.18349309 0.778 4294967295
-0.12394348 0.18349515 0.778 4294967295
-0.12249541 0.18349718 0.778 4294967295
-0.12026941 0.18231983 0.773 4294967295
-0.11821581 0.18137828 0.76899999 4294967295
-0.11632897 0.18067254 0.76599997 4294967295
-0.11490337 0.18067434 0.76599997 4294967295
-0.11288524 0.17973265 0.76200002 4294967295
-0.11146716 0.17973436 0.76200002 4294967295
-0.10990467 0.17950015 0.76099998 4294967295
-0.10848852 0.17950177 0.76099998 4294967295
-0.10679098 0.17903158 0.759 4294967295
-0.10510096 0.17856136 0.75700003 4294967295
-0.10369236 0.17856282 0.75700003 4294967295
-0.10228378 0.17856425 0.75700003 4294967295
-0.10087525 0.17856565 0.75700003 4294967295
-0.099072561 0.17785931 0.75400001 4294967295
-0.097669683 0.1778606 0.75400001 4294967295
-0.096266851 0.17786185 0.75400001 4294967295
-0.094612397 0.17739126 0.75199997 4294967295
-0.09321335 0.17739241 0.75199997 4294967295
-0.091570154 0.17692171 0.75 4294967295
-0.090054668 0.17668688 0.74900001 4294967295
-0.088424563 0.1762161 0.74699998 4294967295
-0.087034963 0.17621706 0.74699998 4294967295
-0.085645393 0.17621796 0.74699998 4294967295
-0.084255867 0.17621885 0.74699998 4294967295
-0.082755439 0.17598376 0.74599999 4294967295
-0.08136785 0.17598456 0.74599999 4294967295
-0.080087498 0.17622119 0.74699998 4294967295
-0.078592755 0.17598596 0.74599999 4294967295
-0.077205278 0.17598662 0.74599999 4294967295
-0.075817823 0.17598723 0.74599999 4294967295
-0.074430414 0.17598775 0.74599999 4294967295
-0.073043048 0.17598826 0.74599999 4294967295
-0.071655706 0.17598872 0.74599999 4294967295
-0.070268415 0.17598912 0.74599999 4294967295
-0.068881147 0.17598951 0.74599999 4294967295
-0.067584403 0.17622574 0.74699998 4294967295
-0.066195361 0.176226 0.74699998 4294967295
-0.06480635 0.17622623 0.74699998 4294967295
-0.062992901 0.17504685 0.74199998 4294967295
-0.061613273 0.17504698 0.74199998 4294967295
-0.060233671 0.17504705 0.74199998 4294967295
-0.059012759 0.17551893 0.74400002 4294967295
-0.057629526 0.17551892 0.74400002 4294967295
-0.056397531 0.1759907 0.74599999 4294967295
-0.055010654 0.1759906 0.74599999 4294967295
-0.053623822 0.17599043 0.74599999 4294967295
-0.052307051 0.17622615 0.74699998 4294967295
-0.05085028 0.17599002 0.74599999 4294967295
-0.049463555 0.1759897 0.74599999 4294967295
-0.048141334 0.17622527 0.74699998 4294967295
-0.046752844 0.17622489 0.74699998 4294967295
-0.045364387 0.17622446 0.74699998 4294967295
-0.043975979 0.17622399 0.74699998 4294967295
-0.042701636 0.17669527 0.74900001 4294967295
-0.041309588 0.17669468 0.74900001 4294967295
-0.039970879 0.17692998 0.75 4294967295
-0.038577057 0.1769293 0.75 4294967295
-0.037183277 0.17692858 0.75 4294967295
-0.035789549 0.1769278 0.75 4294967295
-0.034395855 0.17692699 0.75 4294967295
-0.033002198 0.17692612 0.75 4294967295
-0.031608593 0.17692521 0.75 4294967295
-0.030215029 0.17692426 0.75 4294967295
-0.028821504 0.17692322 0.75 4294967295
-0.02750117 0.17739396 0.75199997 4294967295
-0.026104016 0.17739286 0.75199997 4294967295
-0.02477262 0.17786349 0.75400001 4294967295
-0.023402842 0.17809817 0.755 4294967295
-0.022058532 0.17856871 0.75700003 4294967295
-0.020761395 0.17951092 0.76099998 4294967295
-0.019347746 0.17950955 0.76099998 4294967295
-0.017957712 0.17974404 0.76200002 4294967295
-0.016542302 0.17974256 0.76200002 4294967295
-0.015126936 0.17974104 0.76200002 4294967295
-0.013747601 0.18021125 0.764 4294967295
-0.012328613 0.18020961 0.764 4294967295
-0.010938228 0.18067968 0.76599997 4294967295
-0.0095280427 0.18091384 0.76700002 4294967295
-0.0081247548 0.18138379 0.76899999 4294967295
-0.0067315022 0.18232544 0.773 4294967295
-0.0053508477 0.18421048 0.78100002 4294967295
-0.0038955805 0.18397263 0.77999997 4294967295
-0.0024472147 0.18397065 0.77999997 4294967295
-0.001000179 0.18420446 0.78100002 4294967295
0.0004510968 0.18467404 0.78299999 4294967295
0.0019097496 0.18514359 0.78500003 4294967295
0.0033757782 0.18561305 0.787 4294967295
0.0048491824 0.18608245 0.78899997 4294967292
0.0063139568 0.18608013 0.78899997 4294967295
0.0077885389 0.18631358 0.79000002 4293914341
-0.12716371 0.18539263 0.77999997 4294967295
-0.12538955 0.18491937 0.778 4294967295
-0.12394146 0.18492141 0.778 4294967295
-0.12249342 0.1849234 0.778 4294967295
-0.11995633 0.18326153 0.77100003 4294967295
-0.1179065 0.18231262 0.76700002 4294967295
-0.11632717 0.18207677 0.76599997 4294967295
-0.1146016 0.18160315 0.764 4294967295
-0.11288353 0.1811295 0.76200002 4294967295
-0.11131919 0.18089347 0.76099998 4294967295
-0.1096142 0.18041971 0.759 4294967295
-0.10820182 0.18042131 0.759 4294967295
-0.10678947 0.18042286 0.759 4294967295
-0.10509948 0.17994894 0.75700003 4294967295
-0.10341697 0.17947498 0.755 4294967295
-0.10201216 0.1794764 0.755 4294967295
-0.10087391 0.1799532 0.75700003 4294967295
-0.099071279 0.17924136 0.75400001 4294967295
-0.097668432 0.17924263 0.75400001 4294967295
-0.096265636 0.17924385 0.75400001 4294967295
-0.094611242 0.17876959 0.75199997 4294967295
-0.093212247 0.17877072 0.75199997 4294967295
-0.091569096 0.17829634 0.75 4294967295
-0.089813188 0.17758419 0.74699998 4294967295
-0.08842358 0.17758518 0.74699998 4294967295
-0.087034032 0.17758614 0.74699998 4294967295
-0.085644513 0.17758705 0.74699998 4294967295
-0.084255025 0.17758788 0.74699998 4294967295
-0.082754649 0.17735098 0.74599999 4294967295
-0.081367098 0.17735173 0.74599999 4294967295
-0.080086797 0.17759021 0.74699998 4294967295
-0.078592107 0.17735313 0.74599999 4294967295
-0.077204667 0.17735375 0.74599999 4294967295
-0.075817265 0.17735434 0.74599999 4294967295
-0.074429899 0.17735487 0.74599999 4294967295
-0.073042572 0.17735536 0.74599999 4294967295
-0.071655281 0.1773558 0.74599999 4294967295
-0.070079654 0.17688072 0.74400002 4294967295
-0.068511479 0.17640556 0.74199998 4294967295
-0.067131743 0.17640588 0.74199998 4294967295
-0.065752044 0.17640613 0.74199998 4294967295
-0.064285628 0.17616861 0.741 4294967295
-0.062907867 0.17616875 0.741 4294967295
-0.061530132 0.17616886 0.741 4294967295
-0.060152445 0.17616896 0.741 4294967295
-0.058854122 0.17640671 0.74199998 4294967295
-0.057474643 0.1764067 0.74199998 4294967295
-0.056397613 0.17735758 0.74599999 4294967295
-0.055010788 0.17735747 0.74599999 4294967295
-0.053624008 0.17735733 0.74599999 4294967295
-0.052237257 0.17735711 0.74599999 4294967295
-0.050850555 0.17735684 0.74599999 4294967295
-0.049463876 0.17735653 0.74599999 4294967295
-0.048077263 0.17735618 0.74599999 4294967295
-0.04675325 0.17759353 0.74699998 4294967295
-0.045364849 0.17759307 0.74699998 4294967295
-0.043976486 0.17759258 0.74699998 4294967295
-0.042702191 0.17806751 0.74900001 4294967295
-0.041310195 0.17806692 0.74900001 4294967295
-0.039971534 0.17830402 0.75 4294967295
-0.038577762 0.17830333 0.75 4294967295
-0.03718403 0.17830259 0.75 4294967295
-0.035790343 0.17830181 0.75 4294967295
-0.034396701 0.17830098 0.75 4294967295
-0.033003092 0.17830008 0.75 4294967295
-0.031609535 0.17829916 0.75 4294967295
-0.030216018 0.17829818 0.75 4294967295
-0.028822543 0.17829715 0.75 4294967295
-0.027502259 0.17877153 0.75199997 4294967295
-0.026105152 0.17877041 0.75199997 4294967295
-0.024708096 0.17876925 0.75199997 4294967295
-0.023373079 0.17924348 0.75400001 4294967295
-0.021972394 0.17924218 0.75400001 4294967295
-0.020708172 0.18042946 0.759 4294967295
-0.019349141 0.18090351 0.76099998 4294967295
-0.017935587 0.18090206 0.76099998 4294967295
-0.016543793 0.18113834 0.76200002 4294967295
-0.015128475 0.18113679 0.76200002 4294967295
-0.013713202 0.18113519 0.76200002 4294967295
-0.012330256 0.18160899 0.764 4294967295
-0.010939927 0.1820827 0.76599997 4294967295
-0.0095173661 0.18208097 0.76599997 4294967295
-0.0081054224 0.18231688 0.76700002 4294967295
-0.0067159426 0.18326585 0.77100003 4294967295
-0.0053527788 0.18564092 0.78100002 4294967295
-0.0038975596 0.18540125 0.77999997 4294967295
-0.0024492438 0.18539919 0.77999997 4294967295
-0.0010022611 0.18563482 0.78100002 4294967295
0.0004489593 0.18610807 0.78299999 4294967295
0.0019026961 0.18610588 0.78299999 4294967295
0.0033649558 0.18657903 0.78500003 4294967295
0.004846877 0.18752743 0.78899997 4294966259
0.0063115996 0.18752508 0.78899997 4294967022
0.0077861287 0.18776034 0.79000002 4294176735
-0.12716162 0.18682247 0.77999997 4294967295
-0.1253875 0.18634553 0.778 4294967295
-0.12362086 0.18586852 0.77600002 4294967295
-0.1218617 0.18539143 0.77399999 4294967295
-0.11995444 0.18467478 0.77100003 4294967295
-0.11744349 0.18299997 0.764 4294967295
-0.11602166 0.18300177 0.764 4294967295
-0.11459985 0.18300354 0.764 4294967295
-0.11273368 0.18228665 0.76099998 4294967295
-0.111025 0.18180925 0.759 4294967295
-0.10961261 0.18181089 0.759 4294967295
-0.10791516 0.18133338 0.75700003 4294967295
-0.10650656 0.18133491 0.75700003 4294967295
-0.1046815 0.18061776 0.75400001 4294967295
-0.10327857 0.18061918 0.75400001 4294967295
-0.10187568 0.1806206 0.75400001 4294967295
-0.10060607 0.18086149 0.755 4294967295
-0.099069983 0.18062325 0.75400001 4294967295
-0.097667195 0.1806245 0.75400001 4294967295
-0.096009105 0.1801466 0.75199997 4294967295
-0.094610102 0.18014777 0.75199997 4294967295
-0.092963248 0.17966977 0.75 4294967295
-0.091568045 0.17967084 0.75 4294967295
-0.089812174 0.17895316 0.74699998 4294967295
-0.088422634 0.17895414 0.74699998 4294967295
-0.087033123 0.17895508 0.74699998 4294967295
-0.085643649 0.17895596 0.74699998 4294967295
-0.084254213 0.17895679 0.74699998 4294967295
-0.082753874 0.17871803 0.74599999 4294967295
-0.08136636 0.17871876 0.74599999 4294967295
-0.079978898 0.17871948 0.74599999 4294967295
-0.078380771 0.178241 0.74400002 4294967295
-0.076997094 0.1782416 0.74400002 4294967295
-0.075613461 0.17824218 0.74400002 4294967295
-0.07403031 0.17776354 0.74199998 4294967295
-0.07265047 0.177764 0.74199998 4294967295
-0.071462773 0.17824359 0.74400002 4294967295
-0.069890901 0.1777648 0.74199998 4294967295
-0.068511166 0.17776516 0.74199998 4294967295
-0.067131475 0.17776541 0.74199998 4294967295
-0.065751821 0.17776567 0.74199998 4294967295
-0.064285457 0.1775263 0.741 4294967295
-0.062907733 0.17752643 0.741 4294967295
-0.06153005 0.17752652 0.741 4294967295
-0.060152408 0.17752659 0.741 4294967295
-0.058854129 0.17776616 0.74199998 4294967295
-0.057474703 0.17776614 0.74199998 4294967295
-0.056095321 0.17776604 0.74199998 4294967295
-0.054863457 0.17824508 0.74400002 4294967295
-0.053480431 0.17824489 0.74400002 4294967295
-0.052237496 0.1787238 0.74599999 4294967295
-0.050850831 0.17872353 0.74599999 4294967295
-0.049464215 0.17872323 0.74599999 4294967295
-0.048077639 0.17872284 0.74599999 4294967295
-0.046691097 0.17872244 0.74599999 4294967295
-0.045304596 0.17872196 0.74599999 4294967295
-0.043977015 0.17896101 0.74699998 4294967295
-0.042588737 0.17896046 0.74699998 4294967295
-0.041310817 0.17943899 0.74900001 4294967295
-0.039918911 0.17943835 0.74900001 4294967295
-0.038527042 0.17943764 0.74900001 4294967295
-0.037135217 0.17943689 0.74900001 4294967295
-0.035743434 0.1794361 0.74900001 4294967295
-0.034351695 0.17943524 0.74900001 4294967295
-0.032959998 0.17943433 0.74900001 4294967295
-0.031610489 0.17967296 0.75 4294967295
-0.030217022 0.17967196 0.75 4294967295
-0.028823595 0.17967093 0.75 4294967295
-0.027503358 0.18014896 0.75199997 4294967295
-0.026106302 0.1801478 0.75199997 4294967295
-0.024709294 0.18014662 0.75199997 4294967295
-0.023374328 0.1806245 0.75400001 4294967295
-0.021973694 0.1806232 0.75400001 4294967295
-0.020654958 0.18134053 0.75700003 4294967295
-0.019299695 0.18181822 0.759 4294967295
-0.017937046 0.18229589 0.76099998 4294967295
-0.016545301 0.18253393 0.76200002 4294967295
-0.015130032 0.18253238 0.76200002 4294967295
-0.013714808 0.18253078 0.76200002 4294967295
-0.012331915 0.18300821 0.764 4294967295
-0.01094164 0.18348558 0.76599997 4294967295
-0.0095191291 0.18348382 0.76599997 4294967295
-0.0081072357 0.18372154 0.76700002 4294967295
-0.0067178155 0.18467782 0.77100003 4294967295
-0.0053067328 0.18539448 0.77399999 4294967295
-0.0038995545 0.18682964 0.77999997 4294967295
-0.0024512894 0.18682763 0.77999997 4294967295
-0.0010043592 0.18706505 0.78100002 4294967295
0.00044566396 0.18706292 0.78100002 4294967295
0.0019004917 0.18753974 0.78299999 4294967295
0.0033626952 0.18801652 0.78500003 4294967294
0.0048322738 0.18849322 0.787 4294966774
0.0063092262 0.18896987 0.78899997 4294967287
0.0077738478 0.18896745 0.78899997 4294703344
-0.12715954 0.18825217 0.77999997 4294967295
-0.12538546 0.18777153 0.778 4294967295
-0.12361887 0.18729085 0.77600002 4294967295
-0.12170232 0.18656872 0.773 4294967295
-0.11964139 0.18560518 0.76899999 4294967295
-0.11744168 0.18440025 0.764 4294967295
-0.11571617 0.18391931 0.76200002 4294967295
-0.11414813 0.18367968 0.76099998 4294967295
-0.11273201 0.18368138 0.76099998 4294967295
-0.11102334 0.1832003 0.759 4294967295
-0.1093222 0.18271917 0.75700003 4294967295
-0.10762849 0.18223798 0.755 4294967295
-0.10608299 0.18199812 0.75400001 4294967295
-0.10440238 0.18151681 0.75199997 4294967295
-0.10300323 0.18151823 0.75199997 4294967295
-0.10160409 0.18151961 0.75199997 4294967295
-0.10047151 0.18200372 0.75400001 4294967295
-0.099068716 0.182005 0.75400001 4294967295
-0.097406901 0.18152347 0.75199997 4294967295
-0.096007928 0.18152466 0.75199997 4294967295
-0.094608977 0.1815258 0.75199997 4294967295
-0.092962161 0.18104413 0.75 4294967295
-0.091200739 0.18032099 0.74699998 4294967295
-0.089811198 0.18032201 0.74699998 4294967295
-0.088421687 0.18032297 0.74699998 4294967295
-0.087032221 0.18032388 0.74699998 4294967295
-0.085642792 0.18032476 0.74699998 4294967295
-0.084253401 0.18032557 0.74699998 4294967295
-0.082753114 0.18008496 0.74599999 4294967295
-0.081365652 0.18008567 0.74599999 4294967295
-0.079978235 0.18008637 0.74599999 4294967295
-0.078380153 0.17960422 0.74400002 4294967295
-0.076996528 0.1796048 0.74400002 4294967295
-0.075612932 0.17960535 0.74400002 4294967295
-0.074029841 0.17912304 0.74199998 4294967295
-0.07265003 0.17912349 0.74199998 4294967295
-0.071270272 0.17912391 0.74199998 4294967295
-0.069890559 0.17912427 0.74199998 4294967295
-0.068510868 0.17912456 0.74199998 4294967295
-0.067131214 0.17912485 0.74199998 4294967295
-0.065662995 0.17888366 0.741 4294967295
-0.064285286 0.17888384 0.741 4294967295
-0.062907621 0.17888398 0.741 4294967295
-0.061529983 0.17888406 0.741 4294967295
-0.060152385 0.1788841 0.741 4294967295
-0.058854148 0.1791255 0.74199998 4294967295
-0.057474777 0.17912546 0.74199998 4294967295
-0.056095425 0.17912534 0.74199998 4294967295
-0.054716144 0.1791252 0.74199998 4294967295
-0.053336881 0.179125 0.74199998 4294967295
-0.051957663 0.17912476 0.74199998 4294967295
-0.050714809 0.17960729 0.74400002 4294967295
-0.049331959 0.17960694 0.74400002 4294967295
-0.048078042 0.18008938 0.74599999 4294967295
-0.046691541 0.18008894 0.74599999 4294967295
-0.045305092 0.18008846 0.74599999 4294967295
-0.043977555 0.18032932 0.74699998 4294967295
-0.042589325 0.18032876 0.74699998 4294967295
-0.041201141 0.18032815 0.74699998 4294967295
-0.039919596 0.18081029 0.74900001 4294967295
-0.038527772 0.18080956 0.74900001 4294967295
-0.037136 0.1808088 0.74900001 4294967295
-0.035744265 0.18080798 0.74900001 4294967295
-0.034352571 0.18080711 0.74900001 4294967295
-0.032960922 0.1808062 0.74900001 4294967295
-0.031611457 0.18104663 0.75 4294967295
-0.030218041 0.18104562 0.75 4294967295
-0.028824665 0.18104458 0.75 4294967295
-0.027504478 0.18152624 0.75199997 4294967295
-0.02610747 0.18152508 0.75199997 4294967295
-0.024710512 0.18152389 0.75199997 4294967295
-0.023375597 0.18200541 0.75400001 4294967295
-0.021975009 0.18200409 0.75400001 4294967295
-0.020656327 0.18272689 0.75700003 4294967295
-0.019301116 0.18320824 0.759 4294967295
-0.017938519 0.18368953 0.76099998 4294967295
-0.01652511 0.18368803 0.76099998 4294967295
-0.015111748 0.18368645 0.76099998 4294967295
-0.013716431 0.18392621 0.76200002 4294967295
-0.012301304 0.18392456 0.76200002 4294967295
-0.010914797 0.18440557 0.764 4294967295
-0.0095209079 0.18488653 0.76599997 4294967295
-0.0081090666 0.18512608 0.76700002 4294967295
-0.0067197052 0.18608965 0.77100003 4294967295
-0.0053018206 0.18657044 0.773 4294967295
-0.003871555 0.18680981 0.77399999 4294967295
-0.0024407702 0.18729047 0.77600002 4294967295
-0.0010051853 0.18825378 0.77999997 4294967295
0.00044349895 0.18849298 0.78100002 4294967295
0.0018982708 0.18897346 0.78299999 4294967295
0.0033604181 0.18945388 0.78500003 4294967290
0.0048299404 0.18993422 0.787 4294834158
0.0063068364 0.19041452 0.78899997 4294901241
0.0077714082 0.19041207 0.78899997 4294703605
-0.12715748 0.18968174 0.77999997 4294967295
-0.12538345 0.18919741 0.778 4294967295
-0.12361692 0.18871304 0.77600002 4294967295
-0.12170041 0.18798541 0.773 4294967295
-0.11963954 0.18701452 0.76899999 4294967295
-0.11713243 0.185314 0.76200002 4294967295
-0.11571442 0.18531579 0.76200002 4294967295
-0.11414642 0.1850743 0.76099998 4294967295
-0.11243407 0.18458959 0.759 4294967295
-0.11102174 0.18459122 0.759 4294967295
-0.10932063 0.18410641 0.75700003 4294967295
-0.10762699 0.18362154 0.755 4294967295
-0.10608152 0.18337983 0.75400001 4294967295
-0.10440097 0.18289486 0.75199997 4294967295
-0.10300184 0.18289627 0.75199997 4294967295
-0.10160276 0.1828976 0.75199997 4294967295
-0.10047021 0.18338536 0.75400001 4294967295
-0.098804697 0.18290018 0.75199997 4294967295
-0.097405702 0.18290141 0.75199997 4294967295
-0.096006766 0.18290257 0.75199997 4294967295
-0.094607867 0.18290372 0.75199997 4294967295
-0.092837155 0.18217513 0.74900001 4294967295
-0.091199726 0.18168972 0.74699998 4294967295
-0.089810222 0.18169071 0.74699998 4294967295
-0.088420764 0.18169165 0.74699998 4294967295
-0.08703135 0.18169256 0.74699998 4294967295
-0.085641965 0.1816934 0.74699998 4294967295
-0.084139824 0.18145098 0.74599999 4294967295
-0.082530521 0.18096529 0.74400002 4294967295
-0.081146829 0.180966 0.74400002 4294967295
-0.079763167 0.18096668 0.74400002 4294967295
-0.078379542 0.18096729 0.74400002 4294967295
-0.076788984 0.18048139 0.74199998 4294967295
-0.075409159 0.18048193 0.74199998 4294967295
-0.074029356 0.18048239 0.74199998 4294967295
-0.072649606 0.18048283 0.74199998 4294967295
-0.071269892 0.18048322 0.74199998 4294967295
-0.069890223 0.18048358 0.74199998 4294967295
-0.068510577 0.18048388 0.74199998 4294967295
-0.06704051 0.1802409 0.741 4294967295
-0.065662801 0.18024111 0.741 4294967295
-0.064285144 0.18024129 0.741 4294967295
-0.062907517 0.18024139 0.741 4294967295
-0.061529934 0.18024147 0.741 4294967295
-0.060152382 0.1802415 0.741 4294967295
-0.05877487 0.18024145 0.741 4294967295
-0.057397395 0.18024138 0.741 4294967295
-0.056095563 0.1804845 0.74199998 4294967295
-0.054716315 0.18048434 0.74199998 4294967295
-0.053337101 0.18048413 0.74199998 4294967295
-0.051957928 0.18048386 0.74199998 4294967295
-0.050578795 0.18048355 0.74199998 4294967295
-0.049332321 0.1809697 0.74400002 4294967295
-0.048078451 0.18145578 0.74599999 4294967295
-0.046692003 0.18145533 0.74599999 4294967295
-0.045305602 0.18145484 0.74599999 4294967295
-0.04397811 0.18169752 0.74699998 4294967295
-0.042589929 0.18169692 0.74699998 4294967295
-0.041201796 0.1816963 0.74699998 4294967295
-0.039920297 0.18218207 0.74900001 4294967295
-0.038528521 0.18218134 0.74900001 4294967295
-0.037136793 0.18218057 0.74900001 4294967295
-0.035745107 0.18217973 0.74900001 4294967295
-0.034353461 0.18217884 0.74900001 4294967295
-0.032961853 0.18217792 0.74900001 4294967295
-0.031612448 0.18242018 0.75 4294967295
-0.030219078 0.18241915 0.75 4294967295
-0.028825749 0.18241808 0.75 4294967295
-0.027505616 0.18290338 0.75199997 4294967295
-0.026108654 0.1829022 0.75199997 4294967295
-0.024711739 0.18290098 0.75199997 4294967295
-0.023376878 0.18338615 0.75400001 4294967295
-0.021976339 0.18338484 0.75400001 4294967295
-0.020657713 0.18411312 0.75700003 4294967295
-0.019302553 0.18459812 0.759 4294967295
-0.017940009 0.18508305 0.76099998 4294967295
-0.016526647 0.18508151 0.76099998 4294967295
-0.015113333 0.18507993 0.76099998 4294967295
-0.01371807 0.18532152 0.76200002 4294967295
-0.012302992 0.18531986 0.76200002 4294967295
-0.010916537 0.1858045 0.764 4294967295
-0.0095227016 0.18628912 0.76599997 4294967295
-0.0081109134 0.18653047 0.76700002 4294967295
-0.0067216111 0.18750137 0.77100003 4294967295
-0.0053037805 0.18798578 0.773 4294967295
-0.0038735673 0.18822697 0.77399999 4294967295
-0.0024428377 0.18871127 0.77600002 4294967295
-0.0010047309 0.18919554 0.778 4294967295
0.00044075245 0.18967973 0.77999997 4294967295
0.0018960332 0.19040702 0.78299999 4294967295
0.0033581245 0.1908911 0.78500003 4294967287
0.0048275902 0.19137511 0.787 4294769135
0.0063044294 0.19185904 0.78899997 4294703603
0.0077689495 0.19185658 0.78899997 4294440688
-0.13235365 0.19232988 0.78500003 4289839816
-0.13022561 0.19135201 0.78100002 4294506744
-0.12877202 0.19135413 0.78100002 4294967295
-0.12715544 0.19111118 0.77999997 4294967295
-0.12538147 0.19062318 0.778 4294967295
-0.12361497 0.19013511 0.77600002 4294967295
-0.12169852 0.18940195 0.773 4294967295
-0.11963771 0.18842374 0.76899999 4294967295
-0.11713066 0.18671037 0.76200002 4294967295
-0.11556081 0.1864671 0.76099998 4294967295
-0.11384474 0.18597874 0.759 4294967295
-0.11243244 0.18598041 0.759 4294967295
-0.11072761 0.18549196 0.75700003 4294967295
-0.10931908 0.18549354 0.75700003 4294967295
-0.10762549 0.18500498 0.755 4294967295
-0.10608006 0.1847614 0.75400001 4294967295
-0.10439955 0.18427275 0.75199997 4294967295
-0.10272656 0.18378405 0.75 4294967295
-0.10133122 0.18378538 0.75 4294967295
-0.10020243 0.18427677 0.75199997 4294967295
-0.098803468 0.18427803 0.75199997 4294967295
-0.097404525 0.18427923 0.75199997 4294967295
-0.095750302 0.1837903 0.75 4294967295
-0.094355151 0.1837914 0.75 4294967295
-0.092836112 0.18354742 0.74900001 4294967295
-0.091198735 0.18305832 0.74699998 4294967295
-0.089809276 0.18305928 0.74699998 4294967295
-0.088419855 0.18306021 0.74699998 4294967295
-0.086913981 0.18281603 0.74599999 4294967295
-0.085526496 0.18281688 0.74599999 4294967295
-0.084139057 0.18281768 0.74599999 4294967295
-0.082529798 0.18232828 0.74400002 4294967295
-0.081146143 0.18232898 0.74400002 4294967295
-0.079762541 0.18232965 0.74400002 4294967295
-0.078378953 0.18233024 0.74400002 4294967295
-0.076788433 0.18184067 0.74199998 4294967295
-0.07540866 0.18184118 0.74199998 4294967295
-0.074028917 0.18184164 0.74199998 4294967295
-0.072649211 0.18184207 0.74199998 4294967295
-0.071269535 0.18184245 0.74199998 4294967295
-0.069889911 0.18184279 0.74199998 4294967295
-0.068417989 0.18159801 0.741 4294967295
-0.067040287 0.18159825 0.741 4294967295
-0.06566263 0.18159844 0.741 4294967295
-0.06428501 0.18159857 0.741 4294967295
-0.062907435 0.18159866 0.741 4294967295
-0.061529893 0.18159874 0.741 4294967295
-0.060152385 0.18159874 0.741 4294967295
-0.058774922 0.18159869 0.741 4294967295
-0.0573975 0.1815986 0.741 4294967295
-0.056020111 0.18159848 0.741 4294967295
-0.054716509 0.18184337 0.74199998 4294967295
-0.053337347 0.18184315 0.74199998 4294967295
-0.051958222 0.18184286 0.74199998 4294967295
-0.050579134 0.18184254 0.74199998 4294967295
-0.049332704 0.18233234 0.74400002 4294967295
-0.047949985 0.18233192 0.74400002 4294967295
-0.046692479 0.18282159 0.74599999 4294967295
-0.04530612 0.18282107 0.74599999 4294967295
-0.043978684 0.18306558 0.74699998 4294967295
-0.042590555 0.18306498 0.74699998 4294967295
-0.041202459 0.18306431 0.74699998 4294967295
-0.039814409 0.18306363 0.74699998 4294967295
-0.038426403 0.18306287 0.74699998 4294967295
-0.037038434 0.18306206 0.74699998 4294967295
-0.035650514 0.18306123 0.74699998 4294967295
-0.034262635 0.18306033 0.74699998 4294967295
-0.032874793 0.18305938 0.74699998 4294967295
-0.031571303 0.18354851 0.74900001 4294967295
-0.030179838 0.18354748 0.74900001 4294967295
-0.028826846 0.18379144 0.75 4294967295
-0.027506763 0.1842804 0.75199997 4294967295
-0.02610985 0.18427922 0.75199997 4294967295
-0.024712985 0.18427798 0.75199997 4294967295
-0.023316165 0.1842767 0.75199997 4294967295
-0.021977687 0.18476547 0.75400001 4294967295
-0.020659111 0.18549921 0.75700003 4294967295
-0.019253138 0.18549778 0.75700003 4294967295
-0.017894359 0.18598637 0.759 4294967295
-0.016528204 0.18647489 0.76099998 4294967295
-0.015114938 0.18647331 0.76099998 4294967295
-0.013719724 0.18671672 0.76200002 4294967295
-0.012304696 0.18671501 0.76200002 4294967295
-0.010918294 0.18720332 0.764 4294967295
-0.009524513 0.18769155 0.76599997 4294967295
-0.0081127752 0.18793474 0.76700002 4294967295
-0.006723532 0.18891293 0.77100003 4294967295
-0.0052920296 0.18891096 0.77100003 4294967295
-0.0038705885 0.18939899 0.773 4294967295
-0.0024386202 0.18964192 0.77399999 4294967295
-0.001004282 0.19012983 0.77600002 4294967295
0.00043743287 0.19061767 0.778 4294967295
0.0018889421 0.19135046 0.78100002 4294769398
0.0033472641 0.19183818 0.78299999 4294900207
0.0048252228 0.19281581 0.787 4294834158
0.0063020065 0.19330339 0.78899997 4294637549
0.0077664754 0.19330093 0.78899997 4294505962
-0.13235147 0.19376838 0.78500003 4290893010
-0.1302235 0.19278316 0.78100002 4294901759
-0.12860505 0.1925384 0.77999997 4294967295
-0.12715343 0.19254045 0.77999997 4294967295
-0.12505718 0.19155507 0.77600002 4294967295
-0.12329444 0.19106331 0.77399999 4294967295
-0.12106691 0.18983094 0.76899999 4294967295
-0.11932472 0.1893391 0.76700002 4294967295
-0.11712889 0.1881066 0.76200002 4294967295
-0.11555909 0.18786146 0.76099998 4294967295
-0.11384308 0.18736944 0.759 4294967295
-0.11243083 0.18737108 0.759 4294967295
-0.11072604 0.18687896 0.75700003 4294967295
-0.10902873 0.18638678 0.755 4294967295
-0.10748146 0.1861414 0.75400001 4294967295
-0.10579724 0.1856491 0.75199997 4294967295
-0.10412052 0.18515678 0.75 4294967295
-0.10272521 0.18515813 0.75 4294967295
-0.10132994 0.18515946 0.75 4294967295
-0.10020117 0.18565449 0.75199997 4294967295
-0.098802246 0.18565571 0.75199997 4294967295
-0.097144306 0.18516314 0.75 4294967295
-0.095749184 0.1851643 0.75 4294967295
-0.094228275 0.18491849 0.74900001 4294967295
-0.09258718 0.18442577 0.74699998 4294967295
-0.091197744 0.18442677 0.74699998 4294967295
-0.089808337 0.18442774 0.74699998 4294967295
-0.088300601 0.18418175 0.74599999 4294967295
-0.086913124 0.18418261 0.74599999 4294967295
-0.085525692 0.18418345 0.74599999 4294967295
-0.084138297 0.18418421 0.74599999 4294967295
-0.082529083 0.18369116 0.74400002 4294967295
-0.081145488 0.18369184 0.74400002 4294967295
-0.079761915 0.18369249 0.74400002 4294967295
-0.078378372 0.18369307 0.74400002 4294967295
-0.076994896 0.18369362 0.74400002 4294967295
-0.075408176 0.1832003 0.74199998 4294967295
-0.074028477 0.18320075 0.74199998 4294967295
-0.072648823 0.18320118 0.74199998 4294967295
-0.071269192 0.18320152 0.74199998 4294967295
-0.069889605 0.18320183 0.74199998 4294967295
-0.068417735 0.18295521 0.741 4294967295
-0.067040078 0.18295543 0.741 4294967295
-0.065662466 0.18295561 0.741 4294967295
-0.064284898 0.18295573 0.741 4294967295
-0.062907368 0.18295582 0.741 4294967295
-0.061529867 0.18295586 0.741 4294967295
-0.060152408 0.18295586 0.741 4294967295
-0.058774993 0.1829558 0.741 4294967295
-0.057397615 0.18295568 0.741 4294967295
-0.056020271 0.18295555 0.741 4294967295
-0.054642972 0.18295534 0.741 4294967295
-0.053265717 0.18295512 0.741 4294967295
-0.051888499 0.18295482 0.741 4294967295
-0.050511315 0.18295449 0.741 4294967295
-0.049200486 0.183201 0.74199998 4294967295
-0.047950432 0.18369439 0.74400002 4294967295
-0.046567794 0.18369392 0.74400002 4294967295
-0.045185201 0.18369339 0.74400002 4294967295
-0.043920398 0.18418661 0.74599999 4294967295
-0.042534169 0.18418598 0.74599999 4294967295
-0.041147988 0.1841853 0.74599999 4294967295
-0.039761841 0.18418458 0.74599999 4294967295
-0.038375739 0.18418384 0.74599999 4294967295
-0.036989678 0.18418302 0.74599999 4294967295
-0.035603661 0.18418214 0.74599999 4294967295
-0.034217685 0.18418123 0.74599999 4294967295
-0.032875761 0.18442717 0.74699998 4294967295
-0.031488016 0.18442616 0.74699998 4294967295
-0.030100312 0.18442512 0.74699998 4294967295
-0.028789524 0.18491779 0.74900001 4294967295
-0.02743477 0.18516353 0.75 4294967295
-0.026111066 0.18565609 0.75199997 4294967295
-0.024714246 0.18565483 0.75199997 4294967295
-0.023317475 0.18565351 0.75199997 4294967295
-0.02192075 0.18565218 0.75199997 4294967295
-0.02060594 0.18639141 0.755 4294967295
-0.019254604 0.18688372 0.75700003 4294967295
-0.017895879 0.18737595 0.759 4294967295
-0.016529772 0.18786812 0.76099998 4294967295
-0.015116557 0.18786651 0.76099998 4294967295
-0.013721393 0.18811172 0.76200002 4294967295
-0.012306414 0.18811001 0.76200002 4294967295
-0.010920067 0.18860197 0.764 4294967295
-0.0095014665 0.18860015 0.764 4294967295
-0.0081040729 0.189092 0.76599997 4294967295
-0.0067080241 0.18983063 0.76899999 4294967295
-0.0052802842 0.18982868 0.76899999 4294967295
-0.0038726309 0.19081402 0.773 4294967295
-0.0024407152 0.1910588 0.77399999 4294967295
-0.0010038383 0.19105665 0.77399999 4294967295
0.00043410819 0.19154815 0.77600002 4294967295
0.0018794303 0.19203958 0.778 4294967032
0.0033363996 0.19277778 0.78100002 4294834930
0.0047983271 0.19326907 0.78299999 4294769137
0.0063075502 0.19499446 0.79000002 4294506733
0.0077738259 0.19499198 0.79000002 4294375146
-0.13201213 0.19470941 0.78299999 4291286730
-0.13022141 0.19421418 0.78100002 4294967293
-0.12860301 0.19396757 0.77999997 4294967295
-0.1271514 0.19396959 0.77999997 4294967295
-0.12505522 0.19297689 0.77600002 4294967295
-0.12313323 0.19223277 0.773 4294967295
-0.12106507 0.19123991 0.76899999 4294967295
-0.11932293 0.19074439 0.76700002 4294967295
-0.11712714 0.18950267 0.76200002 4294967295
-0.11555739 0.1892557 0.76099998 4294967295
-0.11384143 0.18876 0.759 4294967295
-0.11242921 0.18876164 0.759 4294967295
-0.11072448 0.18826583 0.75700003 4294967295
-0.10902722 0.18776996 0.755 4294967295
-0.10747997 0.18752275 0.75400001 4294967295
-0.10579582 0.18702675 0.75199997 4294967295
-0.10411915 0.18653075 0.75 4294967295
-0.10272388 0.1865321 0.75 4294967295
-0.10132865 0.18653339 0.75 4294967295
-0.099933453 0.18653463 0.75 4294967295
-0.098538265 0.18653588 0.75 4294967295
-0.097013637 0.18628831 0.74900001 4294967295
-0.095620416 0.18628944 0.74900001 4294967295
-0.093975611 0.18579309 0.74699998 4294967295
-0.092586175 0.18579412 0.74699998 4294967295
-0.091196775 0.1857951 0.74699998 4294967295
-0.089807414 0.18579604 0.74699998 4294967295
-0.088299729 0.18554822 0.74599999 4294967295
-0.086912304 0.18554907 0.74599999 4294967295
-0.085524909 0.18554987 0.74599999 4294967295
-0.084137559 0.18555063 0.74599999 4294967295
-0.082528397 0.1850539 0.74400002 4294967295
