# .PCD v0.7 - Point Cloud Data file format
VERSION 0.7
FIELDS x y z rgba
SIZE 4 4 4 4
TYPE F F F U
COUNT 1 1 1 1
WIDTH 1001
HEIGHT 1
VIEWPOINT 0 0 0 1 0 0 0
POINTS 1001
DATA ascii
-0.090391837 -0.010028946 0.667 4294967295
-0.089145623 -0.010026368 0.667 4294967295
-0.087767676 -0.010008797 0.66600001 4294967295
-0.086263545 -0.0099762427 0.66399997 4294967295
-0.085023031 -0.0099737784 0.66399997 4294967295
-0.083656356 -0.009956331 0.66299999 4294967295
-0.082293451 -0.0099389264 0.662 4294967295
-0.081056744 -0.0099365721 0.662 4294967295
-0.079699486 -0.0099192457 0.66100001 4294967295
-0.078464702 -0.0099169631 0.66100001 4294967295
-0.077229947 -0.0099147148 0.66100001 4294967295
-0.075765274 -0.0098825069 0.65899998 4294967295
-0.074534297 -0.0098803323 0.65899998 4294967295
-0.073192127 -0.0098632025 0.65799999 4294967295
-0.071853705 -0.0098461127 0.65700001 4294967295
-0.070626564 -0.009844047 0.65700001 4294967295
-0.069399439 -0.009842013 0.65700001 4294967295
-0.068172343 -0.0098400144 0.65700001 4294967295
-0.06694527 -0.0098380493 0.65700001 4294967295
-0.065718234 -0.0098361177 0.65700001 4294967295
-0.064491227 -0.0098342206 0.65700001 4294967295
-0.063264243 -0.0098323561 0.65700001 4294967295
-0.062037293 -0.0098305261 0.65700001 4294967295
-0.060810376 -0.0098287296 0.65700001 4294967295
-0.059583474 -0.0098269656 0.65700001 4294967295
-0.058356617 -0.0098252371 0.65700001 4294967295
-0.05721673 -0.0098384935 0.65799999 4294967295
-0.055988066 -0.0098368293 0.65799999 4294967295
-0.054676194 -0.0098202508 0.65700001 4294967295
-0.053286742 -0.0097887674 0.65499997 4294967295
-0.052063767 -0.0097872112 0.65499997 4294967295
-0.050840814 -0.0097856894 0.65499997 4294967295
-0.049617894 -0.0097841993 0.65499997 4294967295
-0.048395015 -0.0097827446 0.65499997 4294967295
-0.047172159 -0.0097813224 0.65499997 4294967295
-0.04594934 -0.0097799338 0.65499997 4294967295
-0.044726543 -0.0097785788 0.65499997 4294967295
-0.043636616 -0.0098071126 0.65700001 4294967295
-0.042410161 -0.0098058209 0.65700001 4294967295
-0.041309103 -0.0098344088 0.65899998 4294967295
-0.040078975 -0.0098331813 0.65899998 4294967295
-0.038730986 -0.0098021487 0.65700001 4294967295
-0.037504658 -0.009800992 0.65700001 4294967295
-0.036167927 -0.0097700357 0.65499997 4294967295
-0.034945402 -0.0097689498 0.65499997 4294967295
-0.033722907 -0.0097678965 0.65499997 4294967295
-0.03250045 -0.0097668776 0.65499997 4294967295
-0.031278029 -0.0097658914 0.65499997 4294967295
-0.030055642 -0.0097649395 0.65499997 4294967295
-0.028833285 -0.0097640203 0.65499997 4294967295
-0.02769528 -0.0097929472 0.65700001 4294967295
-0.026469268 -0.0097920932 0.65700001 4294967295
-0.025320137 -0.0098210778 0.65899998 4294967295
-0.024090463 -0.009820288 0.65899998 4294967295
-0.022930207 -0.0098493341 0.66100001 4294967295
-0.021729702 -0.0098635098 0.662 4294967295
-0.020463582 -0.0098479204 0.66100001 4294967295
-0.019230327 -0.0098472638 0.66100001 4294967295
-0.018024335 -0.0098615363 0.662 4294967295
-0.016789289 -0.0098609468 0.662 4294967288
-0.015554282 -0.0098603908 0.662 4294967290
-0.014319316 -0.0098598693 0.662 4294967285
-0.013104151 -0.009874274 0.66299999 4294966252
-0.011867396 -0.0098738195 0.66299999 4294965742
-0.010630681 -0.0098733986 0.66299999 4294965742
-0.009408175 -0.0098879021 0.66399997 4294966252
-0.0081696743 -0.0098875482 0.66399997 4294373859
-0.0069520921 -0.0099170096 0.66600001 4294373596
-0.0057099434 -0.0099167237 0.66600001 4294242009
-0.004474544 -0.0099313594 0.667 4294110171
-0.0032451432 -0.0099758087 0.67000002 4294570722
-0.0019986378 -0.0099905115 0.671 4294045150
-0.0007473313 -0.0099903606 0.671 4294045150
0.00050468353 -0.010005131 0.67199999 4294110941
0.0094271936 -0.010169049 0.68300003 4293123011
0.010700475 -0.010169208 0.68300003 4292859325
0.011973713 -0.010169403 0.68300003 4292859325
-0.12050462 -0.0092474828 0.69700003 4294967295
-0.1185178 -0.0091910269 0.69300002 4294967295
-0.11688425 -0.0091611613 0.69099998 4294967295
-0.11542551 -0.0091446042 0.69 4294967295
-0.11380511 -0.0091148429 0.68800002 4294967295
-0.11251929 -0.0091116242 0.68800002 4294967295
-0.11107181 -0.0090952013 0.68699998 4294967295
-0.10962811 -0.009078823 0.68599999 4294967295
-0.10803024 -0.009049261 0.68400002 4294967295
-0.10643985 -0.0090197502 0.68199998 4294967295
-0.10516538 -0.0090167355 0.68199998 4294967295
-0.10328159 -0.0089608887 0.67799997 4294967295
-0.10156326 -0.0089183254 0.67500001 4294967295
-0.099856153 -0.0088758217 0.67199999 4294967295
-0.098600447 -0.0088729905 0.67199999 4294967295
-0.097344793 -0.0088701937 0.67199999 4294967295
-0.095946155 -0.0088542355 0.671 4294967295
-0.094692409 -0.0088515123 0.671 4294967295
-0.093299426 -0.0088356351 0.67000002 4294967295
-0.091772847 -0.008806617 0.66799998 4294967295
-0.090524778 -0.0088040084 0.66799998 4294967295
-0.089143105 -0.0087882597 0.667 4294967295
-0.087765165 -0.0087725529 0.66600001 4294967295
-0.086261094 -0.0087437183 0.66399997 4294967295
-0.084892564 -0.0087280981 0.66299999 4294967295
-0.083527803 -0.0087125199 0.662 4294967295
-0.082166784 -0.0086969836 0.66100001 4294967295
-0.080931991 -0.0086946413 0.66100001 4294967295
-0.079697199 -0.0086923316 0.66100001 4294967295
-0.078462452 -0.0086900592 0.66100001 4294967295
-0.077227727 -0.0086878184 0.66100001 4294967295
-0.075763084 -0.0086593311 0.65899998 4294967295
-0.074532159 -0.0086571658 0.65899998 4294967295
-0.073190019 -0.0086419014 0.65799999 4294967295
-0.071961001 -0.008639806 0.65799999 4294967295
-0.07073202 -0.0086377459 0.65799999 4294967295
-0.069397442 -0.0086225951 0.65700001 4294967295
-0.068170384 -0.0086206067 0.65700001 4294967295
-0.067045234 -0.0086317677 0.65799999 4294967295
-0.065716334 -0.0086167268 0.65700001 4294967295
-0.064489357 -0.0086148391 0.65700001 4294967295
-0.06326241 -0.0086129848 0.65700001 4294967295
-0.062035497 -0.0086111631 0.65700001 4294967295
-0.060808603 -0.0086093759 0.65700001 4294967295
-0.059581742 -0.0086076232 0.65700001 4294967295
-0.058354914 -0.008605903 0.65700001 4294967295
-0.057128113 -0.0086042173 0.65700001 4294967295
-0.055986427 -0.0086156586 0.65799999 4294967295
-0.054674599 -0.0086009474 0.65700001 4294967295
-0.053285178 -0.0085731847 0.65499997 4294967295
-0.052062239 -0.0085716387 0.65499997 4294967295
-0.05083932 -0.0085701263 0.65499997 4294967295
-0.049616437 -0.0085686482 0.65499997 4294967295
-0.048393585 -0.0085672028 0.65499997 4294967295
-0.047170766 -0.008565791 0.65499997 4294967295
-0.045947976 -0.0085644135 0.65499997 4294967295
-0.044725217 -0.0085630687 0.65499997 4294967295
-0.043502495 -0.0085617593 0.65499997 4294967295
-0.042279802 -0.0085604824 0.65499997 4294967295
-0.041057143 -0.0085592391 0.65499997 4294967295
-0.039773699 -0.0085449638 0.65399998 4294967295
-0.03855297 -0.0085437885 0.65399998 4294967295
-0.037389364 -0.0085557112 0.65499997 4294967295
-0.036166836 -0.008554603 0.65499997 4294967295
-0.034944341 -0.0085535273 0.65499997 4294967295
-0.033721883 -0.0085524861 0.65499997 4294967295
-0.032499459 -0.0085514775 0.65499997 4294967295
-0.031277072 -0.0085505042 0.65499997 4294967295
-0.030054715 -0.0085495627 0.65499997 4294967295
-0.028920436 -0.0085747596 0.65700001 4294967295
-0.027778726 -0.0085999835 0.65899998 4294967295
-0.026549013 -0.0085991379 0.65899998 4294967295
-0.025396181 -0.0086244224 0.66100001 4294967295
-0.02416281 -0.0086236428 0.66100001 4294967295
-0.022964163 -0.0086359419 0.662 4294967295
-0.021729002 -0.0086352294 0.662 4294967295
-0.020462919 -0.0086215073 0.66100001 4294967295
-0.019229697 -0.0086208628 0.66100001 4294967295
-0.01799651 -0.0086202528 0.66100001 4294967295
-0.016763367 -0.0086196773 0.66100001 4294967290
-0.015530258 -0.0086191352 0.66100001 4294967292
-0.014318818 -0.0086316643 0.662 4294967286
-0.013103689 -0.0086442279 0.66299999 4294900205
-0.011866968 -0.0086437864 0.66299999 4294834158
-0.010630287 -0.0086433776 0.66299999 4294834158
-0.0094078127 -0.0086560398 0.66399997 4294703596
-0.0081693456 -0.0086556999 0.66399997 4294374631
-0.0069517973 -0.008681464 0.66600001 4294439645
-0.0057096821 -0.0086811902 0.66600001 4294176216
-0.0044743158 -0.0086939856 0.667 4294241759
-0.0032352619 -0.0087068155 0.66799998 4294833897
-0.0019954985 -0.0087327119 0.67000002 4293912797
-0.00074720458 -0.0087456079 0.671 4293847004
0.0005047762 -0.0087585384 0.67199999 4293649622
-0.12050124 -0.0079536298 0.69700003 4294967295
-0.11851446 -0.007904605 0.69300002 4294967295
-0.11688095 -0.0078784591 0.69099998 4294967295
-0.11542225 -0.0078637647 0.69 4294967295
-0.1138019 -0.0078377239 0.68800002 4294967295
-0.11251611 -0.0078345127 0.68800002 4294967295
-0.11106868 -0.0078199534 0.68699998 4294967295
-0.10930541 -0.0077826832 0.68400002 4294967295
-0.10786925 -0.0077682231 0.68300003 4294967295
-0.10659292 -0.0077651762 0.68300003 4294967295
-0.1051624 -0.0077507989 0.68199998 4294967295
-0.10297401 -0.0076796641 0.676 4294967295
-0.10156038 -0.0076653981 0.67500001 4294967295
-0.099853322 -0.0076284707 0.67199999 4294967295
-0.098597653 -0.0076256469 0.67199999 4294967295
-0.097342037 -0.0076228571 0.67199999 4294967295
-0.095943436 -0.0076087629 0.671 4294967295
-0.094548605 -0.0075947125 0.67000002 4294967295
-0.093296789 -0.0075920355 0.67000002 4294967295
-0.091770239 -0.007566737 0.66799998 4294967295
-0.0905222 -0.0075641372 0.66799998 4294967295
-0.089140549 -0.0075502526 0.667 4294967295
-0.087762669 -0.0075364099 0.66600001 4294967295
-0.086258627 -0.0075112958 0.66399997 4294967295
-0.084890142 -0.0074975402 0.66299999 4294967295
-0.083525412 -0.007483826 0.662 4294967295
-0.082164451 -0.0074701537 0.66100001 4294967295
-0.080929682 -0.0074678194 0.66100001 4294967295
-0.079694927 -0.0074655195 0.66100001 4294967295
-0.078460209 -0.007463254 0.66100001 4294967295
-0.077225521 -0.0074610226 0.66100001 4294967295
-0.075760931 -0.0074362564 0.65899998 4294967295
-0.074530028 -0.0074340999 0.65899998 4294967295
-0.073187925 -0.0074206996 0.65799999 4294967295
-0.071958952 -0.0074186139 0.65799999 4294967295
-0.070730001 -0.0074165631 0.65799999 4294967295
-0.069501072 -0.0074145449 0.65799999 4294967295
-0.068272181 -0.0074125612 0.65799999 4294967295
-0.067043304 -0.0074106115 0.65799999 4294967295
-0.065714441 -0.0073974356 0.65700001 4294967295
-0.064487502 -0.0073955567 0.65700001 4294967295
-0.063260585 -0.0073937112 0.65700001 4294967295
-0.062033702 -0.0073919003 0.65700001 4294967295
-0.060806844 -0.0073901229 0.65700001 4294967295
-0.059398651 -0.007365888 0.65499997 4294967295
-0.058175586 -0.0073641832 0.65499997 4294967295
-0.056952547 -0.0073625119 0.65499997 4294967295
-0.055899724 -0.0073833517 0.65700001 4294967295
-0.054673016 -0.0073817428 0.65700001 4294967295
-0.053446338 -0.0073801684 0.65700001 4294967295
-0.05206072 -0.0073561659 0.65499997 4294967295
-0.050837837 -0.0073546642 0.65499997 4294967295
-0.049614988 -0.0073531959 0.65499997 4294967295
-0.048318297 -0.0073405365 0.65399998 4294967295
-0.04709737 -0.0073391385 0.65399998 4294967295
-0.045876484 -0.0073377732 0.65399998 4294967295
-0.044655629 -0.0073364424 0.65399998 4294967295
-0.043501217 -0.0073463595 0.65499997 4294967295
-0.042278558 -0.0073450934 0.65499997 4294967295
-0.041055933 -0.0073438613 0.65499997 4294967295
-0.039772522 -0.0073314519 0.65399998 4294967295
-0.038551826 -0.0073302891 0.65399998 4294967295
-0.03738825 -0.0073403665 0.65499997 4294967295
-0.036110543 -0.0073280637 0.65399998 4294967295
-0.034889951 -0.0073270015 0.65399998 4294967295
-0.033720873 -0.0073371748 0.65499997 4294967295
-0.032597713 -0.007358579 0.65700001 4294967295
-0.031371627 -0.0073576141 0.65700001 4294967295
-0.030145574 -0.0073566819 0.65700001 4294967295
-0.028919555 -0.0073557836 0.65700001 4294967295
-0.027777875 -0.0073773083 0.65899998 4294967295
-0.026628768 -0.0073988629 0.66100001 4294967295
-0.025395395 -0.0073980615 0.66100001 4294967295
-0.024162058 -0.0073972936 0.66100001 4294967295
-0.022963444 -0.0074077505 0.662 4294967295
-0.021728318 -0.0074070501 0.662 4294967295
-0.020493224 -0.0074063838 0.662 4294967295
-0.019258169 -0.0074057509 0.662 4294967295
-0.017995929 -0.0073939664 0.66100001 4294967295
-0.016762815 -0.007393403 0.66100001 4294967285
-0.015529741 -0.0073928735 0.66100001 4294967289
-0.014318337 -0.0074035609 0.662 4294966515
-0.013103238 -0.0074142818 0.66299999 4294768365
-0.011884449 -0.0074250358 0.66399997 4294571754
-0.010645937 -0.0074246405 0.66399997 4294571754
-0.0094357999 -0.0074466416 0.66600001 4294374883
-0.0081936372 -0.0074463133 0.66600001 4294309090
-0.0069515151 -0.0074460199 0.66600001 4294374111
-0.0057180063 -0.0074569397 0.667 4293979353
-0.0044741016 -0.0074567143 0.667 4294109910
-0.0032350814 -0.0074677025 0.66799998 4294307289
-0.0019953519 -0.0074899034 0.67000002 4293846488
-0.00074709195 -0.0075009586 0.671 4293780695
0.00050485472 -0.0075120484 0.67199999 4293648592
-0.12049783 -0.0066598798 0.69700003 4294967295
-0.11919516 -0.0066564893 0.69700003 4294967295
-0.11670853 -0.006586317 0.69 4294967295
-0.115419 -0.0065830313 0.69 4294967295
-0.11379869 -0.0065607107 0.68800002 4294967295
-0.11234939 -0.0065479744 0.68699998 4294967295
-0.11090387 -0.0065352842 0.68599999 4294967295
-0.10930233 -0.0065131159 0.68400002 4294967295
-0.10786621 -0.0065005198 0.68300003 4294967295
-0.10643384 -0.006487966 0.68199998 4294967295
-0.10515944 -0.0064849677 0.68199998 4294967295
-0.10297112 -0.0064249765 0.676 4294967295
-0.10155751 -0.0064125736 0.67500001 4294967295
-0.099850498 -0.0063812216 0.67199999 4294967295
-0.098594874 -0.0063784053 0.67199999 4294967295
-0.097339287 -0.0063756239 0.67199999 4294967295
-0.095940724 -0.0063633942 0.671 4294967295
-0.094545931 -0.006351206 0.67000002 4294967295
-0.093294144 -0.0063485373 0.67000002 4294967295
-0.091767639 -0.0063269599 0.66799998 4294967295
-0.090519652 -0.0063243676 0.66799998 4294967295
-0.089138031 -0.006312347 0.667 4294967295
-0.08776018 -0.0063003679 0.66600001 4294967295
-0.086256184 -0.0062789745 0.66399997 4294967295
-0.084887743 -0.0062670824 0.66299999 4294967295
-0.08352305 -0.0062552327 0.662 4294967295
-0.082162112 -0.006243425 0.66100001 4294967295
-0.080927379 -0.0062410985 0.66100001 4294967295
-0.079692669 -0.0062388079 0.66100001 4294967295
-0.078457974 -0.0062365509 0.66100001 4294967295
-0.077223323 -0.0062343283 0.66100001 4294967295
-0.075758763 -0.0062132822 0.65899998 4294967295
-0.074527912 -0.0062111346 0.65899998 4294967295
-0.073074616 -0.0061901771 0.65700001 4294967295
-0.071847536 -0.006188103 0.65700001 4294967295
-0.070620485 -0.0061860634 0.65700001 4294967295
-0.069393463 -0.0061840578 0.65700001 4294967295
-0.068166472 -0.0061820871 0.65700001 4294967295
-0.067041397 -0.0061895559 0.65799999 4294967295
-0.065712564 -0.0061782449 0.65700001 4294967295
-0.064485654 -0.0061763753 0.65700001 4294967295
-0.063258775 -0.0061745401 0.65700001 4294967295
-0.062031928 -0.0061727376 0.65700001 4294967295
-0.060619999 -0.0061521842 0.65499997 4294967295
-0.05939693 -0.0061504547 0.65499997 4294967295
-0.058173914 -0.0061487607 0.65499997 4294967295
-0.056950912 -0.0061470992 0.65499997 4294967295
-0.055727944 -0.0061454722 0.65499997 4294967295
-0.054505005 -0.0061438787 0.65499997 4294967295
-0.053282093 -0.0061423192 0.65499997 4294967295
-0.051979743 -0.006131418 0.65399998 4294967295
-0.050758757 -0.0061299284 0.65399998 4294967295
-0.049462061 -0.0061191013 0.653 4294967295
-0.048243012 -0.0061176815 0.653 4294967295
-0.047023993 -0.0061162948 0.653 4294967295
-0.045805 -0.006114943 0.653 4294967295
-0.044654317 -0.0061229854 0.65399998 4294967295
-0.043499943 -0.0061310595 0.65499997 4294967295
-0.042277317 -0.0061298045 0.65499997 4294967295
-0.041054726 -0.0061285826 0.65499997 4294967295
-0.039832164 -0.0061273947 0.65499997 4294967295
-0.038609639 -0.0061262408 0.65499997 4294967295
-0.037330065 -0.0061157695 0.65399998 4294967295
-0.036054261 -0.0061053345 0.653 4294967295
-0.03483557 -0.0061042863 0.653 4294967295
-0.033719871 -0.0061219633 0.65499997 4294967295
-0.032596741 -0.0061396686 0.65700001 4294967295
-0.031370688 -0.006138714 0.65700001 4294967295
-0.030144669 -0.0061377939 0.65700001 4294967295
-0.0289627 -0.0061462484 0.65799999 4294967295
-0.027734887 -0.0061453949 0.65799999 4294967295
-0.026547391 -0.0061539127 0.65899998 4294967295
-0.025317783 -0.0061531262 0.65899998 4294967295
-0.024161316 -0.0061710454 0.66100001 4294967295
-0.022962736 -0.0061796592 0.662 4294967295
-0.02172764 -0.0061789704 0.662 4294967295
-0.020492585 -0.0061783167 0.662 4294967295
-0.019257566 -0.0061776969 0.662 4294967295
-0.018022582 -0.0061771111 0.662 4294967293
-0.016787637 -0.0061765593 0.662 4294967283
-0.015552733 -0.0061760419 0.662 4294967287
-0.014317866 -0.0061755581 0.662 4294966771
-0.013122565 -0.0061937654 0.66399997 4294571756
-0.011919842 -0.0062120035 0.66600001 4294637285
-0.010677633 -0.0062116203 0.66600001 4294768615
-0.0094354628 -0.006211271 0.66600001 4294308568
-0.0081933346 -0.0062109567 0.66600001 4294111445
-0.0069512473 -0.0062106769 0.66600001 4294111195
-0.0057177721 -0.0062197554 0.667 4293847767
-0.0044739014 -0.0062195435 0.667 4293847501
-0.0032300726 -0.0062193661 0.667 4293979344
-0.0019952192 -0.0062471959 0.67000002 4293847517
-0.00074699335 -0.0062564099 0.671 4293584345
-0.12032156 -0.00535854 0.69599998 4294967295
-0.11867879 -0.0053397729 0.69400001 4294967295
-0.11602869 -0.0052749249 0.68599999 4294967295
-0.11474668 -0.0052716662 0.68599999 4294967295
-0.11363007 -0.0052761226 0.68699998 4294967295
-0.1121827 -0.0052652555 0.68599999 4294967295
-0.11041578 -0.0052390909 0.68300003 4294967295
-0.10913946 -0.0052359882 0.68300003 4294967295
-0.10770524 -0.0052252589 0.68199998 4294967295
-0.10643085 -0.0052222316 0.68199998 4294967295
-0.10469391 -0.0051962812 0.67900002 4294967295
-0.10296822 -0.0051703923 0.676 4294967295
-0.10155464 -0.0051598526 0.67500001 4294967295
-0.099847682 -0.0051340763 0.67199999 4294967295
-0.098592095 -0.0051312679 0.67199999 4294967295
-0.097336538 -0.005128494 0.67199999 4294967295
-0.095938019 -0.0051181274 0.671 4294967295
-0.094543278 -0.0051078042 0.67000002 4294967295
-0.093291521 -0.0051051429 0.67000002 4294967295
-0.092039794 -0.0051025166 0.67000002 4294967295
-0.090517081 -0.0050847009 0.66799998 4294967295
-0.088734597 -0.0050517195 0.66399997 4294967295
-0.087494165 -0.0050492203 0.66399997 4294967295
-0.085993953 -0.005031554 0.662 4294967295
-0.084757313 -0.0050291303 0.662 4294967295
-0.083520688 -0.0050267414 0.662 4294967295
-0.082159787 -0.0050167968 0.66100001 4294967295
-0.080925085 -0.0050144801 0.66100001 4294967295
-0.079690404 -0.005012197 0.66100001 4294967295
-0.078455754 -0.0050099487 0.66100001 4294967295
-0.076987483 -0.0049925824 0.65899998 4294967295
-0.075756632 -0.0049904091 0.65899998 4294967295
-0.074525781 -0.0049882699 0.65899998 4294967295
-0.073072538 -0.0049710325 0.65700001 4294967295
-0.071845487 -0.0049689673 0.65700001 4294967295
-0.07061848 -0.004966937 0.65700001 4294967295
-0.069391489 -0.0049649407 0.65700001 4294967295
-0.068164535 -0.004962978 0.65700001 4294967295
-0.066937596 -0.0049610496 0.65700001 4294967295
-0.065710694 -0.0049591553 0.65700001 4294967295
-0.064483821 -0.0049572946 0.65700001 4294967295
-0.063064411 -0.0049403827 0.65499997 4294967295
-0.061841324 -0.0049385964 0.65499997 4294967295
-0.060618263 -0.0049368427 0.65499997 4294967295
-0.059395242 -0.0049351235 0.65499997 4294967295
-0.058172248 -0.0049334383 0.65499997 4294967295
-0.056949284 -0.004931787 0.65499997 4294967295
-0.055726353 -0.0049301698 0.65499997 4294967295
-0.054503441 -0.0049285856 0.65499997 4294967295
-0.05319922 -0.0049195145 0.65399998 4294967295
-0.051978253 -0.0049180011 0.65399998 4294967295
-0.050679691 -0.0049090041 0.653 4294967295
-0.049384896 -0.0049000448 0.65200001 4294967295
-0.048167743 -0.0048986375 0.65200001 4294967295
-0.04695062 -0.0048972638 0.65200001 4294967295
-0.045733534 -0.0048959232 0.65200001 4294967295
-0.044584755 -0.0049021244 0.653 4294967295
-0.04349868 -0.00491586 0.65499997 4294967295
-0.042276088 -0.0049146153 0.65499997 4294967295
-0.041053534 -0.0049134046 0.65499997 4294967295
-0.040013444 -0.0049347272 0.65799999 4294967295
-0.038549569 -0.0049035875 0.65399998 4294967295
-0.037328977 -0.0049024792 0.65399998 4294967295
-0.03605321 -0.0048939115 0.653 4294967295
-0.034834545 -0.0048928736 0.653 4294967295
-0.03371888 -0.0049068523 0.65499997 4294967295
-0.032595783 -0.0049208584 0.65700001 4294967295
-0.031369764 -0.0049199164 0.65700001 4294967295
-0.030143775 -0.0049190074 0.65700001 4294967295
-0.028961839 -0.0049256184 0.65799999 4294967295
-0.027734058 -0.004924777 0.65799999 4294967295
-0.026546597 -0.0049314522 0.65899998 4294967295
-0.025317023 -0.0049306769 0.65899998 4294967295
-0.024087485 -0.004929936 0.65899998 4294967295
-0.022927357 -0.0049441895 0.66100001 4294967295
-0.021726981 -0.0049509932 0.662 4294967295
-0.020491956 -0.0049503515 0.662 4294967294
-0.019256972 -0.0049497439 0.662 4294967292
-0.018022021 -0.0049491711 0.662 4294967290
-0.016787114 -0.0049486323 0.662 4294637288
-0.015552241 -0.0049481275 0.662 4294834410
-0.014360663 -0.004962604 0.66399997 4294835445
-0.013161666 -0.0049771136 0.66600001 4294374894
-0.011937345 -0.0049841814 0.667 4294440938
-0.010677275 -0.0049763392 0.66600001 4294440938
-0.0094351396 -0.0049760034 0.66600001 4294111445
-0.0082053477 -0.0049831737 0.667 4293913810
-0.0069614286 -0.0049829064 0.667 4293847767
-0.005708979 -0.0049752039 0.66600001 4293913560
-0.0044670077 -0.004975006 0.66600001 4293717462
-0.0032250772 -0.0049748425 0.66600001 4293454546
-0.12031819 -0.0040668617 0.69599998 4294967295
-0.11867546 -0.0040518134 0.69400001 4294967295
-0.11602543 -0.0040018195 0.68599999 4294967295
-0.11474345 -0.0039985678 0.68599999 4294967295
-0.1134615 -0.0039953515 0.68599999 4294967295
-0.11217955 -0.0039921715 0.68599999 4294967295
-0.11041267 -0.0039715827 0.68300003 4294967295
-0.1091364 -0.0039684875 0.68300003 4294967295
-0.10770222 -0.0039596218 0.68199998 4294967295
-0.10642786 -0.003956601 0.68199998 4294967295
-0.10469098 -0.003936226 0.67900002 4294967295
-0.10296532 -0.0039159115 0.676 4294967295
-0.10155179 -0.0039072353 0.67500001 4294967295
-0.099844888 -0.003887034 0.67199999 4294967295
-0.098589323 -0.0038842331 0.67199999 4294967295
-0.097333789 -0.003881467 0.67199999 4294967295
-0.09593533 -0.0038729641 0.671 4294967295
-0.094540611 -0.0038645044 0.67000002 4294967295
-0.093288891 -0.0038618508 0.67000002 4294967295
-0.092037193 -0.0038592326 0.67000002 4294967295
-0.090514548 -0.0038451364 0.66799998 4294967295
-0.088732101 -0.0038195855 0.66399997 4294967295
-0.087491706 -0.003817094 0.66399997 4294967295
-0.085991524 -0.0038031472 0.662 4294967295
-0.084626891 -0.0037949907 0.66100001 4294967295
-0.083392166 -0.0037926137 0.66100001 4294967295
-0.08215747 -0.003790271 0.66100001 4294967295
-0.080922805 -0.0037879618 0.66100001 4294967295
-0.079688154 -0.0037856877 0.66100001 4294967295
-0.078216165 -0.0037720003 0.65899998 4294967295
-0.076985307 -0.0037698017 0.65899998 4294967295
-0.075754479 -0.0037676366 0.65899998 4294967295
-0.074523687 -0.0037655064 0.65899998 4294967295
-0.073292911 -0.00376341 0.65899998 4294967295
-0.071952812 -0.0037556405 0.65799999 4294967295
-0.070723958 -0.0037536155 0.65799999 4294967295
-0.069495142 -0.0037516253 0.65799999 4294967295
-0.068266347 -0.0037496688 0.65799999 4294967295
-0.066935703 -0.0037420508 0.65700001 4294967295
-0.065708831 -0.0037401656 0.65700001 4294967295
-0.064285696 -0.0037269343 0.65499997 4294967295
-0.063062623 -0.0037251229 0.65499997 4294967295
-0.061839573 -0.0037233455 0.65499997 4294967295
-0.060616549 -0.0037216018 0.65499997 4294967295
-0.059393555 -0.0037198924 0.65499997 4294967295
-0.058170594 -0.0037182164 0.65499997 4294967295
-0.056947663 -0.003716575 0.65499997 4294967295
-0.055894915 -0.0037263108 0.65700001 4294967295
-0.054501887 -0.003713394 0.65499997 4294967295
-0.053197704 -0.0037061872 0.65399998 4294967295
-0.051976766 -0.0037046843 0.65399998 4294967295
-0.050678246 -0.0036975525 0.653 4294967295
-0.049383484 -0.0036904591 0.65200001 4294967295
-0.048166368 -0.0036890619 0.65200001 4294967295
-0.046949279 -0.0036876982 0.65200001 4294967295
-0.04573223 -0.0036863687 0.65200001 4294967295
-0.044583481 -0.0036907247 0.653 4294967295
-0.043497432 -0.0037007609 0.65499997 4294967295
-0.042210337 -0.0036938789 0.65399998 4294967295
-0.040989678 -0.003692681 0.65399998 4294967295
-0.039829858 -0.0036971609 0.65499997 4294967295
-0.038489517 -0.0036847435 0.653 4294967295
-0.037270822 -0.0036836492 0.653 4294967295
-0.036107376 -0.0036882276 0.65399998 4294967295
-0.034886882 -0.0036871992 0.65399998 4294967295
-0.033666421 -0.0036862046 0.65399998 4294967295
-0.032495607 -0.0036908793 0.65499997 4294967295
-0.031368852 -0.0037012182 0.65700001 4294967295
-0.030142894 -0.0037003213 0.65700001 4294967295
-0.028916979 -0.0036994587 0.65700001 4294967295
-0.0276911 -0.0036986298 0.65700001 4294967295
-0.026505534 -0.0037034634 0.65799999 4294967295
-0.025316274 -0.0037083286 0.65899998 4294967295
-0.024086772 -0.0037075998 0.65899998 4294967295
-0.022926675 -0.0037181554 0.66100001 4294967295
-0.021693515 -0.0037174933 0.66100001 4294967291
-0.020491341 -0.0037224877 0.662 4294967287
-0.019256391 -0.0037218931 0.662 4294967284
-0.018021476 -0.0037213324 0.662 4294967283
-0.016786601 -0.0037208064 0.662 4294966515
-0.015551763 -0.0037203147 0.662 4294834158
-0.014360218 -0.0037310948 0.66399997 4294637297
-0.013161253 -0.0037419077 0.66600001 4294176746
-0.011936967 -0.0037471342 0.667 4294177511
-0.010676931 -0.0037411598 0.66600001 4294046182
-0.0094348304 -0.0037408378 0.66600001 4294176986
-0.008205072 -0.0037461661 0.667 4293847765
-0.0069611873 -0.0037459126 0.667 4293847765
-0.0057087722 -0.0037400781 0.66600001 4293716435
-0.0044668345 -0.0037398937 0.66600001 4293519317
-0.0032249393 -0.0037397442 0.66600001 4293124559
0.010871722 -0.0038976299 0.69400001 4292595903
0.012165288 -0.003897906 0.69400001 4292003766
0.013439413 -0.003892601 0.69300002 4291675051
0.01473102 -0.0038929479 0.69300002 4291477672
0.016138185 -0.0039214217 0.69800001 4291347365
0.017488983 -0.0039330809 0.69999999 4290558105
0.018793492 -0.0039335401 0.69999999 4290491295
-0.11602219 -0.0027288198 0.68599999 4294967295
-0.11474025 -0.0027255751 0.68599999 4294967295
-0.11345833 -0.0027223667 0.68599999 4294967295
-0.11217642 -0.0027191937 0.68599999 4294967295
-0.11040958 -0.0027041791 0.68300003 4294967295
-0.10913333 -0.0027010909 0.68300003 4294967295
-0.1076992 -0.002694088 0.68199998 4294967295
-0.10611279 -0.0026831843 0.68000001 4294967295
-0.10468804 -0.0026762749 0.67900002 4294967295
-0.10296243 -0.0026615351 0.676 4294967295
-0.10154895 -0.0026547215 0.67500001 4294967295
-0.1002878 -0.002651881 0.67500001 4294967295
-0.098879978 -0.002645151 0.67400002 4294967295
-0.097331077 -0.0026345432 0.67199999 4294967295
-0.095932625 -0.0026279038 0.671 4294967295
-0.094537951 -0.0026213075 0.67000002 4294967295
-0.093286276 -0.0026186621 0.67000002 4294967295
-0.091759898 -0.0026082424 0.66799998 4294967295
-0.090511993 -0.0026056743 0.66799998 4294967295
-0.088729613 -0.0025875538 0.66399997 4294967295
-0.087357469 -0.0025811773 0.66299999 4294967295
-0.08598911 -0.0025748424 0.662 4294967295
-0.084624514 -0.0025685499 0.66100001 4294967295
-0.083389826 -0.0025661807 0.66100001 4294967295
-0.082155161 -0.0025638463 0.66100001 4294967295
-0.080920532 -0.0025615464 0.66100001 4294967295
-0.079685919 -0.0025592805 0.66100001 4294967295
-0.07821396 -0.0025493121 0.65899998 4294967295
-0.076983146 -0.0025471218 0.65899998 4294967295
-0.07575234 -0.0025449658 0.65899998 4294967295
-0.074521586 -0.0025428443 0.65899998 4294967295
-0.073290847 -0.0025407567 0.65899998 4294967295
-0.072060131 -0.0025387036 0.65899998 4294967295
-0.070829451 -0.0025366847 0.65899998 4294967295
-0.069493189 -0.002530854 0.65799999 4294967295
-0.068264425 -0.0025289068 0.65799999 4294967295
-0.06703569 -0.0025269936 0.65799999 4294967295
-0.065706976 -0.0025212774 0.65700001 4294967295
-0.064283878 -0.0025117656 0.65499997 4294967295
-0.063060835 -0.0025099635 0.65499997 4294967295
-0.061837826 -0.0025081956 0.65499997 4294967295
-0.060614835 -0.0025064615 0.65499997 4294967295
-0.059391882 -0.0025047618 0.65499997 4294967295
-0.058168951 -0.0025030957 0.65499997 4294967295
-0.056946054 -0.002501464 0.65499997 4294967295
-0.055723183 -0.0024998661 0.65499997 4294967295
-0.054500345 -0.0024983026 0.65499997 4294967295
-0.053196199 -0.002492961 0.65399998 4294967295
-0.051975295 -0.0024914679 0.65399998 4294967295
-0.050676804 -0.0024862012 0.653 4294967295
-0.049382083 -0.0024809733 0.65200001 4294967295
-0.048164997 -0.0024795861 0.65200001 4294967295
-0.046947949 -0.0024782331 0.65200001 4294967295
-0.045801066 -0.0024807127 0.653 4294967295
-0.044650484 -0.0024832226 0.65399998 4294967295
-0.043496195 -0.0024857621 0.65499997 4294967295
-0.04220913 -0.0024807458 0.65399998 4294967295
-0.040988505 -0.0024795588 0.65399998 4294967295
-0.039828721 -0.0024821952 0.65499997 4294967295
-0.038488418 -0.0024734987 0.653 4294967295
-0.037269756 -0.0024724151 0.653 4294967295
-0.036106337 -0.0024751499 0.65399998 4294967295
-0.03488588 -0.0024741327 0.65399998 4294967295
-0.033665456 -0.0024731494 0.65399998 4294967295
-0.032494675 -0.0024759804 0.65499997 4294967295
-0.031367943 -0.0024826215 0.65700001 4294967295
-0.030142028 -0.0024817362 0.65700001 4294967295
-0.028916145 -0.0024808852 0.65700001 4294967295
-0.027690297 -0.0024800682 0.65700001 4294967295
-0.026504766 -0.002483059 0.65799999 4294967295
-0.02531554 -0.0024860818 0.65899998 4294967295
-0.024086069 -0.0024853649 0.65899998 4294967295
-0.022926005 -0.0024922234 0.66100001 4294967295
-0.021692879 -0.0024915736 0.66100001 4294967291
-0.020490739 -0.0024947261 0.662 4294967288
-0.019255823 -0.0024941438 0.662 4294967289
-0.018020943 -0.0024935959 0.662 4294967285
-0.016786098 -0.0024930823 0.662 4294967284
-0.015551296 -0.0024926034 0.662 4294900203
-0.014316534 -0.0024921587 0.662 4294768365
-0.013160854 -0.0025068044 0.66600001 4294307814
-0.011936602 -0.0025101898 0.667 4294177511
-0.01069263 -0.0025098457 0.667 4294046182
-0.0094486997 -0.0025095362 0.667 4294176988
-0.0082048085 -0.0025092617 0.667 4293847767
-0.0069609582 -0.0025090219 0.667 4293847765
-0.0057171495 -0.0025088165 0.667 4293716435
-0.0044666757 -0.0025048845 0.66600001 4293650390
-0.0032248143 -0.0025047488 0.66600001 4293255633
0.010871456 -0.0026108779 0.69400001 4292530623
0.012164988 -0.0026111691 0.69400001 4291675315
0.013439079 -0.0026077335 0.69300002 4291675567
0.01473065 -0.0026080965 0.69300002 4291609773
0.016137775 -0.0026273159 0.69800001 4291412899
0.017488534 -0.0026352834 0.69999999 4290491797
0.018793009 -0.0026357591 0.69999999 4290163357
-0.11473704 -0.0014526889 0.68599999 4294967295
-0.11345515 -0.0014494876 0.68599999 4294967295
-0.11184625 -0.0014421053 0.68400002 4294967295
-0.11040651 -0.0014368809 0.68300003 4294967295
-0.10913029 -0.0014338006 0.68300003 4294967295
-0.10769618 -0.0014286606 0.68199998 4294967295
-0.10610981 -0.0014214751 0.68000001 4294967295
-0.10468512 -0.0014164286 0.67900002 4294967295
-0.10295955 -0.0014072626 0.676 4294967295
-0.10169655 -0.0014043899 0.676 4294967295
-0.10028499 -0.0013994793 0.67500001 4294967295
-0.098877214 -0.0013946124 0.67400002 4294967295
-0.097618029 -0.0013918538 0.67400002 4294967295
-0.09592995 -0.0013829472 0.671 4294967295
-0.094676405 -0.0013802708 0.671 4294967295
-0.093283653 -0.0013755764 0.67000002 4294967295
-0.091757327 -0.0013688754 0.66799998 4294967295
-0.090509467 -0.0013663156 0.66799998 4294967295
-0.088727139 -0.0013556242 0.66399997 4294967295
-0.087355033 -0.001351111 0.66299999 4294967295
-0.085986704 -0.0013466401 0.662 4294967295
-0.084622137 -0.0013422108 0.66100001 4294967295
-0.083387494 -0.0013398501 0.66100001 4294967295
-0.082152866 -0.0013375239 0.66100001 4294967295
-0.08091826 -0.0013352322 0.66100001 4294967295
-0.079683691 -0.0013329749 0.66100001 4294967295
-0.078449145 -0.0013307522 0.66100001 4294967295
-0.076980986 -0.0013245441 0.65899998 4294967295
-0.075750224 -0.0013223967 0.65899998 4294967295
-0.0745195 -0.0013202837 0.65899998 4294967295
-0.073288791 -0.0013182051 0.65899998 4294967295
-0.072058111 -0.0013161609 0.65899998 4294967295
-0.070827462 -0.001314151 0.65899998 4294967295
-0.069491237 -0.0013101845 0.65799999 4294967295
-0.068262517 -0.0013082463 0.65799999 4294967295
-0.06703382 -0.0013063423 0.65799999 4294967295
-0.065805137 -0.0013044728 0.65799999 4294967295
-0.064282082 -0.0012966983 0.65499997 4294967295
-0.063059062 -0.0012949054 0.65499997 4294967295
-0.061836082 -0.001293147 0.65499997 4294967295
-0.060613133 -0.0012914224 0.65499997 4294967295
-0.059390213 -0.0012897322 0.65499997 4294967295
-0.058167316 -0.0012880758 0.65499997 4294967295
-0.056944449 -0.0012864538 0.65499997 4294967295
-0.055721618 -0.001284866 0.65499997 4294967295
-0.054498818 -0.0012833122 0.65499997 4294967295
-0.05327604 -0.0012817925 0.65499997 4294967295
-0.051973823 -0.0012783525 0.65399998 4294967295
-0.050675374 -0.001274951 0.653 4294967295
-0.049456425 -0.0012735381 0.653 4294967295
-0.048237517 -0.0012721593 0.653 4294967295
-0.047018629 -0.0012708144 0.653 4294967295
-0.045869913 -0.001271448 0.65399998 4294967295
-0.044717487 -0.0012721113 0.65499997 4294967295
-0.043494966 -0.0012708649 0.65499997 4294967295
-0.042272478 -0.0012696525 0.65499997 4294967295
-0.041050021 -0.0012684744 0.65499997 4294967295
-0.039827596 -0.0012673305 0.65499997 4294967295
-0.038487326 -0.0012623542 0.653 4294967295
-0.037268702 -0.0012612818 0.653 4294967295
-0.036050111 -0.0012602432 0.653 4294967295
-0.034884892 -0.0012611672 0.65399998 4294967295
-0.033664498 -0.0012601953 0.65399998 4294967295
-0.032493751 -0.0012611831 0.65499997 4294967295
-0.031271569 -0.001260278 0.65499997 4294967295
-0.030141169 -0.0012632525 0.65700001 4294967295
-0.028915318 -0.0012624132 0.65700001 4294967295
-0.027689507 -0.0012616082 0.65700001 4294967295
-0.026504008 -0.0012627563 0.65799999 4294967295
-0.025276402 -0.0012620185 0.65799999 4294967295
-0.024085382 -0.001263232 0.65899998 4294967290
-0.022925347 -0.0012663936 0.66100001 4294967288
-0.021692254 -0.0012657559 0.66100001 4294967290
-0.020490149 -0.0012670663 0.662 4294967284
-0.019255267 -0.0012664967 0.662 4294967285
-0.018020419 -0.0012659614 0.662 4294967285
-0.016785612 -0.0012654607 0.662 4294967275
-0.015550844 -0.0012649945 0.662 4294570974
-0.014316115 -0.0012645627 0.662 4294570470
-0.013160466 -0.001271804 0.66600001 4294570470
-0.011936249 -0.0012733481 0.667 4294045411
-0.010692313 -0.0012730173 0.667 4293979618
-0.0094484156 -0.0012727213 0.667 4294045146
-0.0082045598 -0.0012724602 0.667 4293650644
-0.0069607445 -0.0012722337 0.667 4293781458
-0.0057169693 -0.001272042 0.667 4293847251
-0.0044732369 -0.0012718851 0.667 4293716186
-0.0032295452 -0.001271763 0.667 4293057999
0.0056146523 -0.0013042978 0.68400002 4292136386
0.0068896911 -0.0013044578 0.68400002 4292004800
0.0081646843 -0.0013046534 0.68400002 4292135868
0.0094810333 -0.0013106075 0.68699998 4292793798
0.010777191 -0.0013127838 0.68800002 4292530360
0.012147145 -0.0013226308 0.69300002 4291675051
0.013458118 -0.0013248824 0.69400001 4291412406
0.014794029 -0.0013290808 0.69599998 4291412406
0.016091108 -0.0013294973 0.69599998 4291281049
0.017438106 -0.001333772 0.69800001 4290754705
0.018738816 -0.0013342624 0.69800001 4290490523
0.020096896 -0.001338614 0.69999999 4290688158
-0.11345199 -0.00017671438 0.68599999 4294967295
-0.11184313 -0.00017305014 0.68400002 4294967295
-0.11040343 -0.0001696884 0.68300003 4294967295
-0.10912724 -0.00016661535 0.68300003 4294967295
-0.1076932 -0.0001633385 0.68199998 4294967295
-0.10610685 -0.00015987101 0.68000001 4294967295
-0.1046822 -0.00015668728 0.67900002 4294967295
-0.10295668 -0.00015309472 0.676 4294967295
-0.1016937 -0.00015022977 0.676 4294967295
-0.10028221 -0.00014718212 0.67500001 4294967295
-0.099021159 -0.00014439196 0.67500001 4294967295
-0.097615309 -0.00014142724 0.67400002 4294967295
-0.09607023 -0.00013830003 0.67199999 4294967295
-0.094673768 -0.00013542578 0.671 4294967295
-0.093281068 -0.00013259449 0.67000002 4294967295
-0.092029482 -0.00013000006 0.67000002 4294967295
-0.090506941 -0.00012706018 0.66799998 4294967295
-0.08872465 -0.00012379754 0.66399997 4294967295
-0.087484352 -0.0001213304 0.66399997 4294967295
-0.085984319 -0.00011853984 0.662 4294967295
-0.084747814 -0.00011614934 0.662 4294967295
-0.08338517 -0.00011362154 0.66100001 4294967295
-0.082150571 -0.00011130371 0.66100001 4294967295
-0.080916002 -0.00010902043 0.66100001 4294967295
-0.079681471 -0.00010677168 0.66100001 4294967295
-0.078446954 -0.00010455748 0.66100001 4294967295
-0.077212468 -0.00010237781 0.66100001 4294967295
-0.075978011 -0.00010023268 0.66100001 4294967295
-0.074743576 -9.812208e-05 0.66100001 4294967295
-0.073286749 -9.5755422e-05 0.65899998 4294967295
-0.0720561 -9.3720082e-05 0.65899998 4294967295
-0.070825487 -9.1719186e-05 0.65899998 4294967295
-0.069489293 -8.9616529e-05 0.65799999 4294967295
-0.068260603 -8.7687433e-05 0.65799999 4294967295
-0.067031942 -8.5792708e-05 0.65799999 4294967295
-0.065803297 -8.3932369e-05 0.65799999 4294967295
-0.064280286 -8.1732069e-05 0.65499997 4294967295
-0.063057303 -7.9948666e-05 0.65499997 4294967295
-0.061834361 -7.8199482e-05 0.65499997 4294967295
-0.060611445 -7.6484532e-05 0.65499997 4294967295
-0.059388552 -7.48038e-05 0.65499997 4294967295
-0.058165688 -7.3157295e-05 0.65499997 4294967295
-0.056942862 -7.1545015e-05 0.65499997 4294967295
-0.055720065 -6.9966969e-05 0.65499997 4294967295
-0.05449729 -6.8423135e-05 0.65499997 4294967295
-0.05327455 -6.6913533e-05 0.65499997 4294967295
-0.051972371 -6.5338252e-05 0.65399998 4294967295
-0.050673958 -6.3801592e-05 0.653 4294967295
-0.049455043 -6.2398954e-05 0.653 4294967295
-0.048383899 -6.1217368e-05 0.65499997 4294967295
-0.047161315 -5.9878887e-05 0.65499997 4294967295
-0.045938764 -5.8574638e-05 0.65499997 4294967295
-0.044716235 -5.7304609e-05 0.65499997 4294967295
-0.043493744 -5.6068795e-05 0.65499997 4294967295
-0.04227129 -5.4867225e-05 0.65499997 4294967295
-0.041048869 -5.369987e-05 0.65499997 4294967295
-0.039765678 -5.2486492e-05 0.65399998 4294967295
-0.03848625 -5.1310693e-05 0.653 4294967295
-0.037267659 -5.0249266e-05 0.653 4294967295
-0.036049102 -4.9221955e-05 0.653 4294967295
-0.034883916 -4.8302627e-05 0.65399998 4294967295
-0.033663556 -4.7342088e-05 0.65399998 4294967295
-0.032443237 -4.6415727e-05 0.65399998 4294967295
-0.03127069 -4.5593144e-05 0.65499997 4294967295
-0.030140324 -4.4870412e-05 0.65700001 4294967295
-0.028914506 -4.4042783e-05 0.65700001 4294967295
-0.027688729 -4.3249493e-05 0.65700001 4294967295
-0.026503267 -4.2555199e-05 0.65799999 4294967295
-0.025275692 -4.1829462e-05 0.65799999 4294967295
-0.024048159 -4.1138104e-05 0.65799999 4294967288
-0.022924701 -4.0665691e-05 0.66100001 4294967290
-0.021691645 -4.0040264e-05 0.66100001 4294967295
-0.020489572 -3.9509046e-05 0.662 4294967290
-0.019254724 -3.895185e-05 0.662 4294769648
-0.018019911 -3.8429243e-05 0.662 4294769648
-0.016785139 -3.7941227e-05 0.662 4294965994
-0.015550404 -3.74878e-05 0.662 4294899944
-0.014402209 -3.729295e-05 0.66600001 4294833899
-0.013179852 -3.6961796e-05 0.667 4294636263
-0.01193591 -3.6609501e-05 0.667 4294175964
-0.010692008 -3.6292058e-05 0.667 4294110171
-0.0094623109 -3.6063455e-05 0.66799998 4294045146
-0.0082166241 -3.5815345e-05 0.66799998 4293650644
-0.0069709788 -3.5602137e-05 0.66799998 4293584597
-0.005716803 -3.5370809e-05 0.667 4293584597
-0.0044731046 -3.5227618e-05 0.667 4293518550
-0.0032342896 -3.5171943e-05 0.66799998 4292795084
0.0030598841 -3.5942398e-05 0.68300003 4292661697
0.0043331124 -3.6045596e-05 0.68300003 4292595903
0.005606296 -3.618448e-05 0.68300003 4292334531
0.0068794349 -3.6359052e-05 0.68300003 4292202944
0.0081644645 -3.6622852e-05 0.68400002 4292070074
0.0094669778 -3.6976966e-05 0.68599999 4292201661
0.010745572 -3.7259837e-05 0.68599999 4292267193
0.012059174 -3.7688111e-05 0.68800002 4291740849
0.013457753 -3.8375485e-05 0.69400001 4291346352
0.014751115 -3.8770442e-05 0.69400001 4291280559
0.016090669 -3.9314637e-05 0.69599998 4291147928
0.017437629 -3.9897794e-05 0.69800001 4290950549
0.018738301 -4.0404444e-05 0.69800001 4290686360
0.020038927 -4.0947562e-05 0.69800001 4290949531
-0.11489789 0.0010943585 0.68699998 4294967295
-0.11361422 0.00109755 0.68699998 4294967295
-0.11184002 0.001095899 0.68400002 4294967295
-0.11040036 0.0010973982 0.68300003 4294967295
-0.10912421 0.0011004639 0.68300003 4294967295
-0.10769019 0.001101878 0.68199998 4294967295
-0.10610392 0.0011016277 0.68000001 4294967295
-0.10467929 0.0011029488 0.67900002 4294967295
-0.10325842 0.0011042256 0.67799997 4294967295
-0.10169087 0.0011038256 0.676 4294967295
-0.10042797 0.0011066475 0.676 4294967295
-0.099018402 0.001107793 0.67500001 4294967295
-0.097612597 0.0011088948 0.67400002 4294967295
-0.096067555 0.001108304 0.67199999 4294967295
-0.094671138 0.0011093153 0.671 4294967295
-0.09327846 0.0011102835 0.67000002 4294967295
-0.092026934 0.0011128702 0.67000002 4294967295
-0.090504423 0.0011120918 0.66799998 4294967295
-0.088722177 0.0011079262 0.66399997 4294967295
-0.087481916 0.0011103853 0.66399997 4294967295
-0.085981905 0.0011094578 0.662 4294967295
-0.084745444 0.0011118399 0.662 4294967295
-0.083508991 0.0011141876 0.662 4294967295
-0.082272567 0.0011165006 0.662 4294967295
-0.081036165 0.0011187788 0.662 4294967295
-0.079679243 0.0011193292 0.66100001 4294967295
-0.078444771 0.0011215348 0.66100001 4294967295
-0.077210322 0.0011237059 0.66100001 4294967295
-0.075975895 0.0011258423 0.66100001 4294967295
-0.074741498 0.0011279442 0.66100001 4294967295
-0.073284708 0.0011265922 0.65899998 4294967295
-0.072054103 0.0011286186 0.65899998 4294967295
-0.070823528 0.0011306106 0.65899998 4294967295
-0.069487356 0.0011308494 0.65799999 4294967295
-0.06825871 0.0011327693 0.65799999 4294967295
-0.06703008 0.001134655 0.65799999 4294967295
-0.065801479 0.001136506 0.65799999 4294967295
-0.064278498 0.0011331326 0.65499997 4294967295
-0.063055553 0.0011349068 0.65499997 4294967295
-0.06183264 0.0011366464 0.65499997 4294967295
-0.060609758 0.0011383519 0.65499997 4294967295
-0.059386902 0.0011400231 0.65499997 4294967295
-0.058164075 0.0011416598 0.65499997 4294967295
-0.056941275 0.0011432624 0.65499997 4294967295
-0.055718515 0.0011448305 0.65499997 4294967295
-0.054495782 0.0011463645 0.65499997 4294967295
-0.053273071 0.001147864 0.65499997 4294967295
-0.052050393 0.0011493294 0.65499997 4294967295
-0.050750148 0.0011490034 0.65399998 4294967295
-0.049529403 0.001150398 0.65399998 4294967295
-0.048382562 0.0011535194 0.65499997 4294967295
-0.04716 0.0011548474 0.65499997 4294967295
-0.04593749 0.0011561413 0.65499997 4294967295
-0.044714998 0.0011574007 0.65499997 4294967295
-0.043492544 0.0011586258 0.65499997 4294967295
-0.042270124 0.0011598166 0.65499997 4294967295
-0.04104773 0.0011609732 0.65499997 4294967295
-0.039764576 0.0011603212 0.65399998 4294967295
-0.038485184 0.0011596316 0.653 4294967295
-0.037266623 0.0011606819 0.653 4294967295
-0.036048099 0.001161698 0.653 4294967295
-0.034882948 0.0011644607 0.65399998 4294967295
-0.033662621 0.0011654098 0.65399998 4294967295
-0.032442339 0.0011663247 0.65399998 4294967295
-0.031269822 0.0011689902 0.65499997 4294967295
-0.030139493 0.00117341 0.65700001 4294967295
-0.028913708 0.0011742259 0.65700001 4294967295
-0.027687965 0.0011750073 0.65700001 4294967295
-0.026462253 0.0011757545 0.65700001 4294967295
-0.025274996 0.0011782577 0.65799999 4294967295
-0.02404749 0.0011789368 0.65799999 4294967291
-0.022924069 0.0011849598 0.66100001 4294967293
-0.021691045 0.0011855728 0.66100001 4294967295
-0.020489007 0.0011879457 0.662 4294967293
-0.019254193 0.0011884904 0.662 4294966513
-0.018046634 0.0011907964 0.66299999 4294835184
-0.01681003 0.0011912724 0.66299999 4294965994
-0.015573466 0.0011917138 0.66299999 4294966508
-0.014358565 0.0011939183 0.66399997 4294833899
-0.013159732 0.0011978881 0.66600001 4294636263
-0.01191769 0.0011982267 0.66600001 4294175964
-0.010691715 0.0012003299 0.667 4294110171
-0.0094478875 0.0012005991 0.667 4293913558
-0.0082164016 0.0012026336 0.66799998 4293650642
-0.0069707916 0.0012028334 0.66799998 4293255635
-0.0057252208 0.001202998 0.66799998 4293124048
-0.0044796923 0.0012031276 0.66799998 4293255116
-0.0032342058 0.0012032222 0.66799998 4292860358
0.0017865548 0.00123027 0.68300003 4292596659
0.0030597919 0.0012301878 0.68300003 4292399805
0.0043329848 0.00123007 0.68300003 4292794563
0.0056061326 0.0012299162 0.68300003 4292466116
0.0068792356 0.0012297267 0.68300003 4292268737
0.0081642307 0.0012313017 0.68400002 4292070074
0.0094667058 0.0012346397 0.68599999 4291938489
0.010745263 0.0012343414 0.68599999 4291807414
0.012058832 0.0012376051 0.68800002 4291807414
0.013399197 0.0012426289 0.69099998 4291346867
0.014750697 0.0012476131 0.69400001 4291149489
0.016090214 0.0012507603 0.69599998 4290885019
0.017387172 0.0012502754 0.69599998 4290885019
0.018684082 0.0012497541 0.69599998 4290226842
0.020038359 0.0012527861 0.69800001 4290029463
-0.11600927 0.0023621174 0.68599999 4294967295
-0.11472747 0.002365333 0.68599999 4294967295
-0.11361106 0.0023719654 0.68699998 4294967295
-0.11216393 0.0023716562 0.68599999 4294967295
-0.11055893 0.0023678404 0.68400002 4294967295
-0.10912118 0.0023674371 0.68300003 4294967295
-0.1076872 0.0023669887 0.68199998 4294967295
-0.10610097 0.0023630208 0.68000001 4294967295
-0.10467639 0.0023624792 0.67900002 4294967295
-0.10325555 0.0023618934 0.67799997 4294967295
-0.10168808 0.002357776 0.676 4294967295
-0.1004252 0.0023605903 0.676 4294967295
-0.099015661 0.0023598729 0.67500001 4294967295
-0.097609885 0.002359112 0.67400002 4294967295
-0.096064888 0.0023548035 0.67199999 4294967295
-0.094668508 0.0023539518 0.671 4294967295
-0.093275882 0.0023530577 0.67000002 4294967295
-0.092024378 0.0023556359 0.67000002 4294967295
-0.090501919 0.0023511397 0.66799998 4294967295
-0.08898697 0.0023465937 0.66600001 4294967295
-0.087479495 0.0023419976 0.66399997 4294967295
-0.085979521 0.0023373524 0.662 4294967295
-0.08474309 0.0023397265 0.662 4294967295
-0.083380543 0.0023385279 0.66100001 4294967295
-0.082146011 0.002340829 0.66100001 4294967295
-0.080911517 0.0023430956 0.66100001 4294967295
-0.079677053 0.0023453275 0.66100001 4294967295
-0.078442596 0.0023475245 0.66100001 4294967295
-0.077208184 0.0023496868 0.66100001 4294967295
-0.075973786 0.0023518144 0.66100001 4294967295
-0.074739434 0.0023539076 0.66100001 4294967295
-0.073282681 0.0023488377 0.65899998 4294967295
-0.072052106 0.0023508547 0.65899998 4294967295
-0.070821561 0.0023528377 0.65899998 4294967295
-0.069485448 0.002351213 0.65799999 4294967295
-0.068256818 0.0023531239 0.65799999 4294967295
-0.067028224 0.002355 0.65799999 4294967295
-0.065799654 0.0023568419 0.65799999 4294967295
-0.064276725 0.0023478956 0.65499997 4294967295
-0.063053802 0.0023496603 0.65499997 4294967295
-0.06183093 0.0023513904 0.65499997 4294967295
-0.060608082 0.0023530864 0.65499997 4294967295
-0.059385262 0.0023547481 0.65499997 4294967295
-0.058162469 0.0023563751 0.65499997 4294967295
-0.056939702 0.0023579679 0.65499997 4294967295
-0.055716973 0.002359526 0.65499997 4294967295
-0.054494277 0.0023610503 0.65499997 4294967295
-0.053271599 0.0023625398 0.65499997 4294967295
-0.052048959 0.0023639947 0.65499997 4294967295
-0.050826356 0.0023654159 0.65499997 4294967295
-0.049603771 0.0023668024 0.65499997 4294967295
-0.048381221 0.0023681542 0.65499997 4294967295
-0.047158707 0.0023694718 0.65499997 4294967295
-0.045936227 0.0023707552 0.65499997 4294967295
