# .PCD v0.7 - Point Cloud Data file format
VERSION 0.7
FIELDS x y z rgba
SIZE 4 4 4 4
TYPE F F F U
COUNT 1 1 1 1
WIDTH 1060
HEIGHT 1
VIEWPOINT 0 0 0 1 0 0 0
POINTS 1060
DATA ascii
0.1924458 -0.034805622 0.84500003 4294967295
0.19447266 -0.03489282 0.847 4294967295
0.19696979 -0.035062488 0.85100001 4294967295
0.19854844 -0.03506742 0.85100001 4294835705
0.20012701 -0.035072394 0.85100001 4292140761
0.067369305 -0.034083646 0.87300003 4292018175
0.06867905 -0.033928897 0.86900002 4294967295
0.070135593 -0.033852257 0.86699998 4294967295
0.071750149 -0.033853758 0.86699998 4294967295
0.073110774 -0.033738151 0.86400002 4294967295
0.074546635 -0.033661623 0.86199999 4294967295
0.075974986 -0.033585139 0.86000001 4294967295
0.077395797 -0.033508684 0.85799998 4294967295
0.078624971 -0.033354152 0.85399997 4294967295
0.079933107 -0.033238709 0.85100001 4294967295
0.081325792 -0.033162352 0.84899998 4294967295
0.082710966 -0.033086032 0.847 4294967295
0.084287636 -0.033087872 0.847 4294967295
0.085661508 -0.033011623 0.84500003 4294967295
0.087234311 -0.033013541 0.84500003 4294967295
0.088386662 -0.032859221 0.84100002 4294967295
0.089951888 -0.032861218 0.84100002 4294967295
0.091299392 -0.032785103 0.83899999 4294967295
0.092860758 -0.032787181 0.83899999 4294967295
0.094422042 -0.032789297 0.83899999 4294967295
0.095754452 -0.03271329 0.83700001 4294967295
0.097079344 -0.032637306 0.83499998 4294967295
0.098396726 -0.032561362 0.833 4294967295
0.099946558 -0.032563634 0.833 4294967295
0.10149632 -0.032565944 0.833 4294967295
0.1027986 -0.032490097 0.83099997 4294967295
0.10434449 -0.032492489 0.83099997 4294967295
0.10563547 -0.032416712 0.829 4294967295
0.1071775 -0.032419175 0.829 4294967295
0.10871945 -0.032421682 0.829 4294967295
0.11026132 -0.03242423 0.829 4294967295
0.1115334 -0.032348592 0.82700002 4294967295
0.11279797 -0.032272976 0.82499999 4294967295
0.11433219 -0.032275636 0.82499999 4294967295
0.11558546 -0.032200094 0.82300001 4294967295
0.11711582 -0.032202829 0.82300001 4294967295
0.11864608 -0.032205604 0.82300001 4294967295
0.11988424 -0.032130152 0.82099998 4294967295
0.12141065 -0.032133006 0.82099998 4294967295
0.122937 -0.0321359 0.82099998 4294967295
0.12446326 -0.032138836 0.82099998 4294967295
0.12568255 -0.032063518 0.81900001 4294967295
0.12720494 -0.032066531 0.81900001 4294967295
0.12872726 -0.032069586 0.81900001 4294967295
0.13024952 -0.032072678 0.81900001 4294967295
0.13177168 -0.032075815 0.81900001 4294967295
0.13329378 -0.032078996 0.81900001 4294967295
0.13514501 -0.032160558 0.82099998 4294967295
0.13667069 -0.032163825 0.82099998 4294967295
0.13819629 -0.032167137 0.82099998 4294967295
0.1397218 -0.032170486 0.82099998 4294967295
0.14090316 -0.032095507 0.81900001 4294967295
0.14242481 -0.032098934 0.81900001 4294967295
0.14394638 -0.032102402 0.81900001 4294967295
0.14511265 -0.032027505 0.81699997 4294967295
0.14663035 -0.032031048 0.81699997 4294967295
0.14851065 -0.032113057 0.81900001 4294967295
0.15003192 -0.032116693 0.81900001 4294967295
0.15155311 -0.032120366 0.81900001 4294967295
0.15344803 -0.032202534 0.82099998 4294967295
0.15497279 -0.032206301 0.82099998 4294967295
0.15725994 -0.032367047 0.82499999 4294967295
0.15879197 -0.032370914 0.82499999 4294967295
0.16032395 -0.032374829 0.82499999 4294967295
0.16185583 -0.032378785 0.82499999 4294967295
0.16338764 -0.032382786 0.82499999 4294967295
0.16531917 -0.032465339 0.82700002 4294967295
0.16685453 -0.032469437 0.82700002 4294967295
0.16838981 -0.032473568 0.82700002 4294967295
0.17033598 -0.032556288 0.829 4294967295
0.17228948 -0.032639075 0.83099997 4294967295
0.17425033 -0.032721922 0.833 4294967295
0.17579648 -0.032726262 0.833 4294967295
0.17776829 -0.032809224 0.83499998 4294967295
0.17931798 -0.032813657 0.83499998 4294967295
0.18130082 -0.032896738 0.83700001 4294967295
0.18285404 -0.032901272 0.83700001 4294967295
0.18440719 -0.032905843 0.83700001 4294967295
0.18640465 -0.032989096 0.83899999 4294967295
0.18840942 -0.033072419 0.84100002 4294967295
0.19042155 -0.033155806 0.84299999 4294967295
0.192441 -0.033239257 0.84500003 4294967295
0.19446783 -0.033322778 0.847 4294967294
0.19696489 -0.033485059 0.85100001 4294967294
0.1985435 -0.033490021 0.85100001 4294375408
0.20012201 -0.03349502 0.85100001 4293455078
0.06559141 -0.032387581 0.87099999 4282672522
0.067213573 -0.032388981 0.87099999 4293722111
0.068677612 -0.032316048 0.86900002 4294967295
0.070134118 -0.032243147 0.86699998 4294967295
0.071748629 -0.032244667 0.86699998 4294967295
0.073363066 -0.032246232 0.86699998 4294967295
0.074545041 -0.032061864 0.86199999 4294967295
0.075973339 -0.031989112 0.86000001 4294967295
0.07739412 -0.031916395 0.85799998 4294967295
0.078623265 -0.031769313 0.85399997 4294967295
0.079931356 -0.031659454 0.85100001 4294967295
0.081132434 -0.031512428 0.847 4294967295
0.082709149 -0.03151425 0.847 4294967295
0.084285781 -0.031516116 0.847 4294967295
0.085659601 -0.0314436 0.84500003 4294967295
0.087232366 -0.031445544 0.84500003 4294967295
0.088384688 -0.031298667 0.84100002 4294967295
0.089949869 -0.031300686 0.84100002 4294967295
0.091297336 -0.031228309 0.83899999 4294967295
0.092858665 -0.031230407 0.83899999 4294967295
0.094194822 -0.031158093 0.83700001 4294967295
0.095752284 -0.031160276 0.83700001 4294967295
0.097077131 -0.031088032 0.83499998 4294967295
0.098394483 -0.031015821 0.833 4294967295
0.099944279 -0.031018117 0.833 4294967295
0.1012503 -0.030945968 0.83099997 4294967295
0.10254882 -0.030873852 0.829 4294967295
0.10409096 -0.03087626 0.829 4294967295
0.10563301 -0.03087871 0.829 4294967295
0.10717501 -0.030881202 0.829 4294967295
0.10871692 -0.030883728 0.829 4294967295
0.10999276 -0.03081179 0.82700002 4294967295
0.11126108 -0.030739881 0.82499999 4294967295
0.1125219 -0.030667994 0.82300001 4294967295
0.11405234 -0.030670675 0.82300001 4294967295
0.11558273 -0.030673394 0.82300001 4294967295
0.11711305 -0.030676156 0.82300001 4294967295
0.11835495 -0.030604405 0.82099998 4294967295
0.11988141 -0.03060724 0.82099998 4294967295
0.12140778 -0.030610122 0.82099998 4294967295
0.12293409 -0.030613039 0.82099998 4294967295
0.12415712 -0.030541418 0.81900001 4294967295
0.12537262 -0.030469827 0.81699997 4294967295
0.12689127 -0.030472856 0.81699997 4294967295
0.12840985 -0.030475929 0.81699997 4294967295
0.12992832 -0.03047904 0.81699997 4294967295
0.13144676 -0.030482197 0.81699997 4294967295
0.13296509 -0.030485392 0.81699997 4294967295
0.13481256 -0.030563265 0.81900001 4294967295
0.13633448 -0.030566553 0.81900001 4294967295
0.13785632 -0.030569881 0.81900001 4294967295
0.13971843 -0.030647909 0.82099998 4294967295
0.14089976 -0.030576661 0.81900001 4294967295
0.14242135 -0.030580115 0.81900001 4294967295
0.14394289 -0.030583609 0.81900001 4294967295
0.14510912 -0.030512447 0.81699997 4294967295
0.14662679 -0.030516019 0.81699997 4294967295
0.14850703 -0.030594345 0.81900001 4294967295
0.15002827 -0.030598003 0.81900001 4294967295
0.15154941 -0.030601704 0.81900001 4294967295
0.15307049 -0.03060545 0.81900001 4294967295
0.15496902 -0.030683987 0.82099998 4294967295
0.15649365 -0.030687822 0.82099998 4294967295
0.15840317 -0.030766474 0.82300001 4294967295
0.15993138 -0.030770402 0.82300001 4294967295
0.16185187 -0.030849161 0.82499999 4294967295
0.16338362 -0.030853186 0.82499999 4294967295
0.16491531 -0.030857256 0.82499999 4294967295
0.16685043 -0.030936178 0.82700002 4294967295
0.16838567 -0.030940341 0.82700002 4294967295
0.17033179 -0.03101938 0.829 4294967295
0.1718706 -0.031023638 0.829 4294967295
0.17382766 -0.031102797 0.83099997 4294967295
0.17579211 -0.031182017 0.833 4294967295
0.17733812 -0.031186424 0.833 4294967295
0.17931354 -0.031265762 0.83499998 4294967295
0.18129632 -0.031345166 0.83700001 4294967295
0.18284951 -0.031349722 0.83700001 4294967295
0.18440261 -0.031354327 0.83700001 4294967295
0.1864 -0.031433895 0.83899999 4294967295
0.18840474 -0.031513538 0.84100002 4294967295
0.18996505 -0.031518295 0.84100002 4294967295
0.19289169 -0.031747982 0.847 4294967295
0.19492216 -0.031827834 0.84899998 4294967295
0.19695997 -0.031907756 0.85100001 4294967295
0.19923842 -0.03202524 0.85399997 4294440688
0.20082247 -0.032030296 0.85399997 4294375408
0.065590024 -0.030771105 0.87099999 4285632700
0.06721215 -0.030772528 0.87099999 4294639615
0.068676144 -0.030703329 0.86900002 4294967295
0.070132613 -0.030634163 0.86699998 4294967295
0.071747087 -0.030635707 0.86699998 4294967295
0.073107623 -0.030531282 0.86400002 4294967295
0.074543417 -0.030462228 0.86199999 4294967295
0.07579501 -0.030322528 0.85799998 4294967295
0.077392429 -0.030324228 0.85799998 4294967295
0.078621529 -0.030184589 0.85399997 4294967295
0.079929598 -0.030080326 0.85100001 4294967295
0.081130631 -0.029940743 0.847 4294967295
0.082707293 -0.029942589 0.847 4294967295
0.084084876 -0.029873772 0.84500003 4294967295
0.085252196 -0.029734271 0.84100002 4294967295
0.086611003 -0.029665519 0.83899999 4294967295
0.088172495 -0.029667515 0.83899999 4294967295
0.089733921 -0.029669553 0.83899999 4294967295
0.091077641 -0.029600905 0.83700001 4294967295
0.092635185 -0.029603021 0.83700001 4294967295
0.093967594 -0.02953444 0.83499998 4294967295
0.095521286 -0.029536637 0.83499998 4294967295
0.096842386 -0.029468125 0.833 4294967295
0.09815596 -0.029399645 0.83099997 4294967295
0.099702001 -0.029401954 0.83099997 4294967295
0.10124794 -0.029404307 0.83099997 4294967295
0.10254645 -0.029335933 0.829 4294967295
0.10383742 -0.029267581 0.82700002 4294967295
0.10512087 -0.029199261 0.82499999 4294967295
0.10665537 -0.029201759 0.82499999 4294967295
0.10818983 -0.029204307 0.82499999 4294967295
0.10972418 -0.029206889 0.82499999 4294967295
0.11125845 -0.029209521 0.82499999 4294967295
0.11251924 -0.029141372 0.82300001 4294967295
0.11404966 -0.029144075 0.82300001 4294967295
0.11558 -0.029146818 0.82300001 4294967295
0.11711027 -0.029149609 0.82300001 4294967295
0.11835214 -0.029081585 0.82099998 4294967295
0.11987856 -0.02908445 0.82099998 4294967295
0.12140489 -0.029087355 0.82099998 4294967295
0.12293114 -0.029090304 0.82099998 4294967295
0.12385096 -0.028951546 0.81699997 4294967295
0.12536962 -0.02895456 0.81699997 4294967295
0.12688822 -0.028957613 0.81699997 4294967295
0.12840676 -0.02896071 0.81699997 4294967295
0.12992521 -0.028963851 0.81699997 4294967295
0.13144358 -0.028967027 0.81699997 4294967295
0.13296187 -0.028970249 0.81699997 4294967295
0.13480932 -0.029044436 0.81900001 4294967295
0.13633119 -0.02904775 0.81900001 4294967295
0.13785298 -0.029051108 0.81900001 4294967295
0.13971505 -0.029125456 0.82099998 4294967295
0.14089632 -0.02905794 0.81900001 4294967295
0.14241789 -0.029061418 0.81900001 4294967295
0.14393939 -0.029064937 0.81900001 4294967295
0.1454608 -0.029068496 0.81900001 4294967295
0.14698215 -0.029072106 0.81900001 4294967295
0.14850341 -0.029075749 0.81900001 4294967295
0.15002458 -0.029079435 0.81900001 4294967295
0.1515457 -0.02908317 0.81900001 4294967295
0.15306675 -0.02908694 0.81900001 4294967295
0.15496522 -0.02916179 0.82099998 4294967295
0.15648979 -0.029165655 0.82099998 4294967295
0.15839927 -0.029240618 0.82300001 4294967295
0.15992743 -0.029244579 0.82300001 4294967295
0.16184786 -0.029319653 0.82499999 4294967295
0.16337958 -0.029323708 0.82499999 4294967295
0.16491121 -0.029327802 0.82499999 4294967295
0.16644281 -0.029331941 0.82499999 4294967295
0.16838151 -0.029407237 0.82700002 4294967295
0.16991664 -0.029411471 0.82700002 4294967295
0.17186633 -0.029486883 0.829 4294967295
0.17340499 -0.029491205 0.829 4294967295
0.17536569 -0.029566739 0.83099997 4294967295
0.17733371 -0.029642334 0.833 4294967295
0.17930907 -0.029717989 0.83499998 4294967295
0.1808586 -0.029722521 0.83499998 4294967295
0.18284494 -0.029798297 0.83700001 4294967295
0.18439801 -0.029802928 0.83700001 4294967295
0.18639533 -0.029878823 0.83899999 4294967295
0.18795198 -0.029883549 0.83899999 4294967295
0.18996029 -0.029959563 0.84100002 4294967295
0.19288683 -0.030178165 0.847 4294967295
0.19491725 -0.03025434 0.84899998 4294967295
0.19695503 -0.03033058 0.85100001 4294967294
0.19923341 -0.030442534 0.85399997 4294374894
0.20081741 -0.03044761 0.85399997 4294244076
0.063819587 -0.029086415 0.86900002 4284710264
0.06543801 -0.029087812 0.86900002 4288850887
0.06705638 -0.029089252 0.86900002 4294967295
0.068516612 -0.029023781 0.86699998 4294967295
0.069888428 -0.028924873 0.86400002 4294967295
0.071497269 -0.02892644 0.86400002 4294967295
0.073106028 -0.02892804 0.86400002 4294967295
0.074368812 -0.028795755 0.86000001 4294967295
0.075793311 -0.028730465 0.85799998 4294967295
0.077210307 -0.028665213 0.85600001 4294967295
0.078619778 -0.028599996 0.85399997 4294967295
0.079927795 -0.028501324 0.85100001 4294967295
0.081128806 -0.028369185 0.847 4294967295
0.082705438 -0.028371053 0.847 4294967295
0.084082969 -0.028305972 0.84500003 4294967295
0.085250251 -0.028173918 0.84100002 4294967295
0.086609028 -0.028108897 0.83899999 4294967295
0.088170491 -0.02811092 0.83899999 4294967295
0.089517958 -0.028045965 0.83700001 4294967295
0.09107554 -0.028048066 0.83700001 4294967295
0.092633054 -0.028050205 0.83700001 4294967295
0.093740351 -0.027918333 0.833 4294967295
0.095290281 -0.027920548 0.833 4294967295
0.096840136 -0.027922804 0.833 4294967295
0.098153681 -0.027858056 0.83099997 4294967295
0.099699676 -0.027860392 0.83099997 4294967295
0.1010019 -0.027795706 0.829 4294967295
0.10229665 -0.027731065 0.82700002 4294967295
0.10358385 -0.027666442 0.82499999 4294967295
0.10511839 -0.027668925 0.82499999 4294967295
0.10665285 -0.027671453 0.82499999 4294967295
0.10818726 -0.027674021 0.82499999 4294967295
0.10972157 -0.027676631 0.82499999 4294967295
0.11125582 -0.027679283 0.82499999 4294967295
0.11251655 -0.027614867 0.82300001 4294967295
0.11404693 -0.027617596 0.82300001 4294967295
0.11557724 -0.027620368 0.82300001 4294967295
0.11710748 -0.02762318 0.82300001 4294967295
0.11863761 -0.02762603 0.82300001 4294967295
0.11987567 -0.027561786 0.82099998 4294967295
0.12140197 -0.027564712 0.82099998 4294967295
0.12292819 -0.027567685 0.82099998 4294967295
0.12384798 -0.027436374 0.81699997 4294967295
0.12536658 -0.02743941 0.81699997 4294967295
0.12657455 -0.027375313 0.815 4294967295
0.12808931 -0.027378425 0.815 4294967295
0.129604 -0.027381582 0.815 4294967295
0.13111863 -0.027384778 0.815 4294967295
0.13263316 -0.027388019 0.815 4294967295
0.13447683 -0.027458511 0.81699997 4294967295
0.13599494 -0.027461844 0.81699997 4294967295
0.13751297 -0.027465221 0.81699997 4294967295
0.13937128 -0.027535876 0.81900001 4294967295
0.14089286 -0.027539339 0.81900001 4294967295
0.14241441 -0.027542841 0.81900001 4294967295
0.14393586 -0.027546389 0.81900001 4294967295
0.14545722 -0.027549975 0.81900001 4294967295
0.14697853 -0.027553609 0.81900001 4294967295
0.14849974 -0.027557278 0.81900001 4294967295
0.15038723 -0.027628295 0.82099998 4294967295
0.15154195 -0.027564751 0.81900001 4294967295
0.15306295 -0.027568545 0.81900001 4294967295
0.15496138 -0.027639715 0.82099998 4294967295
0.15648593 -0.027643608 0.82099998 4294967295
0.15801041 -0.027647542 0.82099998 4294967295
0.15992345 -0.027718879 0.82300001 4294967295
0.16145149 -0.027722904 0.82300001 4294967295
0.16297945 -0.027726976 0.82300001 4294967295
0.16450734 -0.027731081 0.82300001 4294967295
0.16603516 -0.027735239 0.82300001 4294967295
0.16797011 -0.027806839 0.82499999 4294967295
0.16950147 -0.027811093 0.82499999 4294967295
0.17103279 -0.027815383 0.82499999 4294967295
0.17298232 -0.027887156 0.82700002 4294967295
0.17451721 -0.02789155 0.82700002 4294967295
0.17690349 -0.028030902 0.83099997 4294967295
0.1788751 -0.028102871 0.833 4294967295
0.18085405 -0.028174901 0.83499998 4294967295
0.18240345 -0.028179502 0.83499998 4294967295
0.18395276 -0.028184146 0.83499998 4294967295
0.18594635 -0.028256353 0.83700001 4294967295
0.18794723 -0.028328627 0.83899999 4294967295
0.18995549 -0.028400965 0.84100002 4294967295
0.19288197 -0.028608475 0.847 4294967295
0.19445319 -0.028613405 0.847 4294967295
0.19648717 -0.028685953 0.84899998 4294967289
0.19852851 -0.028758571 0.85100001 4294375408
0.2001069 -0.028763659 0.85100001 4294440688
0.063818224 -0.027473886 0.86900002 4287145637
0.065436594 -0.027475303 0.86900002 4289839053
0.067054912 -0.027476767 0.86900002 4294967295
0.0685151 -0.027415026 0.86699998 4294967295
0.069886886 -0.027321711 0.86400002 4294967295
0.071495682 -0.027323298 0.86400002 4294967295
0.073104404 -0.027324926 0.86400002 4294967295
0.074367166 -0.027200084 0.86000001 4294967295
0.075614952 -0.027075272 0.85600001 4294967295
0.077208556 -0.027077014 0.85600001 4294967295
0.078341819 -0.02692063 0.85100001 4294967295
0.07973814 -0.026859172 0.84899998 4294967295
0.081126951 -0.026797753 0.847 4294967295
0.082703538 -0.026799649 0.847 4294967295
0.083683014 -0.026611723 0.84100002 4294967295
0.085248291 -0.026613686 0.84100002 4294967295
0.086607032 -0.026552401 0.83899999 4294967295
0.087958261 -0.026491147 0.83700001 4294967295
0.08951588 -0.026493229 0.83700001 4294967295
0.090420559 -0.02630542 0.83099997 4294967295
0.09196686 -0.026307572 0.83099997 4294967295
0.093513086 -0.02630976 0.83099997 4294967295
0.095059261 -0.026311999 0.83099997 4294967295
0.096605353 -0.026314273 0.83099997 4294967295
0.098151363 -0.026316592 0.83099997 4294967295
0.099697322 -0.026318954 0.83099997 4294967295
0.10099952 -0.026258007 0.829 4294967295
0.10229421 -0.026197089 0.82700002 4294967295
0.10358138 -0.026136205 0.82499999 4294967295
0.10511589 -0.026138712 0.82499999 4294967295
0.10665031 -0.026141264 0.82499999 4294967295
0.10818468 -0.026143858 0.82499999 4294967295
0.10971895 -0.026146494 0.82499999 4294967295
0.11098344 -0.026085781 0.82300001 4294967295
0.11251386 -0.026088487 0.82300001 4294967295
0.11404419 -0.02609124 0.82300001 4294967295
0.11557445 -0.02609404 0.82300001 4294967295
0.11710464 -0.026096875 0.82300001 4294967295
0.11863475 -0.026099751 0.82300001 4294967295
0.11987277 -0.026039239 0.82099998 4294967295
0.12139903 -0.026042197 0.82099998 4294967295
0.12292519 -0.026045188 0.82099998 4294967295
0.12384497 -0.025921315 0.81699997 4294967295
0.12505665 -0.025860919 0.815 4294967295
0.12657145 -0.025864018 0.815 4294967295
0.12808619 -0.025867157 0.815 4294967295
0.12960084 -0.02587034 0.815 4294967295
0.13111542 -0.025873564 0.815 4294967295
0.1326299 -0.025876828 0.815 4294967295
0.13414434 -0.025880134 0.815 4294967295
0.13565868 -0.025883479 0.815 4294967295
0.13717297 -0.025886871 0.815 4294967295
0.13902752 -0.025953835 0.81699997 4294967295
0.14054534 -0.025957314 0.81699997 4294967295
0.14206311 -0.025960838 0.81699997 4294967295
0.14358079 -0.0259644 0.81699997 4294967295
0.14509842 -0.025968006 0.81699997 4294967295
0.14661597 -0.025971655 0.81699997 4294967295
0.14849606 -0.026038932 0.81900001 4294967295
0.15001716 -0.02604267 0.81900001 4294967295
0.15153821 -0.026046453 0.81900001 4294967295
0.15305915 -0.026050279 0.81900001 4294967295
0.15458004 -0.026054142 0.81900001 4294967295
0.15610084 -0.026058048 0.81900001 4294967295
0.15800646 -0.026125642 0.82099998 4294967295
0.15953083 -0.026129644 0.82099998 4294967295
0.16144747 -0.026197352 0.82300001 4294967295
0.16297537 -0.026201446 0.82300001 4294967295
0.16450323 -0.026205586 0.82300001 4294967295
0.16603102 -0.026209768 0.82300001 4294967295
0.1675587 -0.026213991 0.82300001 4294967295
0.16949722 -0.026281968 0.82499999 4294967295
0.17102849 -0.026286287 0.82499999 4294967295
0.17255965 -0.026290648 0.82499999 4294967295
0.1745128 -0.026358798 0.82700002 4294967295
0.17647329 -0.026427008 0.829 4294967295
0.17844112 -0.026495283 0.83099997 4294967295
0.1804163 -0.02656363 0.833 4294967295
0.18196194 -0.026568247 0.833 4294967295
0.18350752 -0.026572907 0.833 4294967295
0.18594161 -0.026705235 0.83700001 4294967295
0.18794249 -0.026773833 0.83899999 4294967295
0.18949893 -0.026778655 0.83899999 4294967295
0.19196619 -0.026911218 0.84299999 4294967295
0.19398911 -0.026980007 0.84500003 4294967295
0.19601931 -0.027048871 0.847 4294967289
0.19805688 -0.027117798 0.84899998 4294901239
0.19963153 -0.027122902 0.84899998 4294506481
0.062341552 -0.025919596 0.87099999 4281880146
0.063963696 -0.025921 0.87099999 4288986047
0.065435156 -0.025862923 0.86900002 4291088865
0.067053422 -0.025864409 0.86900002 4294967295
0.068513572 -0.025806408 0.86699998 4294967295
0.069885321 -0.02571868 0.86400002 4294967295
0.07149408 -0.025720285 0.86400002 4294967295
0.072933517 -0.025662392 0.86199999 4294967295
0.074192531 -0.025544995 0.85799998 4294967295
0.075613238 -0.025487173 0.85600001 4294967295
0.077026404 -0.025429381 0.85399997 4294967295
0.078340024 -0.025341852 0.85100001 4294967295
0.0797363 -0.02528413 0.84899998 4294967295
0.080933526 -0.025166877 0.84500003 4294967295
0.082506344 -0.02516879 0.84500003 4294967295
0.083681077 -0.025051594 0.84100002 4294967295
0.08524631 -0.025053583 0.84100002 4294967295
0.086604998 -0.024996027 0.83899999 4294967295
0.087956205 -0.024938507 0.83700001 4294967295
0.089513786 -0.024940616 0.83700001 4294967295
0.090418436 -0.024763957 0.83099997 4294967295
0.091964684 -0.024766132 0.83099997 4294967295
0.093510889 -0.024768349 0.83099997 4294967295
0.095057011 -0.024770608 0.83099997 4294967295
0.096603051 -0.024772907 0.83099997 4294967295
0.098149031 -0.024775252 0.83099997 4294967295
0.09969493 -0.024777636 0.83099997 4294967295
0.10099711 -0.024720423 0.829 4294967295
0.10229177 -0.024663242 0.82700002 4294967295
0.1035789 -0.024606086 0.82499999 4294967295
0.10511336 -0.024608621 0.82499999 4294967295
0.10664775 -0.024611197 0.82499999 4294967295
0.10791979 -0.024554146 0.82300001 4294967295
0.10945031 -0.024556799 0.82300001 4294967295
0.11098075 -0.024559492 0.82300001 4294967295
0.11251114 -0.02456223 0.82300001 4294967295
0.11404143 -0.024565009 0.82300001 4294967295
0.11557165 -0.024567829 0.82300001 4294967295
0.11710179 -0.02457069 0.82300001 4294967295
0.11834355 -0.024513876 0.82099998 4294967295
0.11986984 -0.024516813 0.82099998 4294967295
0.12139605 -0.024519794 0.82099998 4294967295
0.12262275 -0.024463076 0.81900001 4294967295
0.12384192 -0.024406385 0.81699997 4294967295
0.12505358 -0.024349723 0.815 4294967295
0.12656835 -0.024352845 0.815 4294967295
0.12808304 -0.024356013 0.815 4294967295
0.12959762 -0.024359217 0.815 4294967295
0.13111217 -0.024362465 0.815 4294967295
0.13262664 -0.024365757 0.815 4294967295
0.13414103 -0.024369089 0.815 4294967295
0.13565533 -0.024372462 0.815 4294967295
0.13716957 -0.024375876 0.815 4294967295
0.13902405 -0.024439156 0.81699997 4294967295
0.14054185 -0.024442665 0.81699997 4294967295
0.14205958 -0.024446212 0.81699997 4294967295
0.14357722 -0.024449801 0.81699997 4294967295
0.1450948 -0.024453433 0.81699997 4294967295
0.1466123 -0.024457106 0.81699997 4294967295
0.14849235 -0.024520705 0.81900001 4294967295
0.1500134 -0.024524469 0.81900001 4294967295
0.15153438 -0.024528276 0.81900001 4294967295
0.15305531 -0.024532128 0.81900001 4294967295
0.15457615 -0.024536019 0.81900001 4294967295
0.15609691 -0.024539953 0.81900001 4294967295
0.15800248 -0.024603866 0.82099998 4294967295
0.15952681 -0.024607895 0.82099998 4294967295
0.16144338 -0.024671923 0.82300001 4294967295
0.16297129 -0.024676047 0.82300001 4294967295
0.16449907 -0.02468021 0.82300001 4294967295
0.1660268 -0.024684416 0.82300001 4294967295
0.16755447 -0.024688669 0.82300001 4294967295
0.16949293 -0.024752965 0.82499999 4294967295
0.17102414 -0.024757313 0.82499999 4294967295
0.17255528 -0.024761701 0.82499999 4294967295
0.17450839 -0.024826171 0.82700002 4294967295
0.17646882 -0.024890702 0.829 4294967295
0.17800716 -0.024895241 0.829 4294967295
0.17997856 -0.024959892 0.83099997 4294967295
0.18152045 -0.024964524 0.83099997 4294967295
0.18350285 -0.0250293 0.833 4294967295
0.1854926 -0.025094137 0.83499998 4294967295
0.18748969 -0.025159042 0.83700001 4294967295
0.18904242 -0.025163881 0.83700001 4294967295
0.19150588 -0.025289046 0.84100002 4294967295
0.19398415 -0.025414303 0.84500003 4294967295
0.1960143 -0.025479486 0.847 4294967290
0.19805183 -0.025544738 0.84899998 4294966519
0.1996264 -0.025549866 0.84899998 4294768365
0.20120092 -0.025555044 0.84899998 4294044898
0.06234017 -0.024303591 0.87099999 4281814364
0.063962258 -0.024305016 0.87099999 4289841111
0.065433681 -0.024250671 0.86900002 4291942126
0.06705191 -0.024252182 0.86900002 4294967295
0.068670072 -0.024253735 0.86900002 4294967295
0.070288144 -0.024255333 0.86900002 4294967295
0.071492441 -0.024117403 0.86400002 4294967295
0.072931856 -0.024063244 0.86199999 4294967295
0.074017882 -0.023897456 0.85600001 4294967295
0.075434819 -0.023843363 0.85399997 4294967295
0.076754041 -0.023761384 0.85100001 4294967295
0.078154087 -0.023707354 0.84899998 4294967295
0.079734452 -0.023709215 0.84899998 4294967295
0.080931641 -0.023599409 0.84500003 4294967295
0.082504407 -0.023601344 0.84500003 4294967295
0.0838781 -0.023547454 0.84299999 4294967295
0.085244291 -0.023493601 0.84100002 4294967295
0.086602964 -0.02343978 0.83899999 4294967295
0.087954126 -0.023385994 0.83700001 4294967295
0.088869989 -0.023220465 0.83099997 4294967295
0.090416275 -0.023222622 0.83099997 4294967295
0.091962494 -0.023224819 0.83099997 4294967295
0.093508638 -0.02322706 0.83099997 4294967295
0.095054716 -0.023229342 0.83099997 4294967295
0.096600741 -0.023231668 0.83099997 4294967295
0.098146662 -0.023234036 0.83099997 4294967295
0.099692531 -0.023236442 0.83099997 4294967295
0.10123831 -0.023238894 0.83099997 4294967295
0.10253666 -0.023185451 0.829 4294967295
0.10357639 -0.023076097 0.82499999 4294967295
0.10511081 -0.023078654 0.82499999 4294967295
0.1063866 -0.0230253 0.82300001 4294967295
0.10791718 -0.023027938 0.82300001 4294967295
0.10944764 -0.023030614 0.82300001 4294967295
0.11097803 -0.023033334 0.82300001 4294967295
0.11250837 -0.023036096 0.82300001 4294967295
0.11403862 -0.0230389 0.82300001 4294967295
0.11556882 -0.023041744 0.82300001 4294967295
0.11681435 -0.022988627 0.82099998 4294967295
0.11834064 -0.022991547 0.82099998 4294967295
0.11986689 -0.022994513 0.82099998 4294967295
0.12139305 -0.022997519 0.82099998 4294967295
0.12261973 -0.022944534 0.81900001 4294967295
0.12383885 -0.022891577 0.81699997 4294967295
0.12505047 -0.022838645 0.815 4294967295
0.1265652 -0.022841796 0.815 4294967295
0.12807985 -0.022844987 0.815 4294967295
0.12959442 -0.022848219 0.815 4294967295
0.13110891 -0.022851491 0.815 4294967295
0.13262331 -0.022854809 0.815 4294967295
0.13413768 -0.022858165 0.815 4294967295
0.13565193 -0.022861563 0.815 4294967295
0.13716614 -0.022865003 0.815 4294967295
0.13868025 -0.022868486 0.815 4294967295
0.14019428 -0.02287201 0.815 4294967295
0.14170825 -0.022875575 0.815 4294967295
0.14322217 -0.022879181 0.815 4294967295
0.14473598 -0.02288283 0.815 4294967295
0.14624974 -0.022886524 0.815 4294967295
0.14812599 -0.022946427 0.81699997 4294967295
0.1496433 -0.02295021 0.81699997 4294967295
0.15153058 -0.023010228 0.81900001 4294967295
0.15305145 -0.023014102 0.81900001 4294967295
0.15494971 -0.023074232 0.82099998 4294967295
0.15647414 -0.023078203 0.82099998 4294967295
0.15799849 -0.023082215 0.82099998 4294967295
0.15991139 -0.023142511 0.82300001 4294967295
0.1614393 -0.023146618 0.82300001 4294967295
0.16296715 -0.023150768 0.82300001 4294967295
0.1644949 -0.023154959 0.82300001 4294967295
0.16602258 -0.023159193 0.82300001 4294967295
0.16755021 -0.02316347 0.82300001 4294967295
0.16948862 -0.023224091 0.82499999 4294967295
0.17101979 -0.023228461 0.82499999 4294967295
0.17255089 -0.023232877 0.82499999 4294967295
0.17408191 -0.023237335 0.82499999 4294967295
0.17646432 -0.023354523 0.829 4294967295
0.17800261 -0.023359088 0.829 4294967295
0.17997395 -0.02342006 0.83099997 4294967295
0.1815158 -0.023424722 0.83099997 4294967295
0.18349814 -0.023485815 0.833 4294967295
0.18548784 -0.023546977 0.83499998 4294967295
0.18703689 -0.023551788 0.83499998 4294967295
0.18903755 -0.023613069 0.83700001 4294967295
0.19059014 -0.023617983 0.83700001 4294967295
0.19397916 -0.023848725 0.84500003 4294967295
0.19600926 -0.023910232 0.847 4294967291
0.19758019 -0.023915334 0.847 4294769398
0.19915104 -0.023920482 0.847 4294768619
0.20072179 -0.023925671 0.847 4293979103
0.060716651 -0.022686306 0.87099999 4283190348
0.062338762 -0.022687711 0.87099999 4282141271
0.06381394 -0.022637064 0.86900002 4290891484
0.065432183 -0.02263855 0.86900002 4293585905
0.067050375 -0.022640083 0.86900002 4294967295
0.068668492 -0.022641659 0.86900002 4294967295
0.07028652 -0.022643281 0.86900002 4294967295
0.07149078 -0.022514651 0.86400002 4294967295
0.072760947 -0.022412106 0.86000001 4294967295
0.073843211 -0.022257464 0.85399997 4294967295
0.075168073 -0.022181036 0.85100001 4294967295
0.076571867 -0.022130705 0.84899998 4294967295
0.078152254 -0.022132544 0.84899998 4294967295
0.079544738 -0.022082288 0.847 4294967295
0.080929719 -0.022032063 0.84500003 4294967295
0.082502447 -0.022034021 0.84500003 4294967295
0.084075101 -0.022036025 0.84500003 4294967295
0.085444972 -0.021985907 0.84299999 4294967295
0.086807333 -0.021935826 0.84100002 4294967295
0.087741852 -0.021781433 0.83499998 4294967295
0.088867851 -0.021679228 0.83099997 4294967295
0.090414099 -0.021681409 0.83099997 4294967295
0.091960281 -0.021683631 0.83099997 4294967295
0.093506388 -0.021685895 0.83099997 4294967295
0.095052436 -0.021688202 0.83099997 4294967295
0.096598394 -0.021690551 0.83099997 4294967295
0.098144278 -0.021692943 0.83099997 4294967295
0.099690102 -0.021695375 0.83099997 4294967295
0.10123585 -0.021697849 0.83099997 4294967295
0.10253416 -0.021648141 0.829 4294967295
0.10357384 -0.021546228 0.82499999 4294967295
0.10510823 -0.021548811 0.82499999 4294967295
0.106384 -0.02149919 0.82300001 4294967295
0.10791451 -0.021501852 0.82300001 4294967295
0.10944495 -0.021504551 0.82300001 4294967295
0.1109753 -0.021507297 0.82300001 4294967295
0.11250559 -0.021510085 0.82300001 4294967295
0.1140358 -0.021512911 0.82300001 4294967295
0.11528511 -0.021463495 0.82099998 4294967295
0.11681145 -0.021466399 0.82099998 4294967295
0.11833771 -0.021469345 0.82099998 4294967295
0.11986391 -0.021472335 0.82099998 4294967295
0.12139003 -0.021475362 0.82099998 4294967295
0.12261665 -0.021426115 0.81900001 4294967295
0.12383575 -0.021376889 0.81699997 4294967295
0.12504736 -0.021327695 0.815 4294967295
0.12656203 -0.021330865 0.815 4294967295
0.12807666 -0.021334084 0.815 4294967295
0.12959118 -0.021337342 0.815 4294967295
0.13110563 -0.02134064 0.815 4294967295
0.13261999 -0.021343982 0.815 4294967295
0.13413429 -0.021347364 0.815 4294967295
0.1356485 -0.021350788 0.815 4294967295
0.13716269 -0.021354254 0.815 4294967295
0.13867675 -0.021357762 0.815 4294967295
0.14019075 -0.021361314 0.815 4294967295
0.14170469 -0.021364903 0.815 4294967295
0.14321853 -0.021368537 0.815 4294967295
0.14473233 -0.02137221 0.815 4294967295
0.14624603 -0.021375928 0.815 4294967295
0.14775965 -0.021379687 0.815 4294967295
0.1496395 -0.021435961 0.81699997 4294967295
0.15152673 -0.021492301 0.81900001 4294967295
0.15304756 -0.021496201 0.81900001 4294967295
0.15494578 -0.02155265 0.82099998 4294967295
0.15647015 -0.021556649 0.82099998 4294967295
0.15837935 -0.02161321 0.82300001 4294967295
0.1599073 -0.021617303 0.82300001 4294967295
0.16143519 -0.021621438 0.82300001 4294967295
0.16296297 -0.021625612 0.82300001 4294967295
0.1644907 -0.021629831 0.82300001 4294967295
0.16601835 -0.021634094 0.82300001 4294967295
0.16754591 -0.021638395 0.82300001 4294967295
0.16907343 -0.021642743 0.82300001 4294967295
0.17060085 -0.021647131 0.82300001 4294967295
0.17254646 -0.021704176 0.82499999 4294967295
0.17407744 -0.021708664 0.82499999 4294967295
0.17603406 -0.02176583 0.82700002 4294967295
0.17799802 -0.02182306 0.829 4294967295
0.17996933 -0.021880353 0.83099997 4294967295
0.18151112 -0.021885043 0.83099997 4294967295
0.18349342 -0.021942461 0.833 4294967295
0.18503879 -0.021947246 0.833 4294967295
0.18703204 -0.022004781 0.83499998 4294967295
0.18903267 -0.022062385 0.83700001 4294967295
0.19058524 -0.022067325 0.83700001 4294967295
0.19259681 -0.02212505 0.83899999 4294967292
0.19461577 -0.022182843 0.84100002 4294967290
0.19710857 -0.022293471 0.84500003 4294638580
0.19867563 -0.022298634 0.84500003 4294835445
0.20071657 -0.022356629 0.847 4293848550
0.20228723 -0.022361895 0.847 4293454040
0.060715269 -0.021070536 0.87099999 4283323217
0.062337335 -0.021071965 0.87099999 4282603867
0.063812472 -0.021025047 0.86900002 4291025371
0.065430686 -0.021026557 0.86900002 4293521134
0.067048818 -0.021028114 0.86900002 4294967295
0.06866689 -0.021029714 0.86900002 4294967295
0.070284881 -0.021031359 0.86900002 4294967295
0.071323618 -0.020863621 0.86199999 4294967295
0.072759233 -0.020816924 0.86000001 4294967295
0.073841475 -0.020673435 0.85399997 4294967295
0.075166292 -0.020602597 0.85100001 4294967295
0.076570041 -0.020555997 0.84899998 4294967295
0.078150392 -0.02055786 0.84899998 4294967295
0.079542838 -0.020511335 0.847 4294967295
0.080927782 -0.020464843 0.84500003 4294967295
0.082500473 -0.020466827 0.84500003 4294967295
0.084073074 -0.020468853 0.84500003 4294967295
0.085442916 -0.02042247 0.84299999 4294967295
0.08701165 -0.020424578 0.84299999 4294967295
0.087739721 -0.02023288 0.83499998 4294967295
0.089079574 -0.020186584 0.833 4294967295
0.090411901 -0.02014032 0.83099997 4294967295
0.091958046 -0.020142566 0.83099997 4294967295
0.093504101 -0.020144856 0.83099997 4294967295
0.095050104 -0.020147186 0.83099997 4294967295
0.096596017 -0.020149559 0.83099997 4294967295
0.098141864 -0.020151975 0.83099997 4294967295
0.099447735 -0.020105926 0.829 4294967295
0.10098971 -0.020108419 0.829 4294967295
0.10253163 -0.020110954 0.829 4294967295
0.10382237 -0.02006501 0.82700002 4294967295
0.10510563 -0.020019092 0.82499999 4294967295
0.10638136 -0.019973204 0.82300001 4294967295
0.10791185 -0.019975889 0.82300001 4294967295
0.10944223 -0.019978615 0.82300001 4294967295
0.11097253 -0.019981386 0.82300001 4294967295
0.11222938 -0.01993563 0.82099998 4294967295
0.11375582 -0.019938476 0.82099998 4294967295
0.11528222 -0.019941365 0.82099998 4294967295
0.11680851 -0.019944293 0.82099998 4294967295
0.11833475 -0.019947264 0.82099998 4294967295
0.1198609 -0.01995028 0.82099998 4294967295
0.12138698 -0.019953335 0.82099998 4294967295
0.12261358 -0.019907817 0.81900001 4294967295
0.12383266 -0.019862326 0.81699997 4294967295
0.12504423 -0.019816862 0.815 4294967295
0.12655884 -0.019820061 0.815 4294967295
0.12807342 -0.019823302 0.815 4294967295
0.1295879 -0.019826585 0.815 4294967295
0.13110231 -0.01982991 0.815 4294967295
0.13261664 -0.019833278 0.815 4294967295
0.13413091 -0.019836687 0.815 4294967295
0.13564509 -0.019840136 0.815 4294967295
0.1371592 -0.019843629 0.815 4294967295
0.13867326 -0.019847164 0.815 4294967295
0.14018719 -0.019850738 0.815 4294967295
0.14135334 -0.019805633 0.81300002 4294967295
0.14286345 -0.019809283 0.81300002 4294967295
0.14437348 -0.019812975 0.81300002 4294967295
0.14624229 -0.019865459 0.815 4294967295
0.14775586 -0.019869242 0.815 4294967295
0.14926939 -0.01987307 0.815 4294967295
0.15115283 -0.019925715 0.81699997 4294967295
0.15266991 -0.019929634 0.81699997 4294967295
0.15494178 -0.020031191 0.82099998 4294967295
0.15646614 -0.020035215 0.82099998 4294967295
0.15837529 -0.020088099 0.82300001 4294967295
0.15990321 -0.020092219 0.82300001 4294967295
0.16143104 -0.020096378 0.82300001 4294967295
0.1629588 -0.020100581 0.82300001 4294967295
0.16448647 -0.020104827 0.82300001 4294967295
0.16601408 -0.020109115 0.82300001 4294967295
0.16754161 -0.020113448 0.82300001 4294967295
0.16906907 -0.020117821 0.82300001 4294967295
0.17059644 -0.020122236 0.82300001 4294967295
0.17212373 -0.020126693 0.82300001 4294967295
0.17407292 -0.020180117 0.82499999 4294967295
0.17602952 -0.020233603 0.82700002 4294967295
0.17756401 -0.020238213 0.82700002 4294967295
0.17953154 -0.02029182 0.829 4294967295
0.18150643 -0.020345487 0.83099997 4294967295
0.18348867 -0.020399226 0.833 4294967295
0.18503399 -0.020404043 0.833 4294967295
0.18657923 -0.020408899 0.833 4294967295
0.18902779 -0.020511827 0.83700001 4294967295
0.19058028 -0.020516792 0.83700001 4294967291
0.19259179 -0.020570841 0.83899999 4294901489
0.1946107 -0.020624958 0.84100002 4294901237
0.1966369 -0.02067914 0.84299999 4294769650
0.19867048 -0.020733396 0.84500003 4294834930
0.20071137 -0.020787714 0.847 4293979364
0.20228197 -0.020793008 0.847 4293256652
0.062192753 -0.019411672 0.86900002 4283196017
0.063810974 -0.01941316 0.86900002 4291354606
0.065429136 -0.019414695 0.86900002 4293652467
0.067047231 -0.019416275 0.86900002 4294967295
0.068665259 -0.019417899 0.86900002 4294967295
0.070283212 -0.019419564 0.86900002 4294967295
0.071156442 -0.019220136 0.86000001 4294967295
0.072588287 -0.019177169 0.85799998 4294967295
0.073839702 -0.019089533 0.85399997 4294967295
0.075164482 -0.019024279 0.85100001 4294967295
0.076568194 -0.018981414 0.84899998 4294967295
0.07796441 -0.018938582 0.847 4294967295
0.079540916 -0.01894051 0.847 4294967295
0.080925815 -0.018897749 0.84500003 4294967295
0.082498461 -0.018899757 0.84500003 4294967295
0.084071033 -0.018901808 0.84500003 4294967295
0.085238121 -0.018814415 0.84100002 4294967295
0.086596675 -0.018771792 0.83899999 4294967295
0.087947719 -0.018729201 0.83700001 4294967295
0.089077383 -0.018641889 0.833 4294967295
0.090409674 -0.018599357 0.83099997 4294967295
0.091955774 -0.018601628 0.83099997 4294967295
0.093501791 -0.018603938 0.83099997 4294967295
0.095047742 -0.018606292 0.83099997 4294967295
0.096593633 -0.018608689 0.83099997 4294967295
0.098139435 -0.018611129 0.83099997 4294967295
0.099445261 -0.018568814 0.829 4294967295
0.1009872 -0.01857133 0.829 4294967295
0.10228172 -0.018529084 0.82700002 4294967295
0.10381979 -0.01853168 0.82700002 4294967295
0.105103 -0.018489493 0.82499999 4294967295
0.10637872 -0.018447341 0.82300001 4294967295
0.10790914 -0.01845005 0.82300001 4294967295
0.10943948 -0.018452799 0.82300001 4294967295
0.11070007 -0.018410742 0.82099998 4294967295
0.11222657 -0.018413572 0.82099998 4294967295
0.11375297 -0.018416444 0.82099998 4294967295
0.1152793 -0.018419355 0.82099998 4294967295
0.11680558 -0.018422311 0.82099998 4294967295
0.1180435 -0.018380422 0.81900001 4294967295
0.1195659 -0.018383453 0.81900001 4294967295
0.12108823 -0.018386528 0.81900001 4294967295
0.12261046 -0.018389642 0.81900001 4294967295
0.1238295 -0.018347882 0.81699997 4294967295
0.12534788 -0.018351076 0.81699997 4294967295
0.12655564 -0.018309377 0.815 4294967295
0.12807015 -0.018312644 0.815 4294967295
0.12958461 -0.018315954 0.815 4294967295
0.13109897 -0.018319303 0.815 4294967295
0.13261326 -0.018322695 0.815 4294967295
0.13412748 -0.01832613 0.815 4294967295
0.13564162 -0.018329605 0.815 4294967295
0.13715571 -0.018333124 0.815 4294967295
0.13866968 -0.018336682 0.815 4294967295
0.14018361 -0.018340284 0.815 4294967295
0.14134973 -0.018298913 0.81300002 4294967295
0.14285979 -0.018302586 0.81300002 4294967295
0.14436977 -0.018306307 0.81300002 4294967295
0.14623854 -0.018355109 0.815 4294967295
0.14775208 -0.01835892 0.815 4294967295
0.14926553 -0.018362772 0.815 4294967295
0.15114895 -0.018411739 0.81699997 4294967295
0.15266599 -0.018415686 0.81699997 4294967295
0.1549378 -0.018509855 0.82099998 4294967295
0.1564621 -0.018513905 0.82099998 4294967295
0.15798634 -0.018517997 0.82099998 4294967295
0.15989907 -0.018567257 0.82300001 4294967295
0.16142689 -0.018571444 0.82300001 4294967295
0.16295458 -0.018575674 0.82300001 4294967295
0.16448221 -0.018579945 0.82300001 4294967295
0.16600978 -0.018584263 0.82300001 4294967295
0.16753727 -0.018588619 0.82300001 4294967295
0.16906467 -0.018593019 0.82300001 4294967295
0.17059201 -0.018597463 0.82300001 4294967295
0.17211927 -0.018601948 0.82300001 4294967295
0.17406844 -0.018651692 0.82499999 4294967295
0.17602496 -0.018701505 0.82700002 4294967295
0.17755939 -0.018706137 0.82700002 4294967295
0.17909378 -0.018710816 0.82700002 4294967295
0.18150172 -0.018806061 0.83099997 4294967295
0.18348388 -0.018856119 0.833 4294967295
0.18502918 -0.018860962 0.833 4294967295
0.18657438 -0.018865848 0.833 4294967295
0.18857116 -0.018916083 0.83499998 4294967295
0.1905753 -0.01896639 0.83700001 4294967288
0.19304588 -0.019062093 0.84100002 4294967284
0.1950684 -0.019112544 0.84299999 4294835445
0.19663176 -0.019117706 0.84299999 4294637810
0.19866528 -0.019168282 0.84500003 4294045930
0.20023219 -0.019173546 0.84500003 4293782757
0.20227666 -0.019224247 0.847 4293060050
0.062048141 -0.017758926 0.86699998 4284182662
0.063662611 -0.017760439 0.86699998 4292143615
0.065277003 -0.017761992 0.86699998 4294111986
0.067045636 -0.017804567 0.86900002 4294967295
0.068268545 -0.01770376 0.86400002 4294967295
0.069068372 -0.017500518 0.85399997 4294967295
0.070658296 -0.017502222 0.85399997 4294967295
0.072417334 -0.017544962 0.85600001 4294967295
0.073578537 -0.017444268 0.85100001 4294967295
0.074986011 -0.017405093 0.84899998 4294967295
0.07638596 -0.017365955 0.847 4294967295
0.077962503 -0.017367862 0.847 4294967295
0.079351149 -0.017328797 0.84500003 4294967295
0.080923826 -0.017330784 0.84500003 4294967295
0.082496434 -0.017332816 0.84500003 4294967295
0.083869979 -0.017293859 0.84299999 4294967295
0.085236013 -0.017254937 0.84100002 4294967295
0.086594529 -0.017216049 0.83899999 4294967295
0.087945543 -0.017177192 0.83700001 4294967295
0.089075178 -0.017097317 0.833 4294967295
0.090407424 -0.017058518 0.83099997 4294967295
0.091953479 -0.017060811 0.83099997 4294967295
0.093499459 -0.017063148 0.83099997 4294967295
0.095045373 -0.017065525 0.83099997 4294967295
0.096591212 -0.017067946 0.83099997 4294967295
0.097900786 -0.017029326 0.829 4294967295
0.099442765 -0.017031826 0.829 4294967295
0.10074104 -0.016993275 0.82700002 4294967295
0.10203179 -0.01695475 0.82499999 4294967295
0.1035661 -0.016957363 0.82499999 4294967295
0.10510035 -0.016960021 0.82499999 4294967295
0.10637601 -0.016921598 0.82300001 4294967295
0.10790641 -0.016924331 0.82300001 4294967295
0.10943672 -0.016927108 0.82300001 4294967295
0.11069727 -0.016888786 0.82099998 4294967295
0.1122237 -0.016891638 0.82099998 4294967295
0.11375007 -0.016894534 0.82099998 4294967295
0.11527638 -0.016897473 0.82099998 4294967295
0.11651806 -0.016859282 0.81900001 4294967295
0.1180405 -0.016862296 0.81900001 4294967295
0.11956284 -0.016865352 0.81900001 4294967295
0.12078945 -0.016827257 0.81699997 4294967295
0.12230793 -0.016830392 0.81699997 4294967295
0.12382635 -0.016833566 0.81699997 4294967295
0.12503785 -0.016795568 0.815 4294967295
0.12655239 -0.016798817 0.815 4294967295
0.12838115 -0.016843339 0.81699997 4294967295
0.12989926 -0.016846683 0.81699997 4294967295
0.1310956 -0.016808821 0.815 4294967295
0.13260983 -0.016812235 0.815 4294967295
0.13412404 -0.016815696 0.815 4294967295
0.13563813 -0.016819198 0.815 4294967295
0.13715217 -0.016822742 0.815 4294967295
0.13866612 -0.016826328 0.815 4294967295
0.14017999 -0.016829954 0.815 4294967295
0.14134608 -0.016792312 0.81300002 4294967295
0.14285609 -0.016796017 0.81300002 4294967295
0.14436606 -0.016799761 0.81300002 4294967295
0.14623475 -0.016844884 0.815 4294967295
0.14774825 -0.016848721 0.815 4294967295
0.14962797 -0.016893957 0.81699997 4294967295
0.15114503 -0.016897887 0.81699997 4294967295
0.15266202 -0.016901858 0.81699997 4294967295
0.15493378 -0.016988644 0.82099998 4294967295
0.15645804 -0.016992722 0.82099998 4294967295
0.15798225 -0.01699684 0.82099998 4294967295
0.15989493 -0.017042421 0.82300001 4294967295
0.16142267 -0.017046634 0.82300001 4294967295
0.16295035 -0.017050892 0.82300001 4294967295
0.16447793 -0.017055191 0.82300001 4294967295
0.16600546 -0.017059533 0.82300001 4294967295
0.16753289 -0.017063918 0.82300001 4294967295
0.16906026 -0.017068347 0.82300001 4294967295
0.17058755 -0.017072815 0.82300001 4294967295
0.17253302 -0.017118828 0.82499999 4294967295
0.17406386 -0.017123394 0.82499999 4294967295
0.17602034 -0.017169526 0.82700002 4294967295
0.17755476 -0.01717419 0.82700002 4294967295
0.17908908 -0.017178895 0.82700002 4294967295
0.18149695 -0.017266756 0.83099997 4294967295
0.18303855 -0.017271571 0.83099997 4294967295
0.18458009 -0.017276431 0.83099997 4294967295
0.18656948 -0.017322922 0.833 4294967295
0.18856621 -0.017369481 0.83499998 4294967295
0.19011492 -0.017374495 0.83499998 4294967292
0.1930408 -0.017504435 0.84100002 4294967289
0.19506325 -0.017551206 0.84299999 4294703603
0.1966266 -0.017556399 0.84299999 4294309101
0.19866003 -0.017603299 0.84500003 4294112236
0.20022692 -0.017608592 0.84500003 4293717478
0.20227133 -0.017655617 0.847 4293387995
0.063661069 -0.016152525 0.86699998 4292732661
0.065275423 -0.016154103 0.86699998 4294111986
0.066503949 -0.016062552 0.86199999 4294967295
0.067950837 -0.016026936 0.86000001 4294967295
0.069066696 -0.015916806 0.85399997 4294967295
0.070656575 -0.015918531 0.85399997 4294967295
0.07241556 -0.015957588 0.85600001 4294967295
0.073576719 -0.015866188 0.85100001 4294967295
0.074984156 -0.015830746 0.84899998 4294967295
0.076384082 -0.015795341 0.847 4294967295
0.077776492 -0.015759969 0.84500003 4294967295
0.079349183 -0.015761936 0.84500003 4294967295
0.080921821 -0.015763948 0.84500003 4294967295
0.082299121 -0.015728686 0.84299999 4294967295
0.083867885 -0.015730778 0.84299999 4294967295
0.08523389 -0.015695589 0.84100002 4294967295
0.086592369 -0.015660429 0.83899999 4294967295
0.087943345 -0.015625305 0.83700001 4294967295
0.089072943 -0.015552871 0.833 4294967295
0.090622745 -0.015555153 0.833 4294967295
0.091951169 -0.015520122 0.83099997 4294967295
0.093497105 -0.015522484 0.83099997 4294967295
0.095042966 -0.015524885 0.83099997 4294967295
0.096588768 -0.015527332 0.83099997 4294967295
0.097898312 -0.015492444 0.829 4294967295
0.099440239 -0.015494967 0.829 4294967295
0.10049485 -0.015422758 0.82499999 4294967295
0.1020292 -0.015425354 0.82499999 4294967295
0.10356347 -0.015427993 0.82499999 4294967295
0.1048429 -0.015393266 0.82300001 4294967295
0.10637331 -0.015395982 0.82300001 4294967295
0.10790364 -0.015398742 0.82300001 4294967295
0.10943393 -0.015401542 0.82300001 4294967295
0.11069444 -0.015366949 0.82099998 4294967295
0.11222085 -0.01536983 0.82099998 4294967295
0.11374717 -0.015372749 0.82099998 4294967295
0.11527342 -0.015375711 0.82099998 4294967295
0.11651508 -0.015341255 0.81900001 4294967295
0.11803745 -0.015344294 0.81900001 4294967295
0.11955978 -0.015347376 0.81900001 4294967295
0.12078633 -0.015313012 0.81699997 4294967295
0.12230479 -0.015316171 0.81699997 4294967295
0.12382316 -0.015319371 0.81699997 4294967295
0.12503462 -0.015285102 0.815 4294967295
0.12654912 -0.015288378 0.815 4294967295
0.12837784 -0.015329223 0.81699997 4294967295
0.12989591 -0.015332591 0.81699997 4294967295
0.13109224 -0.01529846 0.815 4294967295
0.13260642 -0.015301902 0.815 4294967295
0.13412054 -0.015305389 0.815 4294967295
0.1356346 -0.015308914 0.815 4294967295
0.13714859 -0.015312483 0.815 4294967295
0.13866252 -0.015316096 0.815 4294967295
0.14017636 -0.015319749 0.815 4294967295
0.1413424 -0.01528584 0.81300002 4294967295
0.14285238 -0.01528957 0.81300002 4294967295
0.14471741 -0.015330961 0.815 4294967295
0.14623095 -0.015334783 0.815 4294967295
0.14810695 -0.015376286 0.81699997 4294967295
0.14962405 -0.015380201 0.81699997 4294967295
0.15114109 -0.015384158 0.81699997 4294967295
0.15265803 -0.015388157 0.81699997 4294967295
0.15455233 -0.01542988 0.81900001 4294967295
0.15645395 -0.015471663 0.82099998 4294967295
0.1579781 -0.015475809 0.82099998 4294967295
0.15989074 -0.015517708 0.82300001 4294967295
0.16141844 -0.01552195 0.82300001 4294967295
0.16294608 -0.015526234 0.82300001 4294967295
0.16447362 -0.01553056 0.82300001 4294967295
0.1660011 -0.015534929 0.82300001 4294967295
0.16752851 -0.015539343 0.82300001 4294967295
0.16946666 -0.015581571 0.82499999 4294967295
0.17099762 -0.015586077 0.82499999 4294967295
