# .PCD v0.7 - Point Cloud Data file format
VERSION 0.7
FIELDS x y z rgba
SIZE 4 4 4 4
TYPE F F F U
COUNT 1 1 1 1
WIDTH 1037
HEIGHT 1
VIEWPOINT 0 0 0 1 0 0 0
POINTS 1037
DATA ascii
-0.031839572 -0.071502157 0.75400001 4294967295
-0.030430991 -0.071500584 0.75400001 4294967295
-0.029022448 -0.071499042 0.75400001 4294967295
-0.027613955 -0.071497537 0.75400001 4294967295
-0.026205491 -0.071496069 0.75400001 4294967295
-0.02479708 -0.071494631 0.75400001 4294967295
-0.023388708 -0.071493231 0.75400001 4294967295
-0.022009533 -0.071586683 0.755 4294967295
-0.020599378 -0.07158535 0.755 4294967295
-0.019189272 -0.071584046 0.755 4294967295
-0.017779209 -0.071582779 0.755 4294967295
-0.01636919 -0.071581542 0.755 4294967295
-0.014959215 -0.07158035 0.755 4294967295
-0.013549287 -0.071579196 0.755 4294967295
-0.012139401 -0.071578056 0.755 4294967295
-0.010715351 -0.071482159 0.75400001 4294967295
-0.0093074255 -0.071481101 0.75400001 4294967295
-0.0078995461 -0.071480088 0.75400001 4294967295
-0.0064917123 -0.07147909 0.75400001 4294967295
-0.005083927 -0.071478136 0.75400001 4294967295
-0.0036761879 -0.071477212 0.75400001 4294967295
-0.0022684967 -0.071476333 0.75400001 4294967295
-0.00086085242 -0.071475483 0.75400001 4294967295
0.00054674363 -0.071474664 0.75400001 4294967295
0.0019542915 -0.071473882 0.75400001 4294967295
0.0033617904 -0.071473129 0.75400001 4294967295
0.004775566 -0.0715672 0.755 4294967295
0.0061848336 -0.071566522 0.755 4294967295
0.0076141693 -0.071755461 0.75700003 4294967295
0.0090270704 -0.071754843 0.75700003 4294967295
0.010495085 -0.072133407 0.76099998 4294967295
0.011915351 -0.072132863 0.76099998 4294967295
0.013335565 -0.072132349 0.76099998 4294967295
0.014755727 -0.072131872 0.76099998 4294967295
0.016197097 -0.072226219 0.76200002 4294967295
0.017619021 -0.072225802 0.76200002 4294967295
0.019040896 -0.072225429 0.76200002 4294967295
0.020462716 -0.072225086 0.76200002 4294967295
0.02188448 -0.072224781 0.76200002 4294967295
0.023306195 -0.072224505 0.76200002 4294967295
0.024727857 -0.072224274 0.76200002 4294967295
0.026286729 -0.072603196 0.76599997 4294967295
0.027715743 -0.072603032 0.76599997 4294967295
0.029182753 -0.072697684 0.76700002 4294967295
0.030613525 -0.072697587 0.76700002 4294967295
0.032211352 -0.073076643 0.77100003 4294967295
0.033649474 -0.073076613 0.77100003 4294967295
0.035224061 -0.073360972 0.77399999 4294967295
0.036667664 -0.073361017 0.77399999 4294967295
0.038209688 -0.073550649 0.77600002 4294967295
0.039759114 -0.073740333 0.778 4294967295
0.041315943 -0.073930047 0.77999997 4294967295
0.042770501 -0.073930226 0.77999997 4294967295
0.044281706 -0.074025244 0.78100002 4294967295
0.045855142 -0.074215062 0.78299999 4294967295
0.047556832 -0.074594498 0.787 4294967295
0.049024206 -0.074594818 0.787 4294967295
0.050683998 -0.074879542 0.79000002 4294967287
0.052288882 -0.075069524 0.792 4294967291
-0.087608747 -0.074459158 0.80000001 4293129466
-0.085897572 -0.074270032 0.79799998 4294967295
-0.084193908 -0.074080952 0.796 4294967295
-0.08270558 -0.074078053 0.796 4294967295
-0.081217282 -0.074075207 0.796 4294967295
-0.079729006 -0.074072368 0.796 4294967295
-0.075016968 -0.07239195 0.778 4294967295
-0.073562458 -0.072389305 0.778 4294967295
-0.071737245 -0.072014526 0.77399999 4294967295
-0.070290275 -0.072011955 0.77399999 4294967295
-0.068843357 -0.072009429 0.77399999 4294967295
-0.067309387 -0.071913905 0.773 4294967295
-0.065864407 -0.071911447 0.773 4294967295
-0.064252779 -0.071722969 0.77100003 4294967295
-0.062648676 -0.071534559 0.76899999 4294967295
-0.061211277 -0.071532212 0.76899999 4294967295
-0.059773911 -0.071529917 0.76899999 4294967295
-0.058184862 -0.071341626 0.76700002 4294967295
-0.056677323 -0.071246393 0.76599997 4294967295
-0.055245679 -0.071244217 0.76599997 4294967295
-0.053673577 -0.071056053 0.764 4294967295
-0.052040584 -0.070774935 0.76099998 4294967295
-0.050485365 -0.070586875 0.759 4294967295
-0.049066965 -0.070584856 0.759 4294967295
-0.04777414 -0.070768848 0.76099998 4294967295
-0.04623026 -0.070580915 0.759 4294967295
-0.04481196 -0.070578992 0.759 4294967295
-0.043165021 -0.070205159 0.755 4294967295
-0.041754283 -0.070203327 0.755 4294967295
-0.040290151 -0.070108533 0.75400001 4294967295
-0.038881354 -0.070106767 0.75400001 4294967295
-0.037472602 -0.070105031 0.75400001 4294967295
-0.036063887 -0.070103332 0.75400001 4294967295
-0.034655213 -0.070101671 0.75400001 4294967295
-0.033246588 -0.070100047 0.75400001 4294967295
-0.031838 -0.070098452 0.75400001 4294967295
-0.030348729 -0.069910951 0.75199997 4294967295
-0.028943965 -0.069909431 0.75199997 4294967295
-0.027539235 -0.069907948 0.75199997 4294967295
-0.026134545 -0.069906488 0.75199997 4294967295
-0.024795676 -0.070090994 0.75400001 4294967295
-0.023387339 -0.070089608 0.75400001 4294967295
-0.021979047 -0.070088252 0.75400001 4294967295
-0.020570794 -0.070086941 0.75400001 4294967295
-0.019188004 -0.070178598 0.755 4294967295
-0.017777974 -0.070177346 0.755 4294967295
-0.016367989 -0.070176139 0.755 4294967295
-0.014958051 -0.070174955 0.755 4294967295
-0.013548153 -0.0701738 0.755 4294967295
-0.012138304 -0.070172697 0.755 4294967295
-0.01071429 -0.070078678 0.75400001 4294967295
-0.0093063982 -0.070077635 0.75400001 4294967295
-0.0078985533 -0.070076622 0.75400001 4294967295
-0.006490753 -0.070075653 0.75400001 4294967295
-0.0050830022 -0.070074715 0.75400001 4294967295
-0.0036752971 -0.070073806 0.75400001 4294967295
-0.0022676401 -0.070072934 0.75400001 4294967295
-0.00086003018 -0.070072107 0.75400001 4294967295
0.0005475317 -0.070071302 0.75400001 4294967295
0.0019550454 -0.070070535 0.75400001 4294967295
0.0033625104 -0.070069797 0.75400001 4294967295
0.0047762529 -0.070162021 0.755 4294967295
0.0062018707 -0.07034722 0.75700003 4294967295
0.0076147886 -0.070346594 0.75700003 4294967295
0.0090276552 -0.07034599 0.75700003 4294967295
0.010495639 -0.070717134 0.76099998 4294967295
0.011915871 -0.070716605 0.76099998 4294967295
0.01333605 -0.070716105 0.76099998 4294967295
0.014756179 -0.070715636 0.76099998 4294967295
0.016197512 -0.070808142 0.76200002 4294967295
0.017619405 -0.070807748 0.76200002 4294967295
0.019041242 -0.07080739 0.76200002 4294967295
0.020463029 -0.07080707 0.76200002 4294967295
0.02188476 -0.070806779 0.76200002 4294967295
0.023428781 -0.071178213 0.76599997 4294967295
0.024857871 -0.071177989 0.76599997 4294967295
0.026286902 -0.071177803 0.76599997 4294967295
0.027715882 -0.071177654 0.76599997 4294967295
0.029144812 -0.071177542 0.76599997 4294967295
0.030613594 -0.071270384 0.76700002 4294967295
0.032127831 -0.071456179 0.76899999 4294967295
0.033649471 -0.071642019 0.77100003 4294967295
0.035224024 -0.071920805 0.77399999 4294967295
0.036762349 -0.072106712 0.77600002 4294967295
0.038209587 -0.072106808 0.77600002 4294967295
0.039861184 -0.072478622 0.77999997 4294967295
0.041315764 -0.072478786 0.77999997 4294967295
0.042770289 -0.072478987 0.77999997 4294967295
0.044281457 -0.072572164 0.78100002 4294967295
0.045854855 -0.072758287 0.78299999 4294967295
0.047556508 -0.073130287 0.787 4294967295
0.049023848 -0.073130645 0.787 4294967295
0.050683603 -0.073409803 0.79000002 4294967282
0.052156411 -0.073410228 0.79000002 4294967284
-0.082702726 -0.072595835 0.796 4294967295
-0.081010401 -0.072410598 0.79400003 4294967295
-0.07952591 -0.07240779 0.79400003 4294967295
-0.078041457 -0.072405018 0.79400003 4294967295
-0.075014308 -0.070943303 0.778 4294967295
-0.073559843 -0.070940658 0.778 4294967295
-0.071920045 -0.070755698 0.77600002 4294967295
-0.070287749 -0.070570782 0.77399999 4294967295
-0.068840861 -0.070568264 0.77399999 4294967295
-0.067306936 -0.07047461 0.773 4294967295
-0.065861985 -0.070472173 0.773 4294967295
-0.06425041 -0.070287444 0.77100003 4294967295
-0.062646337 -0.070102751 0.76899999 4294967295
-0.061208971 -0.070100427 0.76899999 4294967295
-0.05977165 -0.070098139 0.76899999 4294967295
-0.058182646 -0.069913603 0.76700002 4294967295
-0.056749139 -0.069911376 0.76700002 4294967295
-0.05509929 -0.069635764 0.764 4294967295
-0.053671472 -0.06963364 0.764 4294967295
-0.052038528 -0.069358118 0.76099998 4294967295
-0.050483346 -0.069173791 0.759 4294967295
-0.049064979 -0.069171786 0.759 4294967295
-0.047772188 -0.069352075 0.76099998 4294967295
-0.046350151 -0.069350123 0.76099998 4294967295
-0.044928152 -0.069348216 0.76099998 4294967295
-0.043277521 -0.068981849 0.75700003 4294967295
-0.041752484 -0.06879776 0.755 4294967295
-0.040288381 -0.068704858 0.75400001 4294967295
-0.038879618 -0.0687031 0.75400001 4294967295
-0.037470903 -0.068701386 0.75400001 4294967295
-0.036062222 -0.068699695 0.75400001 4294967295
-0.034653589 -0.068698049 0.75400001 4294967295
-0.03324499 -0.068696432 0.75400001 4294967295
-0.031836435 -0.068694852 0.75400001 4294967295
-0.030347209 -0.068511091 0.75199997 4294967295
-0.028942477 -0.068509586 0.75199997 4294967295
-0.027537778 -0.068508111 0.75199997 4294967295
-0.026133126 -0.068506673 0.75199997 4294967295
-0.024794288 -0.068687469 0.75400001 4294967295
-0.023385985 -0.068686098 0.75400001 4294967295
-0.021977726 -0.068684757 0.75400001 4294967295
-0.020569511 -0.068683453 0.75400001 4294967295
-0.019161336 -0.068682179 0.75400001 4294967295
-0.017776754 -0.06877204 0.755 4294967295
-0.016366806 -0.068770833 0.755 4294967295
-0.014956899 -0.068769671 0.755 4294967295
-0.013547037 -0.068768539 0.755 4294967295
-0.012137221 -0.068767436 0.755 4294967295
-0.010713243 -0.068675295 0.75400001 4294967295
-0.0093053859 -0.068674266 0.75400001 4294967295
-0.0078975754 -0.068673275 0.75400001 4294967295
-0.006489811 -0.068672314 0.75400001 4294967295
-0.0050820927 -0.06867139 0.75400001 4294967295
-0.0036744226 -0.068670504 0.75400001 4294967295
-0.0022667991 -0.068669647 0.75400001 4294967295
-0.0008592236 -0.06866882 0.75400001 4294967295
0.00054830388 -0.068668045 0.75400001 4294967295
0.0019557832 -0.068667293 0.75400001 4294967295
0.003363214 -0.06866657 0.75400001 4294967295
0.004776923 -0.06875696 0.755 4294967295
0.0061861221 -0.068756312 0.755 4294967295
0.0076153916 -0.068937831 0.75700003 4294967295
0.0090282252 -0.068937257 0.75700003 4294967295
0.010496177 -0.069300964 0.76099998 4294967295
0.011916372 -0.069300458 0.76099998 4294967295
0.013336518 -0.069299966 0.76099998 4294967295
0.014756613 -0.069299527 0.76099998 4294967295
0.016197912 -0.069390185 0.76200002 4294967295
0.017619768 -0.069389798 0.76200002 4294967295
0.019091548 -0.069571592 0.764 4294967295
0.020517033 -0.069571279 0.764 4294967295
0.021999903 -0.06975314 0.76599997 4294967295
0.023429008 -0.069752894 0.76599997 4294967295
0.024858061 -0.069752693 0.76599997 4294967295
0.026287062 -0.069752529 0.76599997 4294967295
0.027716005 -0.069752388 0.76599997 4294967295
0.029144894 -0.069752298 0.76599997 4294967295
0.030613648 -0.0698433 0.76700002 4294967295
0.032044291 -0.06984327 0.76700002 4294967295
0.033649456 -0.070207521 0.77100003 4294967295
0.035223976 -0.070480749 0.77399999 4294967295
0.036762256 -0.070662946 0.77600002 4294967295
0.038307935 -0.070845187 0.778 4294967295
0.03986102 -0.07102745 0.77999997 4294967295
0.041315567 -0.071027644 0.77999997 4294967295
0.042770058 -0.071027875 0.77999997 4294967295
0.044281192 -0.071119189 0.78100002 4294967295
0.04585455 -0.071301609 0.78299999 4294967295
0.047556169 -0.071666203 0.787 4294967287
0.049023472 -0.071666569 0.787 4294967287
0.050619032 -0.071849108 0.78899997 4294967283
0.052155957 -0.071940623 0.79000002 4294967282
0.053764451 -0.07212323 0.792 4294967025
-0.085891709 -0.071298197 0.79799998 4294967295
-0.084188141 -0.071116589 0.796 4294967295
-0.082699873 -0.071113713 0.796 4294967295
-0.081007592 -0.070932209 0.79400003 4294967295
-0.079523139 -0.070929416 0.79400003 4294967295
-0.07803873 -0.070926674 0.79400003 4294967295
-0.075011671 -0.069494739 0.778 4294967295
-0.073557235 -0.069492117 0.778 4294967295
-0.071732126 -0.069132254 0.77399999 4294967295
-0.070285231 -0.069129705 0.77399999 4294967295
-0.06874945 -0.069037892 0.773 4294967295
-0.067304499 -0.069035433 0.773 4294967295
-0.065859579 -0.069032997 0.773 4294967295
-0.06424804 -0.068852 0.77100003 4294967295
-0.06264402 -0.068671048 0.76899999 4294967295
-0.061206691 -0.068668738 0.76899999 4294967295
-0.059769396 -0.068666466 0.76899999 4294967295
-0.058332141 -0.06866423 0.76899999 4294967295
-0.056894924 -0.068662025 0.76899999 4294967295
-0.055097166 -0.068213433 0.764 4294967295
-0.053669374 -0.068211317 0.764 4294967295
-0.051899716 -0.067762837 0.759 4294967295
-0.050481334 -0.06776081 0.759 4294967295
-0.049063005 -0.067758814 0.759 4294967295
-0.047644693 -0.067756847 0.759 4294967295
-0.046104629 -0.067576386 0.75700003 4294967295
-0.044690143 -0.067574494 0.75700003 4294967295
-0.043390024 -0.067751169 0.759 4294967295
-0.041695386 -0.067303039 0.75400001 4294967295
-0.040286627 -0.067301266 0.75400001 4294967295
-0.038877901 -0.06729953 0.75400001 4294967295
-0.037469216 -0.067297824 0.75400001 4294967295
-0.036060572 -0.067296155 0.75400001 4294967295
-0.034651972 -0.067294516 0.75400001 4294967295
-0.033243407 -0.067292914 0.75400001 4294967295
-0.031834885 -0.067291342 0.75400001 4294967295
-0.030345699 -0.067111328 0.75199997 4294967295
-0.028941 -0.067109831 0.75199997 4294967295
-0.027536338 -0.06710837 0.75199997 4294967295
-0.026131721 -0.067106947 0.75199997 4294967295
-0.024727143 -0.067105561 0.75199997 4294967295
-0.023322614 -0.067104205 0.75199997 4294967295
-0.021976421 -0.06728135 0.75400001 4294967295
-0.020568237 -0.067280062 0.75400001 4294967295
-0.019160101 -0.06727881 0.75400001 4294967295
-0.017752007 -0.067277595 0.75400001 4294967295
-0.016343957 -0.067276403 0.75400001 4294967295
-0.014935954 -0.067275256 0.75400001 4294967295
-0.013545936 -0.067363359 0.755 4294967295
-0.012136156 -0.067362271 0.755 4294967295
-0.010712212 -0.067272015 0.75400001 4294967295
-0.0093043903 -0.067271009 0.75400001 4294967295
-0.0078966124 -0.067270026 0.75400001 4294967295
-0.006488882 -0.067269079 0.75400001 4294967295
-0.0050811996 -0.067268178 0.75400001 4294967295
-0.003673563 -0.067267299 0.75400001 4294967295
-0.0022599634 -0.06708803 0.75199997 4294967295
-0.00085615594 -0.067087226 0.75199997 4294967295
0.00054906018 -0.067264885 0.75400001 4294967295
0.0019565052 -0.067264155 0.75400001 4294967295
0.0033639015 -0.067263447 0.75400001 4294967295
0.0047775777 -0.067351997 0.755 4294967295
0.0061867419 -0.067351356 0.755 4294967295
0.0076159788 -0.067529179 0.75700003 4294967295
0.0090287765 -0.067528605 0.75700003 4294967295
0.010469111 -0.067706488 0.759 4294967295
0.011916859 -0.067884393 0.76099998 4294967295
0.01333697 -0.067883931 0.76099998 4294967295
0.01475703 -0.067883506 0.76099998 4294967295
0.016198292 -0.067972317 0.76200002 4294967295
0.017620115 -0.067971967 0.76200002 4294967295
0.019091863 -0.068150036 0.764 4294967295
0.020571021 -0.068328157 0.76599997 4294967295
0.022000147 -0.068327889 0.76599997 4294967295
0.023429219 -0.06832768 0.76599997 4294967295
0.024858238 -0.068327487 0.76599997 4294967295
0.026287202 -0.068327345 0.76599997 4294967295
0.027643746 -0.068148829 0.764 4294967295
0.029068874 -0.068148747 0.764 4294967295
0.030493941 -0.06814871 0.764 4294967295
0.032044291 -0.068416305 0.76700002 4294967295
0.033867639 -0.069219127 0.77600002 4294967295
0.035314918 -0.069219194 0.77600002 4294967295
0.036762152 -0.069219291 0.77600002 4294967295
0.038307797 -0.069397822 0.778 4294967295
0.039860841 -0.069576398 0.77999997 4294967295
0.041315354 -0.069576606 0.77999997 4294967295
0.042824645 -0.06966605 0.78100002 4294967295
0.044280905 -0.069666333 0.78100002 4294967295
0.045854229 -0.069845051 0.78299999 4294967295
0.047434956 -0.070023812 0.78500003 4294967279
0.049023069 -0.070202596 0.787 4294967281
0.050618596 -0.07038144 0.78899997 4294967288
0.052089464 -0.070381902 0.78899997 4294967282
0.053628173 -0.070471607 0.79000002 4294967286
-0.085888788 -0.069812447 0.79799998 4294967295
-0.084185272 -0.069634579 0.796 4294967295
-0.082697041 -0.069631718 0.796 4294967295
-0.080800764 -0.069278993 0.792 4294967295
-0.079019614 -0.069013804 0.78899997 4294967295
-0.076954894 -0.068486288 0.78299999 4294967295
-0.075201869 -0.068221226 0.77999997 4294967295
-0.07355465 -0.068043686 0.778 4294967295
-0.071729586 -0.067691281 0.77399999 4294967295
-0.070282735 -0.067688748 0.77399999 4294967295
-0.068746977 -0.067598805 0.773 4294967295
-0.067302071 -0.067596361 0.773 4294967295
-0.0656868 -0.067419045 0.77100003 4294967295
-0.064245693 -0.067416675 0.77100003 4294967295
-0.062641703 -0.067239456 0.76899999 4294967295
-0.061204419 -0.067237161 0.76899999 4294967295
-0.059767161 -0.067234904 0.76899999 4294967295
-0.05832994 -0.067232676 0.76899999 4294967295
-0.05689276 -0.067230485 0.76899999 4294967295
-0.055455618 -0.067228332 0.76899999 4294967295
-0.053316068 -0.06635201 0.759 4294967295
-0.051897682 -0.066349953 0.759 4294967295
-0.050479338 -0.066347934 0.759 4294967295
-0.048931755 -0.066171132 0.75700003 4294967295
-0.047517225 -0.06616918 0.75700003 4294967295
-0.046102744 -0.06616728 0.75700003 4294967295
-0.044688288 -0.066165395 0.75700003 4294967295
-0.043273877 -0.066163562 0.75700003 4294967295
-0.04158302 -0.065724753 0.75199997 4294967295
-0.040178027 -0.065722995 0.75199997 4294967295
-0.038773071 -0.065721273 0.75199997 4294967295
-0.03736816 -0.065719582 0.75199997 4294967295
-0.035963289 -0.065717936 0.75199997 4294967295
-0.034558456 -0.065716311 0.75199997 4294967295
-0.033153661 -0.065714732 0.75199997 4294967295
-0.031833351 -0.06588795 0.75400001 4294967295
-0.03042491 -0.065886438 0.75400001 4294967295
-0.028939541 -0.065710194 0.75199997 4294967295
-0.027534913 -0.065708742 0.75199997 4294967295
-0.026199823 -0.065882094 0.75400001 4294967295
-0.024725787 -0.065705955 0.75199997 4294967295
-0.023321291 -0.065704614 0.75199997 4294967295
-0.021975126 -0.065878063 0.75400001 4294967295
-0.020566979 -0.065876789 0.75400001 4294967295
-0.019158879 -0.065875545 0.75400001 4294967295
-0.017750818 -0.065874338 0.75400001 4294967295
-0.016342804 -0.065873168 0.75400001 4294967295
-0.014934836 -0.065872028 0.75400001 4294967295
-0.01354485 -0.065958291 0.755 4294967295
-0.012135103 -0.065957226 0.755 4294967295
-0.010711196 -0.065868832 0.75400001 4294967295
-0.0093034087 -0.065867841 0.75400001 4294967295
-0.0078956662 -0.06586688 0.75400001 4294967295
-0.0064879698 -0.065865956 0.75400001 4294967295
-0.0050803213 -0.065865062 0.75400001 4294967295
-0.0036727192 -0.065864198 0.75400001 4294967295
-0.0022591562 -0.065688662 0.75199997 4294967295
-0.00085538329 -0.065687887 0.75199997 4294967295
0.00054980058 -0.065861836 0.75400001 4294967295
0.0019572114 -0.065861113 0.75400001 4294967295
0.0033645728 -0.065860428 0.75400001 4294967295
0.0047782147 -0.065947123 0.755 4294967295
0.0061873449 -0.065946512 0.755 4294967295
0.0075964257 -0.065945931 0.755 4294967295
0.009029313 -0.066120073 0.75700003 4294967295
0.010442025 -0.066119559 0.75700003 4294967295
0.01188601 -0.066293776 0.759 4294967295
0.013337403 -0.066468 0.76099998 4294967295
0.014757428 -0.066467598 0.76099998 4294967295
0.016177399 -0.066467218 0.76099998 4294967295
0.017620446 -0.066554226 0.76200002 4294967295
0.019092159 -0.066728599 0.764 4294967295
0.020517573 -0.066728331 0.764 4294967295
0.022000372 -0.066902764 0.76599997 4294967295
0.023429409 -0.06690257 0.76599997 4294967295
0.024858393 -0.066902407 0.76599997 4294967295
0.026287321 -0.066902272 0.76599997 4294967295
0.027643831 -0.066727504 0.764 4294967295
0.029068924 -0.066727437 0.764 4294967295
0.030493958 -0.066727407 0.764 4294967295
0.031918935 -0.066727422 0.764 4294967295
0.033867586 -0.067775548 0.77600002 4294967295
0.035314832 -0.067775629 0.77600002 4294967295
0.036762025 -0.067775749 0.77600002 4294967295
0.038406108 -0.068125255 0.77999997 4294967295
0.039860643 -0.068125442 0.77999997 4294967295
0.04136809 -0.068213008 0.78100002 4294967295
0.042824373 -0.068213277 0.78100002 4294967295
0.044280604 -0.068213582 0.78100002 4294967295
0.045853887 -0.068388596 0.78299999 4294967295
0.047434576 -0.068563655 0.78500003 4294967288
0.049022656 -0.068738751 0.787 4294967287
0.050618138 -0.068913884 0.78899997 4294967287
0.052088976 -0.068914369 0.78899997 4294967283
0.053559754 -0.06891489 0.78899997 4294967287
0.055100225 -0.0690028 0.79000002 4292136388
-0.085885882 -0.068326801 0.79799998 4294967295
-0.084182404 -0.068152666 0.796 4294967295
-0.082486443 -0.067978583 0.79400003 4294967295
-0.080797993 -0.067804553 0.792 4294967295
-0.079016902 -0.067544967 0.78899997 4294967295
-0.076952234 -0.067028627 0.78299999 4294967295
-0.075199246 -0.06676916 0.77999997 4294967295
-0.073552065 -0.066595353 0.778 4294967295
-0.07172706 -0.066250406 0.77399999 4294967295
-0.070280239 -0.066247888 0.77399999 4294967295
-0.068744525 -0.066159822 0.773 4294967295
-0.067299649 -0.066157386 0.773 4294967295
-0.065684423 -0.06598381 0.77100003 4294967295
-0.064243361 -0.065981455 0.77100003 4294967295
-0.062802322 -0.065979123 0.77100003 4294967295
-0.061202154 -0.065805681 0.76899999 4294967295
-0.05976494 -0.065803424 0.76899999 4294967295
-0.058327753 -0.065801226 0.76899999 4294967295
-0.056890611 -0.065799043 0.76899999 4294967295
-0.055453498 -0.065796904 0.76899999 4294967295
-0.053314008 -0.064939201 0.759 4294967295
-0.051895663 -0.064937167 0.759 4294967295
-0.050477352 -0.064935163 0.759 4294967295
-0.048929814 -0.064762086 0.75700003 4294967295
-0.047515318 -0.064760156 0.75700003 4294967295
-0.045979064 -0.064587168 0.755 4294967295
-0.044509355 -0.064499773 0.75400001 4294967295
-0.042986255 -0.064326867 0.75199997 4294967295
-0.041581258 -0.064325087 0.75199997 4294967295
-0.040176302 -0.064323343 0.75199997 4294967295
-0.038771383 -0.06432163 0.75199997 4294967295
-0.037366506 -0.064319961 0.75199997 4294967295
-0.035866026 -0.064147256 0.75 4294967295
-0.034464967 -0.064145662 0.75 4294967295
-0.033152111 -0.064315148 0.75199997 4294967295
-0.031747401 -0.064313605 0.75199997 4294967295
-0.030423427 -0.064483151 0.75400001 4294967295
-0.028938092 -0.06431064 0.75199997 4294967295
-0.027533503 -0.064309217 0.75199997 4294967295
-0.026198447 -0.064478852 0.75400001 4294967295
-0.024724446 -0.064306453 0.75199997 4294967295
-0.023319982 -0.064305134 0.75199997 4294967295
-0.02197385 -0.064474866 0.75400001 4294967295
-0.020565737 -0.064473607 0.75400001 4294967295
-0.01915767 -0.064472385 0.75400001 4294967295
-0.017749645 -0.064471193 0.75400001 4294967295
-0.016341664 -0.06447003 0.75400001 4294967295
-0.01493373 -0.064468913 0.75400001 4294967295
-0.013543778 -0.064553328 0.755 4294967295
-0.012134066 -0.064552277 0.755 4294967295
-0.010710196 -0.064465754 0.75400001 4294967295
-0.009302442 -0.064464785 0.75400001 4294967295
-0.007894733 -0.064463831 0.75400001 4294967295
-0.0064870724 -0.064462915 0.75400001 4294967295
-0.0050794589 -0.064462051 0.75400001 4294967295
-0.0036718911 -0.064461201 0.75400001 4294967295
-0.0022643714 -0.064460397 0.75400001 4294967295
-0.00085689919 -0.064459622 0.75400001 4294967295
0.00055052515 -0.064458884 0.75400001 4294967295
0.0019579011 -0.064458184 0.75400001 4294967295
0.0033652289 -0.064457513 0.75400001 4294967295
0.0047788364 -0.064542368 0.755 4294967295
0.0061879321 -0.064541757 0.755 4294967295
0.0075969785 -0.064541191 0.755 4294967295
0.009005975 -0.064540669 0.755 4294967295
0.010414921 -0.064540178 0.755 4294967295
0.011855138 -0.064710677 0.75700003 4294967295
0.013302769 -0.064881213 0.759 4294967295
0.014757811 -0.065051787 0.76099998 4294967295
0.016177747 -0.065051429 0.76099998 4294967295
0.017620759 -0.065136597 0.76200002 4294967295
0.019092437 -0.06530726 0.764 4294967295
0.020517815 -0.065307006 0.764 4294967295
0.022000585 -0.065477744 0.76599997 4294967295
0.023429586 -0.065477565 0.76599997 4294967295
0.024858532 -0.065477408 0.76599997 4294967295
0.026287425 -0.065477304 0.76599997 4294967295
0.0276439 -0.065306269 0.764 4294967295
0.029068956 -0.065306224 0.764 4294967295
0.030613696 -0.065562658 0.76700002 4294967295
0.032044236 -0.06556268 0.76700002 4294967295
0.033562005 -0.065733701 0.76899999 4294967295
0.035223704 -0.066161208 0.77399999 4294967295
0.036667131 -0.066161335 0.77399999 4294967295
0.03820898 -0.066332467 0.77600002 4294967295
0.039860427 -0.066674598 0.77999997 4294967295
0.04136784 -0.066760324 0.78100002 4294967295
0.042824086 -0.066760607 0.78100002 4294967295
0.044393666 -0.066931888 0.78299999 4294967295
0.045853522 -0.066932246 0.78299999 4294967295
0.047555026 -0.067274563 0.787 4294967295
0.04902222 -0.067274995 0.787 4294967295
0.050617661 -0.067446433 0.78899997 4294967287
0.052088458 -0.06744694 0.78899997 4294967283
0.053559203 -0.067447484 0.78899997 4294967280
0.055099636 -0.067533545 0.79000002 4292399040
-0.085882992 -0.066841267 0.79799998 4294967295
-0.084179558 -0.066670872 0.796 4294967295
-0.082483649 -0.06650053 0.79400003 4294967295
-0.080795236 -0.066330232 0.792 4294967295
-0.07901419 -0.066076241 0.78899997 4294967295
-0.077146135 -0.065738559 0.78500003 4294967295
-0.075293064 -0.065400951 0.78100002 4294967295
-0.073738582 -0.065314606 0.77999997 4294967295
-0.071724541 -0.06480965 0.77399999 4294967295
-0.070277758 -0.064807147 0.77399999 4294967295
-0.068742089 -0.064720951 0.773 4294967295
-0.06729725 -0.064718522 0.773 4294967295
-0.065682068 -0.064548686 0.77100003 4294967295
-0.064241029 -0.064546332 0.77100003 4294967295
-0.062800035 -0.064544022 0.77100003 4294967295
-0.061199907 -0.064374313 0.76899999 4294967295
-0.05976272 -0.064372078 0.76899999 4294967295
-0.058325574 -0.06436988 0.76899999 4294967295
-0.056888469 -0.064367712 0.76899999 4294967295
-0.055451397 -0.064365581 0.76899999 4294967295
-0.053452443 -0.063693911 0.76099998 4294967295
-0.052030396 -0.063691877 0.76099998 4294967295
-0.050475378 -0.063522503 0.759 4294967295
-0.049057152 -0.063520543 0.759 4294967295
-0.047387887 -0.063183859 0.755 4294967295
-0.045916311 -0.063098304 0.75400001 4294967295
-0.044507533 -0.063096456 0.75400001 4294967295
-0.042984474 -0.062927291 0.75199997 4294967295
-0.041579511 -0.062925525 0.75199997 4294967295
-0.040174592 -0.062923789 0.75199997 4294967295
-0.038769707 -0.062922098 0.75199997 4294967295
-0.037364867 -0.062920436 0.75199997 4294967295
-0.035864424 -0.062751472 0.75 4294967295
-0.034463398 -0.062749892 0.75 4294967295
-0.033150576 -0.062915675 0.75199997 4294967295
-0.031745899 -0.062914148 0.75199997 4294967295
-0.030341256 -0.062912665 0.75199997 4294967295
-0.028936662 -0.062911205 0.75199997 4294967295
-0.027532101 -0.062909789 0.75199997 4294967295
-0.026127586 -0.062908411 0.75199997 4294967295
-0.024723118 -0.062907062 0.75199997 4294967295
-0.023318687 -0.062905751 0.75199997 4294967295
-0.021972585 -0.063071772 0.75400001 4294967295
-0.02056451 -0.063070528 0.75400001 4294967295
-0.019156476 -0.063069314 0.75400001 4294967295
-0.017748486 -0.063068144 0.75400001 4294967295
-0.016340543 -0.063067012 0.75400001 4294967295
-0.014932641 -0.063065901 0.75400001 4294967295
-0.013524784 -0.063064829 0.75400001 4294967295
-0.012116976 -0.063063793 0.75400001 4294967295
-0.01070921 -0.063062795 0.75400001 4294967295
-0.0093014911 -0.063061826 0.75400001 4294967295
-0.0078938175 -0.063060902 0.75400001 4294967295
-0.0064861909 -0.063060001 0.75400001 4294967295
-0.0050786114 -0.063059144 0.75400001 4294967295
-0.0036710787 -0.063058317 0.75400001 4294967295
-0.0022635937 -0.063057519 0.75400001 4294967295
-0.000856156 -0.06305676 0.75400001 4294967295
0.00055123365 -0.063056037 0.75400001 4294967295
0.0019585751 -0.063055359 0.75400001 4294967295
0.003365868 -0.063054703 0.75400001 4294967295
0.0047794417 -0.063137718 0.755 4294967295
0.006188503 -0.063137121 0.755 4294967295
0.0075975144 -0.063136578 0.755 4294967295
0.009006476 -0.063136064 0.755 4294967295
0.010415388 -0.063135587 0.755 4294967295
0.011855572 -0.06330239 0.75700003 4294967295
0.013303169 -0.063469224 0.759 4294967295
0.014758176 -0.063636087 0.76099998 4294967295
0.016178079 -0.063635744 0.76099998 4294967295
0.017621055 -0.063719064 0.76200002 4294967295
0.019092698 -0.063886024 0.764 4294967295
0.020518044 -0.063885801 0.764 4294967295
0.022000775 -0.064052828 0.76599997 4294967295
0.02342974 -0.064052664 0.76599997 4294967295
0.024858655 -0.06405253 0.76599997 4294967295
0.026287513 -0.06405244 0.76599997 4294967295
0.027643951 -0.063885145 0.764 4294967295
0.029068973 -0.063885123 0.764 4294967295
0.030573761 -0.064052366 0.76599997 4294967295
0.03204418 -0.064136036 0.76700002 4294967295
0.033474624 -0.064136118 0.76700002 4294967295
0.034996033 -0.064303465 0.76899999 4294967295
0.036524847 -0.064470865 0.77100003 4294967295
0.038110297 -0.064721912 0.77399999 4294967295
0.039655782 -0.064889394 0.77600002 4294967295
0.041314594 -0.065224133 0.77999997 4294967295
0.042823777 -0.065308057 0.78100002 4294967295
0.044393323 -0.065475635 0.78299999 4294967295
0.045970269 -0.065643258 0.78500003 4294967295
0.047554601 -0.065810911 0.787 4294967295
0.049021766 -0.065811366 0.787 4294967295
0.05061717 -0.065979093 0.78899997 4294967288
0.052087929 -0.065979622 0.78899997 4294966252
0.053626522 -0.066063806 0.79000002 4294965219
-0.085880116 -0.065355845 0.79799998 4294967295
-0.084176719 -0.065189183 0.796 4294967295
-0.082480848 -0.065022565 0.79400003 4294967295
-0.080792487 -0.064856008 0.792 4294967295
-0.079011492 -0.064607613 0.78899997 4294967295
-0.077143483 -0.064277403 0.78500003 4294967295
-0.075483255 -0.064110994 0.78299999 4294967295
-0.073736027 -0.063862771 0.77999997 4294967295
-0.071907379 -0.063532747 0.77600002 4294967295
-0.070275299 -0.063366503 0.77399999 4294967295
-0.06873966 -0.063282177 0.773 4294967295
-0.067294858 -0.063279763 0.773 4294967295
-0.065679714 -0.06311366 0.77100003 4294967295
-0.06423872 -0.06311132 0.77100003 4294967295
-0.062797755 -0.063109018 0.77100003 4294967295
-0.061197672 -0.062943049 0.76899999 4294967295
-0.059605107 -0.062777139 0.76700002 4294967295
-0.05817173 -0.062774949 0.76700002 4294967295
-0.056738395 -0.06277281 0.76700002 4294967295
-0.055305094 -0.062770702 0.76700002 4294967295
-0.053450413 -0.062277604 0.76099998 4294967295
-0.052028399 -0.062275577 0.76099998 4294967295
-0.050473422 -0.062109929 0.759 4294967295
-0.049055234 -0.062107984 0.759 4294967295
-0.047386006 -0.061778765 0.755 4294967295
-0.045914467 -0.061695077 0.75400001 4294967295
-0.044387676 -0.06152961 0.75199997 4294967295
-0.042982709 -0.061527818 0.75199997 4294967295
-0.041467205 -0.061362438 0.75 4294967295
-0.040066052 -0.061360728 0.75 4294967295
-0.038664941 -0.06135904 0.75 4294967295
-0.037263867 -0.061357398 0.75 4294967295
-0.035862841 -0.061355792 0.75 4294967295
-0.034461848 -0.06135422 0.75 4294967295
-0.033149056 -0.061516285 0.75199997 4294967295
-0.031744409 -0.061514772 0.75199997 4294967295
-0.030339802 -0.061513305 0.75199997 4294967295
-0.028935239 -0.061511867 0.75199997 4294967295
-0.027530719 -0.061510466 0.75199997 4294967295
-0.026126236 -0.061509103 0.75199997 4294967295
-0.024721801 -0.061507769 0.75199997 4294967295
-0.023317408 -0.061506476 0.75199997 4294967295
-0.021971337 -0.061668791 0.75400001 4294967295
-0.020508749 -0.061503984 0.75199997 4294967295
-0.019104486 -0.061502788 0.75199997 4294967295
-0.017700266 -0.06150163 0.75199997 4294967295
-0.016296091 -0.061500508 0.75199997 4294967295
-0.01489196 -0.061499417 0.75199997 4294967295
-0.013487874 -0.06149837 0.75199997 4294967295
-0.012115969 -0.061660908 0.75400001 4294967295
-0.01070824 -0.061659921 0.75400001 4294967295
-0.0093005542 -0.061658971 0.75400001 4294967295
-0.0078929169 -0.061658062 0.75400001 4294967295
-0.0064853244 -0.061657179 0.75400001 4294967295
-0.0050777802 -0.06165633 0.75400001 4294967295
-0.003670282 -0.061655521 0.75400001 4294967295
-0.0022658326 -0.061736517 0.755 4294967295
-0.00085656298 -0.061735772 0.755 4294967295
0.00055265834 -0.061735064 0.755 4294967295
0.0019618315 -0.06173439 0.755 4294967295
0.0033709561 -0.061733752 0.755 4294967295
0.0047800317 -0.061733153 0.755 4294967295
0.0061890571 -0.061732583 0.755 4294967295
0.0075980341 -0.06173205 0.755 4294967295
0.0090069612 -0.061731555 0.755 4294967295
0.010415838 -0.061731096 0.755 4294967295
0.011824664 -0.061730664 0.755 4294967295
0.013303552 -0.062057324 0.759 4294967295
0.014758525 -0.062220491 0.76099998 4294967295
0.016178392 -0.062220167 0.76099998 4294967295
0.017621335 -0.062301636 0.76200002 4294967295
0.019092945 -0.062464911 0.764 4294967295
0.020518251 -0.062464677 0.764 4294967295
0.02200095 -0.062628016 0.76599997 4294967295
0.02342988 -0.062627867 0.76599997 4294967295
0.024858758 -0.062627755 0.76599997 4294967295
0.026287582 -0.062627673 0.76599997 4294967295
0.027643982 -0.062464118 0.764 4294967295
0.029068971 -0.062464114 0.764 4294967295
0.030573724 -0.062627658 0.76599997 4294967295
0.032044105 -0.062709488 0.76700002 4294967295
0.033474516 -0.062709585 0.76700002 4294967295
0.034995895 -0.062873244 0.76899999 4294967295
0.036524672 -0.063036934 0.77100003 4294967295
0.038110085 -0.063282423 0.77399999 4294967295
0.039655529 -0.063446194 0.77600002 4294967295
0.041208372 -0.063609987 0.778 4294967295
0.042823449 -0.063855596 0.78100002 4294967295
0.044392958 -0.064019479 0.78299999 4294967295
0.045969862 -0.064183399 0.78500003 4294967295
0.047554165 -0.064347357 0.787 4294967295
0.049145866 -0.064511351 0.78899997 4294967295
0.050616655 -0.064511858 0.78899997 4294967288
0.052087385 -0.064512409 0.78899997 4294966766
0.053625934 -0.064594753 0.79000002 4294308316
-0.085877247 -0.063870542 0.79799998 4294967295
-0.084173895 -0.063707598 0.796 4294967295
-0.082478069 -0.063544728 0.79400003 4294967295
-0.080789745 -0.063381895 0.792 4294967295
-0.079008803 -0.063139103 0.78899997 4294967295
-0.077140838 -0.062816337 0.78500003 4294967295
-0.07548067 -0.062653676 0.78299999 4294967295
-0.073733471 -0.062411044 0.77999997 4294967295
-0.071904875 -0.062088463 0.77600002 4294967295
-0.070272848 -0.061925966 0.77399999 4294967295
-0.068826169 -0.061923515 0.77399999 4294967295
-0.067292474 -0.061841104 0.773 4294967295
-0.065847747 -0.061838739 0.773 4294967295
-0.06423641 -0.06167642 0.77100003 4294967295
-0.06279549 -0.061674118 0.77100003 4294967295
-0.061036296 -0.061351914 0.76700002 4294967295
-0.059602924 -0.061349709 0.76700002 4294967295
-0.058169588 -0.061347548 0.76700002 4294967295
-0.056736279 -0.061345398 0.76700002 4294967295
-0.055303022 -0.061343301 0.76700002 4294967295
-0.05344839 -0.06086139 0.76099998 4294967295
-0.05188968 -0.060699444 0.759 4294967295
-0.05047147 -0.06069747 0.759 4294967295
-0.049053311 -0.060695536 0.759 4294967295
-0.047384147 -0.060373772 0.755 4294967295
-0.045912638 -0.060291961 0.75400001 4294967295
-0.044385884 -0.060130224 0.75199997 4294967295
-0.042866647 -0.059968531 0.75 4294967295
-0.041465491 -0.059966803 0.75 4294967295
-0.040064372 -0.059965104 0.75 4294967295
-0.038663294 -0.059963431 0.75 4294967295
-0.037262261 -0.059961803 0.75 4294967295
-0.035861261 -0.059960213 0.75 4294967295
-0.03446031 -0.059958659 0.75 4294967295
-0.033147544 -0.060117006 0.75199997 4294967295
-0.031742934 -0.060115516 0.75199997 4294967295
-0.030338366 -0.060114063 0.75199997 4294967295
-0.028933834 -0.06011264 0.75199997 4294967295
-0.027529351 -0.060111251 0.75199997 4294967295
-0.026124902 -0.060109895 0.75199997 4294967295
-0.024720501 -0.06010858 0.75199997 4294967295
-0.023316143 -0.060107294 0.75199997 4294967295
-0.02191183 -0.060106046 0.75199997 4294967295
-0.020507555 -0.060104832 0.75199997 4294967295
-0.019103326 -0.060103647 0.75199997 4294967295
-0.017699141 -0.060102519 0.75199997 4294967295
-0.016294999 -0.060101409 0.75199997 4294967295
-0.014890904 -0.060100328 0.75199997 4294967295
-0.013486851 -0.060099296 0.75199997 4294967295
-0.012114977 -0.060258124 0.75400001 4294967295
-0.010707284 -0.060257159 0.75400001 4294967295
-0.0092996331 -0.06025622 0.75400001 4294967295
-0.0078920312 -0.060255323 0.75400001 4294967295
-0.0064844741 -0.060254458 0.75400001 4294967295
-0.0050769639 -0.060253624 0.75400001 4294967295
-0.0036695008 -0.060252827 0.75400001 4294967295
-0.0022650852 -0.060331978 0.755 4294967295
-0.00085585058 -0.060331251 0.755 4294967295
0.00055333599 -0.060330566 0.755 4294967295
0.0019624743 -0.060329903 0.755 4294967295
0.0033715637 -0.060329285 0.755 4294967295
0.0047806045 -0.0603287 0.755 4294967295
0.0061895959 -0.060328148 0.755 4294967295
0.0075985375 -0.06032763 0.755 4294967295
0.0090074297 -0.060327154 0.755 4294967295
0.010416272 -0.060326707 0.755 4294967295
0.011825062 -0.060326297 0.755 4294967295
0.013303917 -0.060645528 0.759 4294967295
0.014758857 -0.060804989 0.76099998 4294967295
0.016178688 -0.060804676 0.76099998 4294967295
0.017667847 -0.061044119 0.764 4294967295
0.019093173 -0.061043881 0.764 4294967295
0.020518443 -0.061043672 0.764 4294967295
0.021943662 -0.061043512 0.764 4294967295
0.023368828 -0.061043382 0.764 4294967295
0.024858844 -0.061203081 0.76599997 4294967295
0.02628763 -0.061203018 0.76599997 4294967295
0.027716363 -0.061202992 0.76599997 4294967295
0.029145045 -0.061203007 0.76599997 4294967295
0.030613583 -0.061282966 0.76700002 4294967295
0.032044016 -0.061283041 0.76700002 4294967295
0.033474393 -0.06128316 0.76700002 4294967295
0.034995727 -0.061443113 0.76899999 4294967295
0.036524471 -0.06160311 0.77100003 4294967295
0.038060613 -0.061763134 0.773 4294967295
0.039655257 -0.062003098 0.77600002 4294967295
0.041208062 -0.062163204 0.778 4294967295
0.042823102 -0.062403254 0.78100002 4294967295
0.044392571 -0.062563434 0.78299999 4294967295
0.045852322 -0.062563837 0.78299999 4294967295
0.047553707 -0.062883906 0.787 4294967295
0.049020793 -0.062884405 0.787 4294967294
0.050616123 -0.063044742 0.78899997 4294967286
0.052086812 -0.063045301 0.78899997 4294967279
0.053625323 -0.063125812 0.79000002 4294441189
-0.086089604 -0.062541693 0.80000001 4294967295
-0.084171087 -0.062226143 0.796 4294967295
-0.082475297 -0.062067002 0.79400003 4294967295
-0.080787018 -0.061907902 0.792 4294967295
-0.079006121 -0.061670698 0.78899997 4294967295
-0.077334739 -0.061511718 0.787 4294967295
-0.075478084 -0.061196465 0.78299999 4294967295
-0.073541887 -0.060803127 0.778 4294967295
-0.071902394 -0.060644306 0.77600002 4294967295
-0.070270404 -0.060485534 0.77399999 4294967295
-0.068823755 -0.060483102 0.77399999 4294967295
-0.067290112 -0.060402568 0.773 4294967295
-0.065845415 -0.06040021 0.773 4294967295
-0.06423413 -0.060241628 0.77100003 4294967295
-0.06279324 -0.060239345 0.77100003 4294967295
-0.061034091 -0.059924584 0.76700002 4294967295
-0.059600756 -0.059922401 0.76700002 4294967295
-0.05816745 -0.059920236 0.76700002 4294967295
-0.056734189 -0.059918121 0.76700002 4294967295
-0.055300951 -0.059916023 0.76700002 4294967295
-0.053305916 -0.059289061 0.759 4294967295
-0.051887713 -0.059287075 0.759 4294967295
-0.050469544 -0.059285119 0.759 4294967295
-0.049051419 -0.059283201 0.759 4294967295
-0.047382295 -0.058968894 0.755 4294967295
-0.04591082 -0.058888949 0.75400001 4294967295
-0.044384111 -0.058730949 0.75199997 4294967295
-0.042864911 -0.058572993 0.75 4294967295
-0.041463789 -0.058571272 0.75 4294967295
-0.040062711 -0.05856958 0.75 4294967295
-0.038661662 -0.058567934 0.75 4294967295
-0.037260659 -0.058566317 0.75 4294967295
-0.035955328 -0.058720909 0.75199997 4294967295
-0.034550667 -0.058719356 0.75199997 4294967295
-0.033146046 -0.058717843 0.75199997 4294967295
-0.031825893 -0.058872528 0.75400001 4294967295
-0.030417623 -0.058871083 0.75400001 4294967295
-0.028932445 -0.058713507 0.75199997 4294967295
-0.027527994 -0.058712132 0.75199997 4294967295
-0.026123581 -0.058710795 0.75199997 4294967295
-0.024719216 -0.058709495 0.75199997 4294967295
-0.023314891 -0.058708224 0.75199997 4294967295
-0.021910612 -0.058706991 0.75199997 4294967295
-0.020506371 -0.058705792 0.75199997 4294967295
-0.019102179 -0.058704633 0.75199997 4294967295
-0.017698027 -0.058703505 0.75199997 4294967295
-0.016293921 -0.058702413 0.75199997 4294967295
-0.014889861 -0.058701348 0.75199997 4294967295
-0.013485843 -0.058700331 0.75199997 4294967295
-0.012114005 -0.058855448 0.75400001 4294967295
-0.010706344 -0.058854505 0.75400001 4294967295
-0.0092987288 -0.058853585 0.75400001 4294967295
-0.0078911604 -0.058852695 0.75400001 4294967295
-0.0064836382 -0.058851842 0.75400001 4294967295
-0.0050761634 -0.05885103 0.75400001 4294967295
-0.003673601 -0.058928303 0.755 4294967295
-0.0022643534 -0.058927562 0.755 4294967295
-0.00085515378 -0.058926839 0.755 4294967295
0.0005539977 -0.058926173 0.755 4294967295
0.0019631013 -0.058925528 0.755 4294967295
0.0033721558 -0.058924928 0.755 4294967295
0.0047811614 -0.058924358 0.755 4294967295
0.0061901174 -0.058923818 0.755 4294967295
0.0075990246 -0.058923323 0.755 4294967295
0.0090078823 -0.058922857 0.755 4294967295
0.010416689 -0.058922429 0.755 4294967295
0.011825445 -0.058922041 0.755 4294967295
0.013304266 -0.059233844 0.759 4294967295
0.014720382 -0.059233524 0.759 4294967295
0.016178969 -0.059389316 0.76099998 4294967295
0.017621841 -0.059467103 0.76200002 4294967295
0.019043401 -0.059466887 0.76200002 4294967295
0.020464905 -0.059466701 0.76200002 4294967295
0.021886358 -0.059466552 0.76200002 4294967295
0.023307757 -0.05946644 0.76200002 4294967295
0.024794007 -0.059622437 0.764 4294967295
0.026219029 -0.059622403 0.764 4294967295
0.027643997 -0.059622385 0.764 4294967295
0.02906891 -0.059622422 0.764 4294967295
0.030613508 -0.059856609 0.76700002 4294967295
0.032043904 -0.059856713 0.76700002 4294967295
0.033474248 -0.059856851 0.76700002 4294967295
0.034995545 -0.060013101 0.76899999 4294967295
0.036524251 -0.060169391 0.77100003 4294967295
0.038060356 -0.060325723 0.773 4294967295
0.039654966 -0.060560133 0.77600002 4294967295
0.041207734 -0.060716532 0.778 4294967295
0.042822737 -0.060951021 0.78100002 4294967295
0.044392169 -0.061107505 0.78299999 4294967294
0.045851883 -0.061107937 0.78299999 4294967294
0.047553226 -0.061420579 0.787 4294967294
0.049020275 -0.061421096 0.787 4294967292
0.050615571 -0.061577722 0.78899997 4294967281
0.052086219 -0.061578318 0.78899997 4294967282
0.053624701 -0.061656978 0.79000002 4294508011
-0.08608675 -0.061052885 0.80000001 4294967295
-0.084168285 -0.060744785 0.796 4294967295
-0.08247254 -0.060589373 0.79400003 4294967295
-0.080784313 -0.060434017 0.792 4294967295
-0.079003446 -0.060202397 0.78899997 4294967295
-0.077332124 -0.060047157 0.787 4294967295
-0.075475514 -0.059739355 0.78299999 4294967295
-0.073539376 -0.059355345 0.778 4294967295
-0.071899906 -0.059200246 0.77600002 4294967295
-0.070267968 -0.059045214 0.77399999 4294967295
-0.068821363 -0.059042793 0.77399999 4294967295
-0.067287751 -0.058964126 0.773 4294967295
-0.065843098 -0.05896179 0.773 4294967295
-0.064398468 -0.05895948 0.773 4294967295
-0.062791005 -0.058804672 0.77100003 4294967295
-0.061191052 -0.058649898 0.76899999 4294967295
-0.059598595 -0.058495175 0.76700002 4294967295
-0.05816533 -0.058493041 0.76700002 4294967295
-0.0567321 -0.058490932 0.76700002 4294967295
-0.055298913 -0.058488857 0.76700002 4294967295
-0.053865753 -0.058486816 0.76700002 4294967295
-0.051612306 -0.057569809 0.755 4294967295
-0.050201651 -0.057567868 0.755 4294967295
-0.04879104 -0.057565976 0.755 4294967295
-0.047380455 -0.057564117 0.755 4294967295
-0.045909021 -0.057486035 0.75400001 4294967295
-0.044382345 -0.057331774 0.75199997 4294967295
-0.042977486 -0.05733002 0.75199997 4294967295
-0.041462101 -0.057175852 0.75 4294967295
-0.040061057 -0.057174169 0.75 4294967295
-0.038763136 -0.057324994 0.75199997 4294967295
-0.037358437 -0.057323389 0.75199997 4294967295
-0.035953775 -0.057321817 0.75199997 4294967295
-0.034549147 -0.057320278 0.75199997 4294967295
-0.033232719 -0.057471223 0.75400001 4294967295
-0.031824443 -0.057469755 0.75400001 4294967295
-0.030335527 -0.057315879 0.75199997 4294967295
-0.028931066 -0.057314485 0.75199997 4294967295
-0.027526651 -0.057313122 0.75199997 4294967295
-0.026122278 -0.057311807 0.75199997 4294967295
-0.024717942 -0.057310507 0.75199997 4294967295
-0.023313656 -0.057309255 0.75199997 4294967295
-0.02190941 -0.057308037 0.75199997 4294967295
-0.020505207 -0.057306848 0.75199997 4294967295
-0.019101048 -0.057305709 0.75199997 4294967295
-0.017743997 -0.057456996 0.75400001 4294967295
-0.016336191 -0.05745592 0.75400001 4294967295
-0.014928432 -0.057454869 0.75400001 4294967295
-0.013520715 -0.057453863 0.75400001 4294967295
-0.012113046 -0.057452887 0.75400001 4294967295
-0.010705419 -0.057451949 0.75400001 4294967295
-0.0092978403 -0.057451043 0.75400001 4294967295
-0.0078903055 -0.057450168 0.75400001 4294967295
-0.0064914166 -0.057525534 0.755 4294967295
-0.0050821099 -0.05752473 0.755 4294967295
-0.0036728501 -0.057523962 0.755 4294967295
-0.0022636375 -0.057523232 0.755 4294967295
-0.00085447304 -0.057522539 0.755 4294967295
0.00055464351 -0.057521883 0.755 4294967295
0.001963712 -0.05752125 0.755 4294967295
0.0033727314 -0.057520662 0.755 4294967295
0.0047817021 -0.057520114 0.755 4294967295
0.0061906236 -0.0575196 0.755 4294967295
0.0075994967 -0.057519119 0.755 4294967295
0.0090083182 -0.057518668 0.755 4294967295
0.01041709 -0.057518248 0.755 4294967295
0.011825811 -0.057517882 0.755 4294967295
0.013269541 -0.0576699 0.75700003 4294967295
0.014720678 -0.057821959 0.759 4294967295
0.01617923 -0.057974048 0.76099998 4294967295
0.01759894 -0.05797381 0.76099998 4294967295
0.019018598 -0.057973612 0.76099998 4294967295
0.020465061 -0.058049623 0.76200002 4294967295
0.021886477 -0.058049493 0.76200002 4294967295
0.023307843 -0.058049403 0.76200002 4294967295
0.024794061 -0.0582017 0.764 4294967295
0.026219044 -0.058201678 0.764 4294967295
0.027643973 -0.058201682 0.764 4294967295
0.029068854 -0.058201738 0.764 4294967295
0.030613417 -0.058430362 0.76700002 4294967295
0.032043777 -0.058430482 0.76700002 4294967295
0.033474084 -0.058430634 0.76700002 4294967295
0.034995347 -0.058583196 0.76899999 4294967295
0.03652402 -0.058735784 0.77100003 4294967295
0.038060084 -0.058888409 0.773 4294967295
0.039654654 -0.059117261 0.77600002 4294967295
0.041207388 -0.059269961 0.778 4294967294
0.04282235 -0.059498888 0.78100002 4294967294
0.044391748 -0.059651673 0.78299999 4294967282
0.045968544 -0.059804492 0.78500003 4294967280
0.047552731 -0.059957352 0.787 4294967287
0.049144313 -0.060110252 0.78899997 4294967285
0.050614994 -0.060110822 0.78899997 4294967279
0.052085608 -0.06011143 0.78899997 4294967279
0.053624053 -0.060188256 0.79000002 4294769641
-0.083954021 -0.059114646 0.79400003 4294967295
-0.082262069 -0.058962971 0.792 4294967295
-0.080577619 -0.058811359 0.79000002 4294967295
-0.078800559 -0.058585349 0.787 4294967295
-0.077329509 -0.058582697 0.787 4294967295
-0.075472951 -0.058282368 0.78299999 4294967295
-0.073725902 -0.05805653 0.77999997 4294967295
-0.071897455 -0.057756308 0.77600002 4294967295
-0.070265546 -0.057605006 0.77399999 4294967295
-0.068818986 -0.057602599 0.77399999 4294967295
-0.067285404 -0.057525806 0.773 4294967295
-0.065840788 -0.057523474 0.773 4294967295
-0.064396195 -0.057521176 0.773 4294967295
-0.06278877 -0.0573701 0.77100003 4294967295
-0.061188858 -0.057219066 0.76899999 4294967295
-0.059596453 -0.057068087 0.76700002 4294967295
-0.058163214 -0.057065956 0.76700002 4294967295
-0.056730025 -0.057063859 0.76700002 4294967295
-0.055296872 -0.057061795 0.76700002 4294967295
-0.05386376 -0.057059772 0.76700002 4294967295
-0.052020524 -0.056611441 0.76099998 4294967295
-0.050199755 -0.056163173 0.755 4294967295
-0.04878917 -0.056161284 0.755 4294967295
-0.047378622 -0.056159444 0.755 4294967295
-0.045907233 -0.056083247 0.75400001 4294967295
-0.044498634 -0.056081466 0.75400001 4294967295
-0.042975768 -0.055930968 0.75199997 4294967295
-0.041570984 -0.055929277 0.75199997 4294967295
-0.04016624 -0.055927616 0.75199997 4294967295
