# .PCD v0.7 - Point Cloud Data file format
VERSION 0.7
FIELDS x y z rgba
SIZE 4 4 4 4
TYPE F F F U
COUNT 1 1 1 1
WIDTH 1070
HEIGHT 1
VIEWPOINT 0 0 0 1 0 0 0
POINTS 1070
DATA ascii
-0.038644694 0.11639258 0.67799997 4294967284
-0.037383113 0.11639252 0.67799997 4294966768
-0.036174849 0.11656411 0.67900002 4294967025
-0.034962893 0.11673564 0.68000001 4294966764
-0.03379681 0.11707878 0.68199998 4294637285
-0.032575626 0.11725024 0.68300003 4294637288
-0.031488266 0.11793666 0.68699998 4294571494
-0.030210158 0.11793634 0.68699998 4294570974
-0.028974211 0.11810765 0.68800002 4294439645
-0.027774828 0.1184506 0.69 4294570720
-0.026529651 0.11862182 0.69099998 4294636769
-0.02524426 0.11862133 0.69099998 4294636767
-0.024201619 0.11982246 0.69800001 4294702560
-0.022903288 0.1198219 0.69800001 4294110941
-0.15243553 0.119564 0.69 4294967295
-0.15049174 0.11904763 0.68699998 4294967295
-0.14899358 0.11887781 0.68599999 4294967295
-0.14728385 0.11853461 0.68400002 4294967295
-0.14558159 0.11819138 0.68199998 4294967295
-0.14388683 0.11784808 0.68000001 4294967295
-0.14261903 0.11785134 0.68000001 4294967295
-0.14114338 0.11768126 0.67900002 4294967295
-0.13967147 0.11751112 0.67799997 4294967295
-0.13799922 0.11716762 0.676 4294967295
-0.13673899 0.11717072 0.676 4294967295
-0.13507795 0.11682713 0.67400002 4294967295
-0.1334244 0.11648346 0.67199999 4294967295
-0.13217171 0.11648644 0.67199999 4294967295
-0.1305294 0.11614268 0.67000002 4294967295
-0.12928051 0.11614557 0.67000002 4294967295
-0.12803163 0.11614843 0.67000002 4294967295
-0.12640432 0.11580452 0.66799998 4294967295
-0.12515922 0.11580729 0.66799998 4294967295
-0.12372866 0.11563666 0.667 4294967295
-0.12230184 0.11546598 0.66600001 4294967295
-0.12106056 0.11546863 0.66600001 4294967295
-0.11945948 0.11512448 0.66399997 4294967295
-0.11822197 0.11512705 0.66399997 4294967295
-0.11680833 0.11495619 0.66299999 4294967295
-0.11539843 0.11478528 0.662 4294967295
-0.11416475 0.11478774 0.662 4294967295
-0.11276048 0.11461675 0.66100001 4294967295
-0.1115287 0.11461911 0.66100001 4294967295
-0.10996324 0.11427464 0.65899998 4294967295
-0.10873523 0.11427691 0.65899998 4294967295
-0.10750727 0.11427916 0.65899998 4294967295
-0.10627934 0.11428136 0.65899998 4294967295
-0.10505144 0.11428354 0.65899998 4294967295
-0.10382356 0.11428568 0.65899998 4294967295
-0.10259571 0.11428778 0.65899998 4294967295
-0.10136788 0.11428982 0.65899998 4294967295
-0.100444 0.11463872 0.66100001 4294967295
-0.099212505 0.1146407 0.66100001 4294967295
-0.097981051 0.11464265 0.66100001 4294967295
-0.096456848 0.11429768 0.65899998 4294967295
-0.095229179 0.11429954 0.65899998 4294967295
-0.094001524 0.11430136 0.65899998 4294967295
-0.092773885 0.11430316 0.65899998 4294967295
-0.091546282 0.1143049 0.65899998 4294967295
-0.090318725 0.11430661 0.65899998 4294967295
-0.089091167 0.11430827 0.65899998 4294967295
-0.088130318 0.11465684 0.66100001 4294967295
-0.086636171 0.11431151 0.65899998 4294967295
-0.08540871 0.11431305 0.65899998 4294967295
-0.084436767 0.11466151 0.66100001 4294967295
-0.08320564 0.11466298 0.66100001 4294967295
-0.081974551 0.11466444 0.66100001 4294967295
-0.080743492 0.11466582 0.66100001 4294967295
-0.07927186 0.11432023 0.65899998 4294967295
-0.078044578 0.11432154 0.65899998 4294967295
-0.077050462 0.11466979 0.66100001 4294967295
-0.075819515 0.11467102 0.66100001 4294967295
-0.074588604 0.11467224 0.66100001 4294967295
-0.073357709 0.11467337 0.66100001 4294967295
-0.072235972 0.114848 0.662 4294967295
-0.071003288 0.11484907 0.662 4294967295
-0.069770619 0.11485012 0.662 4294967295
-0.068641536 0.1150246 0.66299999 4294967295
-0.067407072 0.11502557 0.66299999 4294967295
-0.066272445 0.11519997 0.66399997 4294967295
-0.065036185 0.11520086 0.66399997 4294967295
-0.063992135 0.1155487 0.66600001 4294967295
-0.062752217 0.1155495 0.66600001 4294967295
-0.061512329 0.11555026 0.66600001 4294967295
-0.060362965 0.11572449 0.667 4294967295
-0.059121288 0.11572517 0.667 4294967294
-0.057966404 0.11589931 0.66799998 4294967295
-0.05663801 0.11572641 0.667 4294967295
-0.05539643 0.11572698 0.667 4294967295
-0.054398447 0.11624801 0.67000002 4294967295
-0.053151343 0.11624849 0.67000002 4294967295
-0.051904269 0.11624893 0.67000002 4294967295
-0.05073284 0.11642282 0.671 4294967295
-0.049778964 0.11711721 0.67500001 4294967295
-0.048522685 0.11711752 0.67500001 4294967295
-0.047196429 0.1169443 0.67400002 4294967291
-0.045942079 0.11694452 0.67400002 4294967293
-0.044687763 0.1169447 0.67400002 4294967291
-0.043497935 0.11711834 0.67500001 4294967289
-0.04224183 0.11711847 0.67500001 4294967287
-0.040985763 0.11711853 0.67500001 4294967280
-0.039788593 0.11729206 0.676 4294965742
-0.038530733 0.11729203 0.676 4294966513
-0.037383195 0.11763898 0.67799997 4294966508
-0.036174968 0.11781238 0.67900002 4294965737
-0.034963053 0.11798576 0.68000001 4294768104
-0.033797015 0.11833256 0.68199998 4294570724
-0.032575876 0.11850585 0.68300003 4294373346
-0.031442724 0.11902609 0.68599999 4294307553
-0.030210493 0.11919927 0.68699998 4294373598
-0.028932471 0.1191989 0.68699998 4294373598
-0.02777525 0.11971902 0.69 4294307293
-0.026491724 0.11971856 0.69 4294307293
-0.025208237 0.11971807 0.69 4294241757
-0.15243204 0.12083346 0.69 4294967295
-0.15048832 0.12031158 0.68699998 4294967295
-0.14899018 0.12013988 0.68599999 4294967295
-0.14706516 0.11961787 0.68300003 4294967295
-0.14557829 0.11944607 0.68199998 4294967295
-0.14388357 0.11909909 0.68000001 4294967295
-0.14240609 0.1189272 0.67900002 4294967295
-0.14114019 0.11893041 0.67900002 4294967295
-0.13966835 0.11875841 0.67799997 4294967295
-0.13799612 0.11841123 0.676 4294967295
-0.13653365 0.11823915 0.67500001 4294967295
-0.13507493 0.11806703 0.67400002 4294967295
-0.13342144 0.11771968 0.67199999 4294967295
-0.13216877 0.11772263 0.67199999 4294967295
-0.13052653 0.1173752 0.67000002 4294967295
-0.12927766 0.11737807 0.67000002 4294967295
-0.12802881 0.11738092 0.67000002 4294967295
-0.12640153 0.11703332 0.66799998 4294967295
-0.12515648 0.11703607 0.66799998 4294967295
-0.12372597 0.11686359 0.667 4294967295
-0.12229919 0.11669106 0.66600001 4294967295
-0.12105796 0.11669371 0.66600001 4294967295
-0.1194569 0.11634585 0.66399997 4294967295
-0.11821944 0.11634841 0.66399997 4294967295
-0.11680584 0.11617573 0.66299999 4294967295
-0.11557029 0.1161782 0.66299999 4294967295
-0.11416233 0.11600541 0.662 4294967295
-0.11292869 0.11600779 0.662 4294967295
-0.11152638 0.11583493 0.66100001 4294967295
-0.11029468 0.11583725 0.66100001 4294967295
-0.10873299 0.11548901 0.65899998 4294967295
-0.10750508 0.11549124 0.65899998 4294967295
-0.10627717 0.11549345 0.65899998 4294967295
-0.10504929 0.11549561 0.65899998 4294967295
-0.10382146 0.11549774 0.65899998 4294967295
-0.10259364 0.11549982 0.65899998 4294967295
-0.10136586 0.11550187 0.65899998 4294967295
-0.10013809 0.11550387 0.65899998 4294967295
-0.098910376 0.11550586 0.65899998 4294967295
-0.097682677 0.11550777 0.65899998 4294967295
-0.096454993 0.11550967 0.65899998 4294967295
-0.095227338 0.11551152 0.65899998 4294967295
-0.093857095 0.11533805 0.65799999 4294967295
-0.092631355 0.11533982 0.65799999 4294967295
-0.091544569 0.11551683 0.65899998 4294967295
-0.090317041 0.11551855 0.65899998 4294967295
-0.089089535 0.1155202 0.65899998 4294967295
-0.087862059 0.11552183 0.65899998 4294967295
-0.086634606 0.11552341 0.65899998 4294967295
-0.085407197 0.11552495 0.65899998 4294967295
-0.084435292 0.11587707 0.66100001 4294967295
-0.083204202 0.11587854 0.66100001 4294967295
-0.081973143 0.11587996 0.66100001 4294967295
-0.080742121 0.11588134 0.66100001 4294967295
-0.079270542 0.11553206 0.65899998 4294967295
-0.078043297 0.11553337 0.65899998 4294967295
-0.076816082 0.11553464 0.65899998 4294967295
-0.075588904 0.11553586 0.65899998 4294967295
-0.074587435 0.11588769 0.66100001 4294967295
-0.073356576 0.11588883 0.66100001 4294967295
-0.072125763 0.11588994 0.66100001 4294967295
-0.071002237 0.11606635 0.662 4294967295
-0.069769606 0.11606736 0.662 4294967295
-0.06864056 0.11624369 0.66299999 4294967295
-0.067406133 0.11624464 0.66299999 4294967295
-0.06617175 0.11624555 0.66299999 4294967295
-0.065035343 0.11642176 0.66399997 4294967295
-0.06379915 0.11642259 0.66399997 4294967295
-0.062563002 0.11642338 0.66399997 4294967295
-0.061326876 0.11642412 0.66399997 4294967295
-0.060271777 0.11677551 0.66600001 4294967295
-0.059032001 0.11677618 0.66600001 4294967295
-0.057879023 0.11695214 0.667 4294967295
-0.056637444 0.11695273 0.667 4294967295
-0.055395894 0.11695327 0.667 4294967295
-0.05423557 0.11712912 0.66799998 4294967295
-0.052992232 0.11712959 0.66799998 4294967295
-0.051748928 0.11713002 0.66799998 4294967295
-0.050656863 0.1174811 0.67000002 4294967295
-0.049704894 0.11818282 0.67400002 4294967295
-0.048450515 0.11818312 0.67400002 4294967295
-0.047196183 0.11818338 0.67400002 4294967290
-0.045941874 0.11818359 0.67400002 4294967287
-0.044687603 0.11818377 0.67400002 4294967277
-0.043497812 0.11835926 0.67500001 4294967018
-0.042241748 0.11835933 0.67500001 4294967277
-0.040985726 0.11835939 0.67500001 4294967279
-0.039788596 0.11853475 0.676 4294966000
-0.038530786 0.11853471 0.676 4294571242
-0.037383281 0.11888532 0.67799997 4294636769
-0.036175102 0.11906057 0.67900002 4294702562
-0.034963232 0.11923575 0.68000001 4294636517
-0.033797234 0.11958622 0.68199998 4294439139
-0.03257614 0.11976133 0.68300003 4294373600
-0.03144303 0.12028707 0.68599999 4294307807
-0.030210843 0.12046207 0.68699998 4294373600
-0.028932862 0.12046169 0.68699998 4294570722
-0.027695179 0.12063664 0.68800002 4293979103
-0.026492205 0.12098685 0.69 4293913310
-0.15309127 0.12263371 0.69300002 4294967295
-0.15070394 0.12175237 0.68800002 4294967295
-0.1489868 0.12140186 0.68599999 4294967295
-0.14706184 0.12087432 0.68300003 4294967295
-0.14557499 0.12070066 0.68199998 4294967295
-0.14388032 0.12034999 0.68000001 4294967295
-0.14240287 0.12017625 0.67900002 4294967295
-0.14113702 0.12017945 0.67900002 4294967295
-0.1396652 0.12000562 0.67799997 4294967295
-0.13799304 0.11965474 0.676 4294967295
-0.13653061 0.1194808 0.67500001 4294967295
-0.13467112 0.1189528 0.67199999 4294967295
-0.13321993 0.11877877 0.671 4294967295
-0.13196918 0.11878172 0.671 4294967295
-0.13052364 0.1186076 0.67000002 4294967295
-0.12927483 0.11861047 0.67000002 4294967295
-0.12802601 0.1186133 0.67000002 4294967295
-0.1263988 0.11826202 0.66799998 4294967295
-0.12515377 0.11826476 0.66799998 4294967295
-0.12372329 0.11809042 0.667 4294967295
-0.12229656 0.11791606 0.66600001 4294967295
-0.12105536 0.11791869 0.66600001 4294967295
-0.11981417 0.11792127 0.66600001 4294967295
-0.11821693 0.11756969 0.66399997 4294967295
-0.11680336 0.11739513 0.66299999 4294967295
-0.11556786 0.1173976 0.66299999 4294967295
-0.11415992 0.11722295 0.662 4294967295
-0.11292633 0.11722535 0.662 4294967295
-0.11152405 0.11705063 0.66100001 4294967295
-0.11029239 0.11705292 0.66100001 4294967295
-0.10873076 0.11670101 0.65899998 4294967295
-0.10750286 0.11670324 0.65899998 4294967295
-0.106275 0.11670541 0.65899998 4294967295
-0.10488777 0.11653048 0.65799999 4294967295
-0.10366184 0.11653259 0.65799999 4294967295
-0.10243592 0.11653467 0.65799999 4294967295
-0.10121004 0.11653669 0.65799999 4294967295
-0.099984169 0.11653868 0.65799999 4294967295
-0.098758355 0.11654063 0.65799999 4294967295
-0.097532555 0.11654256 0.65799999 4294967295
-0.096306778 0.11654444 0.65799999 4294967295
-0.095081031 0.11654627 0.65799999 4294967295
-0.093855314 0.11654808 0.65799999 4294967295
-0.092629611 0.11654984 0.65799999 4294967295
-0.09154287 0.11672869 0.65899998 4294967295
-0.090315387 0.11673038 0.65899998 4294967295
-0.089087918 0.11673202 0.65899998 4294967295
-0.087860473 0.11673363 0.65899998 4294967295
-0.086633071 0.1167352 0.65899998 4294967295
-0.085405685 0.11673672 0.65899998 4294967295
-0.084433824 0.11709251 0.66100001 4294967295
-0.083202787 0.11709397 0.66100001 4294967295
-0.08172372 0.11674109 0.65899998 4294967295
-0.08049646 0.11674244 0.65899998 4294967295
-0.07926923 0.11674379 0.65899998 4294967295
-0.078042023 0.11674508 0.65899998 4294967295
-0.076814853 0.11674633 0.65899998 4294967295
-0.075587705 0.11674755 0.65899998 4294967295
-0.074360594 0.11674873 0.65899998 4294967295
-0.073355466 0.1171042 0.66100001 4294967295
-0.07212469 0.11710528 0.66100001 4294967295
-0.070893943 0.11710634 0.66100001 4294967295
-0.069663227 0.11710736 0.66100001 4294967295
-0.068536066 0.11728549 0.662 4294967295
-0.067303553 0.11728644 0.662 4294967295
-0.066170871 0.11746451 0.66299999 4294967295
-0.065034494 0.11764254 0.66399997 4294967295
-0.063798346 0.11764334 0.66399997 4294967295
-0.062562242 0.11764412 0.66399997 4294967295
-0.06132615 0.11764486 0.66399997 4294967295
-0.060271099 0.11799992 0.66600001 4294967295
-0.05903136 0.11800057 0.66600001 4294967295
-0.057791647 0.11800119 0.66600001 4294967295
-0.056551974 0.11800177 0.66600001 4294967295
-0.055312332 0.1180023 0.66600001 4294967295
-0.054153901 0.11817997 0.667 4294967290
-0.052912466 0.11818042 0.667 4294967295
-0.051748529 0.118358 0.66799998 4294967295
-0.050505295 0.11835837 0.66799998 4294967295
-0.049409587 0.11871308 0.67000002 4294967295
-0.048450243 0.11942211 0.67400002 4294967291
-0.047195945 0.11942235 0.67400002 4294967286
-0.045941688 0.11942256 0.67400002 4294967284
-0.044687454 0.11942273 0.67400002 4294967281
-0.043433264 0.11942285 0.67400002 4294967024
-0.042241689 0.11960011 0.67500001 4294967283
-0.040985707 0.11960015 0.67500001 4294967026
-0.039788619 0.11977733 0.676 4294834158
-0.038644843 0.12013165 0.67799997 4294571242
-0.03743853 0.12030875 0.67900002 4294570720
-0.036175247 0.12030861 0.67900002 4294439391
-0.034963418 0.12048562 0.68000001 4294373600
-0.033797465 0.12083977 0.68199998 4294307807
-0.032576412 0.12101669 0.68300003 4294241496
-0.031351674 0.12119357 0.68400002 4294307289
-0.030211205 0.12172477 0.68699998 4294504414
-0.028933266 0.12172438 0.68699998 4294504414
-0.02769563 0.12190113 0.68800002 4293913047
-0.026492698 0.122255 0.69 4293913047
-0.025318902 0.12278604 0.69300002 4293848287
-0.15437993 0.12390494 0.69300002 4294967295
-0.15264599 0.12355086 0.69099998 4294967295
-0.15070051 0.12301791 0.68800002 4294967295
-0.14898342 0.12266371 0.68599999 4294967295
-0.14705852 0.12213065 0.68300003 4294967295
-0.14557171 0.12195513 0.68199998 4294967295
-0.14387709 0.12160077 0.68000001 4294967295
-0.14239967 0.12142517 0.67900002 4294967295
-0.14092599 0.12124952 0.67799997 4294967295
-0.13966209 0.12125267 0.67799997 4294967295
-0.13778582 0.12071926 0.67500001 4294967295
-0.13652757 0.12072233 0.67500001 4294967295
-0.13466814 0.12018879 0.67199999 4294967295
-0.13321699 0.12001291 0.671 4294967295
-0.13196628 0.12001584 0.671 4294967295
-0.13052079 0.11983989 0.67000002 4294967295
-0.12927198 0.11984274 0.67000002 4294967295
-0.12802322 0.11984555 0.67000002 4294967295
-0.12639605 0.11949056 0.66799998 4294967295
-0.12515105 0.11949332 0.66799998 4294967295
-0.12390611 0.11949603 0.66799998 4294967295
-0.12247755 0.11931978 0.667 4294967295
-0.12105276 0.11914352 0.66600001 4294967295
-0.11981161 0.1191461 0.66600001 4294967295
-0.11821442 0.11879084 0.66399997 4294967295
-0.11680089 0.11861441 0.66299999 4294967295
-0.11556542 0.11861689 0.66299999 4294967295
-0.11415754 0.1184404 0.662 4294967295
-0.11292399 0.11844277 0.662 4294967295
-0.11152174 0.11826617 0.66100001 4294967295
-0.11029012 0.11826849 0.66100001 4294967295
-0.10872853 0.11791287 0.65899998 4294967295
-0.10750068 0.11791509 0.65899998 4294967295
-0.10611159 0.11773833 0.65799999 4294967295
-0.10488566 0.11774047 0.65799999 4294967295
-0.10365976 0.11774257 0.65799999 4294967295
-0.10227821 0.11756569 0.65700001 4294967295
-0.10105421 0.1175677 0.65700001 4294967295
-0.099982224 0.11774863 0.65799999 4294967295
-0.098756433 0.11775059 0.65799999 4294967295
-0.09753067 0.11775249 0.65799999 4294967295
-0.096304931 0.11775436 0.65799999 4294967295
-0.095079213 0.11775617 0.65799999 4294967295
-0.093853533 0.11775797 0.65799999 4294967295
-0.092627898 0.11775971 0.65799999 4294967295
-0.091402277 0.11776143 0.65799999 4294967295
-0.090176672 0.11776309 0.65799999 4294967295
-0.088951126 0.11776475 0.65799999 4294967295
-0.087725572 0.11776634 0.65799999 4294967295
-0.086500071 0.11776789 0.65799999 4294967295
-0.085274592 0.11776941 0.65799999 4294967295
-0.084176883 0.11794987 0.65899998 4294967295
-0.082949594 0.11795131 0.65899998 4294967295
-0.081722349 0.1179527 0.65899998 4294967295
-0.080495119 0.11795407 0.65899998 4294967295
-0.079267934 0.11795538 0.65899998 4294967295
-0.078040764 0.11795666 0.65899998 4294967295
-0.076813631 0.1179579 0.65899998 4294967295
-0.075586528 0.11795911 0.65899998 4294967295
-0.074359454 0.11796027 0.65899998 4294967295
-0.073354363 0.1183194 0.66100001 4294967295
-0.072123624 0.11832048 0.66100001 4294967295
-0.070892923 0.11832154 0.66100001 4294967295
-0.069662243 0.11832254 0.66100001 4294967295
-0.068535119 0.11850251 0.662 4294967295
-0.067302644 0.11850343 0.662 4294967295
-0.066070199 0.11850432 0.662 4294967295
-0.064935729 0.11868417 0.66299999 4294967295
-0.063701481 0.11868498 0.66299999 4294967295
-0.06246727 0.11868574 0.66299999 4294967295
-0.061233092 0.11868647 0.66299999 4294967295
-0.060089428 0.11886616 0.66399997 4294967295
-0.058853459 0.11886679 0.66399997 4294967295
-0.057617512 0.1188674 0.66399997 4294967295
-0.056381598 0.11886796 0.66399997 4294967295
-0.055311825 0.11922652 0.66600001 4294967295
-0.05407225 0.11922701 0.66600001 4294967294
-0.052832715 0.11922745 0.66600001 4294967295
-0.051670685 0.11940686 0.667 4294967295
-0.050504953 0.11958624 0.66799998 4294967295
-0.049409289 0.11994459 0.67000002 4294967283
-0.048449982 0.12066098 0.67400002 4294967277
-0.047195729 0.12066121 0.67400002 4294967283
-0.045941506 0.12066139 0.67400002 4294967280
-0.04468732 0.12066154 0.67400002 4294966511
-0.043433171 0.12066165 0.67400002 4294571754
-0.042241633 0.12084074 0.67500001 4294834158
-0.040985696 0.12084077 0.67500001 4294373607
-0.039788648 0.12101977 0.676 4294373600
-0.038644917 0.12137775 0.67799997 4294373600
-0.037438646 0.12155669 0.67900002 4294373598
-0.036175407 0.12155654 0.67900002 4294242011
-0.034963623 0.12173536 0.68000001 4294307802
-0.033797711 0.12209319 0.68199998 4294242009
-0.032576703 0.12227193 0.68300003 4294241750
-0.031352006 0.12245063 0.68400002 4294044115
-0.030211579 0.12298732 0.68699998 4294504404
-0.028933687 0.12298691 0.68699998 4294504404
-0.027696092 0.1231655 0.68800002 4294175953
-0.026493205 0.12352304 0.69 4294241746
-0.025319457 0.12405955 0.69300002 4293979101
-0.1563424 0.12571792 0.69599998 4294967295
-0.15437642 0.12517959 0.69300002 4294967295
-0.15242162 0.12464117 0.69 4294967295
-0.15047805 0.12410268 0.68699998 4294967295
-0.14854573 0.12356414 0.68400002 4294967295
-0.14705519 0.12338685 0.68300003 4294967295
-0.14556843 0.12320948 0.68199998 4294967295
-0.14387387 0.12285143 0.68000001 4294967295
-0.14239648 0.12267399 0.67900002 4294967295
-0.14092284 0.12249647 0.67799997 4294967295
-0.13924702 0.12213828 0.676 4294967295
-0.13778278 0.12196068 0.67500001 4294967295
-0.1363223 0.12178305 0.67400002 4294967295
-0.13466516 0.12142466 0.67199999 4294967295
-0.13321406 0.12124694 0.671 4294967295
-0.13196339 0.12124985 0.671 4294967295
-0.13051793 0.12107205 0.67000002 4294967295
-0.12926917 0.12107489 0.67000002 4294967295
-0.12802044 0.1210777 0.67000002 4294967295
-0.1263933 0.12071904 0.66799998 4294967295
-0.12514836 0.12072176 0.66799998 4294967295
-0.12371798 0.12054373 0.667 4294967295
-0.12229131 0.12036563 0.66600001 4294967295
-0.12105019 0.12036823 0.66600001 4294967295
-0.11944927 0.12000933 0.66399997 4294967295
-0.11821193 0.12001186 0.66399997 4294967295
-0.11679844 0.1198336 0.66299999 4294967295
-0.11556301 0.11983603 0.66299999 4294967295
-0.11415516 0.1196577 0.662 4294967295
-0.11275107 0.11947931 0.66100001 4294967295
-0.11151945 0.11948163 0.66100001 4294967295
-0.10995416 0.11912239 0.65899998 4294967295
-0.10872632 0.11912464 0.65899998 4294967295
-0.1074985 0.11912683 0.65899998 4294967295
-0.10610945 0.11894822 0.65799999 4294967295
-0.10488355 0.11895035 0.65799999 4294967295
-0.10365771 0.11895243 0.65799999 4294967295
-0.1022762 0.11877371 0.65700001 4294967295
-0.10105224 0.11877573 0.65700001 4294967295
-0.099980265 0.11895846 0.65799999 4294967295
-0.098754518 0.1189604 0.65799999 4294967295
-0.097528793 0.1189623 0.65799999 4294967295
-0.096156746 0.11878336 0.65700001 4294967295
-0.094932936 0.11878517 0.65700001 4294967295
-0.093851782 0.11896775 0.65799999 4294967295
-0.092626169 0.11896948 0.65799999 4294967295
-0.091400586 0.11897118 0.65799999 4294967295
-0.090175048 0.11897285 0.65799999 4294967295
-0.088949524 0.11897448 0.65799999 4294967295
-0.087724023 0.11897606 0.65799999 4294967295
-0.086498551 0.11897761 0.65799999 4294967295
-0.085273117 0.1189791 0.65799999 4294967295
-0.084175438 0.11916138 0.65899998 4294967295
-0.0829482 0.11916282 0.65899998 4294967295
-0.081720978 0.11916421 0.65899998 4294967295
-0.080493793 0.11916555 0.65899998 4294967295
-0.079266645 0.11916686 0.65899998 4294967295
-0.078039512 0.11916813 0.65899998 4294967295
-0.076812424 0.11916936 0.65899998 4294967295
-0.075585358 0.11917055 0.65899998 4294967295
-0.074358322 0.1191717 0.65899998 4294967295
-0.073353276 0.11953451 0.66100001 4294967295
-0.072122574 0.11953558 0.66100001 4294967295
-0.070891902 0.1195366 0.66100001 4294967295
-0.069661267 0.1195376 0.66100001 4294967295
-0.068430662 0.11953855 0.66100001 4294967295
-0.067301758 0.1197203 0.662 4294967295
-0.066069342 0.11972118 0.662 4294967295
-0.064836971 0.11972202 0.662 4294967295
-0.063604631 0.11972281 0.662 4294967295
-0.062466539 0.1199044 0.66299999 4294967295
-0.061232392 0.11990511 0.66299999 4294967295
-0.060088784 0.12008664 0.66399997 4294967295
-0.058852844 0.12008727 0.66399997 4294967295
-0.057616938 0.12008787 0.66399997 4294967295
-0.056381069 0.1200884 0.66399997 4294967295
-0.05514523 0.12008891 0.66399997 4294967295
-0.054071799 0.12045109 0.66600001 4294967295
-0.052832309 0.12045153 0.66600001 4294967295
-0.051670317 0.12063278 0.667 4294967289
-0.050504629 0.12081398 0.66799998 4294967290
-0.049482748 0.12135687 0.671 4294967279
-0.048449732 0.1218997 0.67400002 4294967279
-0.047055475 0.1215382 0.67199999 4294967285
-0.045805015 0.12153838 0.67199999 4294966769
-0.044687193 0.12190025 0.67400002 4294769389
-0.043433093 0.12190034 0.67400002 4294769389
-0.042179015 0.12190041 0.67400002 4294965996
-0.0409857 0.12208126 0.67500001 4294570724
-0.039788697 0.12226209 0.676 4294701027
-0.038531005 0.12226202 0.676 4294701027
-0.037383635 0.12262363 0.67799997 4294373348
-0.036175579 0.12280434 0.67900002 4294307555
-0.034963835 0.12298499 0.68000001 4294307804
-0.033797972 0.12334646 0.68199998 4294242011
-0.032577001 0.12352704 0.68300003 4294307289
-0.031352356 0.12370757 0.68400002 4294044117
-0.03021197 0.12424975 0.68699998 4294174417
-0.028934121 0.12424934 0.68699998 4294174417
-0.027696565 0.12442975 0.68800002 4294044115
-0.026493726 0.12479094 0.69 4293978321
-0.025320025 0.12533295 0.69300002 4293650392
-0.024135198 0.12587492 0.69599998 4293650392
-0.022840807 0.12587428 0.69599998 4293979868
-0.15633886 0.12699798 0.69599998 4294967295
-0.15437292 0.12645411 0.69300002 4294967295
-0.15197639 0.1255452 0.68800002 4294967295
-0.15025564 0.12518367 0.68599999 4294967295
-0.14854237 0.12482209 0.68400002 4294967295
-0.14683658 0.12446041 0.68199998 4294967295
-0.14513829 0.12409873 0.68000001 4294967295
-0.14365907 0.12391947 0.67900002 4294967295
-0.14218357 0.12374016 0.67799997 4294967295
-0.14050403 0.12337831 0.676 4294967295
-0.13903794 0.1231989 0.67500001 4294967295
-0.13757561 0.12301946 0.67400002 4294967295
-0.13631929 0.1230225 0.67400002 4294967295
-0.13446182 0.1224779 0.671 4294967295
-0.13321114 0.12248085 0.671 4294967295
-0.13176383 0.12230121 0.67000002 4294967295
-0.1305151 0.12230409 0.67000002 4294967295
-0.12926637 0.12230693 0.67000002 4294967295
-0.12763552 0.12194461 0.66799998 4294967295
-0.12639058 0.12194737 0.66799998 4294967295
-0.12514567 0.12195008 0.66799998 4294967295
-0.12371532 0.12177018 0.667 4294967295
-0.12228871 0.12159026 0.66600001 4294967295
-0.12068411 0.12122771 0.66399997 4294967295
-0.11944676 0.12123024 0.66399997 4294967295
-0.11820944 0.12123276 0.66399997 4294967295
-0.11679599 0.12105266 0.66299999 4294967295
-0.1155606 0.12105509 0.66299999 4294967295
-0.1141528 0.1208749 0.662 4294967295
-0.11274874 0.12069466 0.66100001 4294967295
-0.11151715 0.12069697 0.66100001 4294967295
-0.10995192 0.12033404 0.65899998 4294967295
-0.10872411 0.12033626 0.65899998 4294967295
-0.10749634 0.12033845 0.65899998 4294967295
-0.10610733 0.120158 0.65799999 4294967295
-0.10488147 0.12016012 0.65799999 4294967295
-0.10365566 0.12016219 0.65799999 4294967295
-0.10227419 0.11998162 0.65700001 4294967295
-0.10105027 0.11998361 0.65700001 4294967295
-0.099978335 0.12016819 0.65799999 4294967295
-0.098752625 0.12017011 0.65799999 4294967295
-0.097526945 0.12017199 0.65799999 4294967295
-0.096154936 0.11999121 0.65700001 4294967295
-0.094931155 0.11999302 0.65700001 4294967295
-0.093850046 0.1201774 0.65799999 4294967295
-0.092624463 0.12017914 0.65799999 4294967295
-0.091398925 0.12018082 0.65799999 4294967295
-0.090173423 0.12018248 0.65799999 4294967295
-0.088947929 0.12018407 0.65799999 4294967295
-0.087722473 0.12018566 0.65799999 4294967295
-0.086628489 0.12036985 0.65899998 4294967295
-0.085401222 0.12037133 0.65899998 4294967295
-0.084174007 0.12037279 0.65899998 4294967295
-0.0829468 0.12037421 0.65899998 4294967295
-0.081719622 0.1203756 0.65899998 4294967295
-0.080492482 0.12037693 0.65899998 4294967295
-0.079265371 0.12037823 0.65899998 4294967295
-0.078038283 0.12037949 0.65899998 4294967295
-0.076811224 0.12038069 0.65899998 4294967295
-0.075584196 0.12038188 0.65899998 4294967295
-0.074357212 0.12038302 0.65899998 4294967295
-0.073130243 0.12038411 0.65899998 4294967295
-0.071903303 0.12038517 0.65899998 4294967295
-0.070676409 0.12038621 0.65899998 4294967295
-0.069449529 0.12038717 0.65899998 4294967295
-0.068429746 0.12075349 0.66100001 4294967295
-0.067300864 0.12093706 0.662 4294967295
-0.066068493 0.12093791 0.662 4294967295
-0.064836174 0.12093874 0.662 4294967295
-0.063603871 0.12093952 0.662 4294967295
-0.062465817 0.12112295 0.66299999 4294967295
-0.061231717 0.12112365 0.66299999 4294967295
-0.060088143 0.12130699 0.66399997 4294967294
-0.05885224 0.1213076 0.66399997 4294967294
-0.057616379 0.12130819 0.66399997 4294967294
-0.056380551 0.12130872 0.66399997 4294967293
-0.05514475 0.12130923 0.66399997 4294967293
-0.054071363 0.12167507 0.66600001 4294967293
-0.052831914 0.1216755 0.66600001 4294967289
-0.051669952 0.12185856 0.667 4294967293
-0.050655525 0.12240699 0.67000002 4294967295
-0.049408726 0.12240727 0.67000002 4294967277
-0.048305728 0.12277291 0.67199999 4294638053
-0.047055282 0.12277313 0.67199999 4294769389
-0.045804869 0.12277329 0.67199999 4294703596
-0.044687085 0.12313882 0.67400002 4294834412
-0.043433022 0.1231389 0.67400002 4294768619
-0.042178988 0.12313893 0.67400002 4294636254
-0.040985715 0.12332163 0.67500001 4294109910
-0.039729893 0.1233216 0.67500001 4294109919
-0.03853111 0.1235042 0.676 4294109919
-0.0372735 0.12350408 0.676 4294045159
-0.036122486 0.12386928 0.67799997 4294176746
-0.034964062 0.12423449 0.68000001 4294307802
-0.033699125 0.12423422 0.68000001 4293781458
-0.032529619 0.12459933 0.68199998 4293846742
-0.031352714 0.12496439 0.68400002 4294043865
-0.030212373 0.12551205 0.68699998 4293978067
-0.028934566 0.12551163 0.68699998 4293846738
-0.027697058 0.12569386 0.68800002 4293715667
-0.026494261 0.12605871 0.69 4293518289
-0.025247529 0.12624085 0.69099998 4293649618
-0.024066469 0.1267883 0.69400001 4293386703
-0.022841476 0.12715302 0.69599998 4293517519
-0.15459219 0.12791283 0.69400001 4294967295
-0.15197296 0.12681042 0.68800002 4294967295
-0.15025225 0.12644519 0.68599999 4294967295
-0.14832187 0.12589557 0.68300003 4294967295
-0.14683329 0.12571454 0.68199998 4294967295
-0.14513507 0.12534915 0.68000001 4294967295
-0.14365588 0.12516806 0.67900002 4294967295
-0.14218044 0.1249869 0.67799997 4294967295
-0.14050092 0.12462135 0.676 4294967295
-0.13903487 0.1244401 0.67500001 4294967295
-0.13757259 0.1242588 0.67400002 4294967295
-0.13591179 0.12389309 0.67199999 4294967295
-0.13445888 0.1237117 0.671 4294967295
-0.13300973 0.12353028 0.67000002 4294967295
-0.13176097 0.12353317 0.67000002 4294967295
-0.13051227 0.12353602 0.67000002 4294967295
-0.12926356 0.12353884 0.67000002 4294967295
-0.12763277 0.12317284 0.66799998 4294967295
-0.12638786 0.12317558 0.66799998 4294967295
-0.12495565 0.12299389 0.667 4294967295
-0.12352721 0.12281215 0.66600001 4294967295
-0.1219189 0.12244596 0.66399997 4294967295
-0.12068155 0.12244852 0.66399997 4294967295
-0.11944424 0.12245106 0.66399997 4294967295
-0.11820696 0.12245356 0.66399997 4294967295
-0.11679356 0.1222716 0.66299999 4294967295
-0.11555821 0.12227403 0.66299999 4294967295
-0.11415044 0.12209198 0.662 4294967295
-0.11274644 0.12190989 0.66100001 4294967295
-0.11151488 0.1219122 0.66100001 4294967295
-0.10994968 0.12154558 0.65899998 4294967295
-0.10872193 0.1215478 0.65899998 4294967295
-0.10749418 0.12154996 0.65899998 4294967295
-0.10610522 0.12136768 0.65799999 4294967295
-0.1048794 0.12136978 0.65799999 4294967295
-0.10349609 0.12118738 0.65700001 4294967295
-0.1022722 0.1211894 0.65700001 4294967295
-0.10104831 0.12119137 0.65700001 4294967295
-0.099976413 0.12137779 0.65799999 4294967295
-0.098750725 0.1213797 0.65799999 4294967295
-0.09752509 0.12138158 0.65799999 4294967295
-0.096153125 0.12119894 0.65700001 4294967295
-0.094929375 0.12120073 0.65700001 4294967295
-0.09384831 0.12138695 0.65799999 4294967295
-0.092622787 0.12138868 0.65799999 4294967295
-0.091397263 0.12139034 0.65799999 4294967295
-0.090171814 0.12139198 0.65799999 4294967295
-0.088946357 0.12139359 0.65799999 4294967295
-0.087720923 0.12139514 0.65799999 4294967295
-0.086495548 0.12139668 0.65799999 4294967295
-0.085270174 0.12139815 0.65799999 4294967295
-0.084172584 0.1215841 0.65899998 4294967295
-0.082945414 0.1215855 0.65899998 4294967295
-0.081718273 0.12158686 0.65899998 4294967295
-0.080491178 0.12158819 0.65899998 4294967295
-0.079264097 0.12158947 0.65899998 4294967295
-0.077918641 0.12140622 0.65799999 4294967295
-0.076693483 0.12140742 0.65799999 4294967295
-0.075583056 0.1215931 0.65899998 4294967295
-0.074356101 0.12159421 0.65899998 4294967295
-0.07312917 0.1215953 0.65899998 4294967295
-0.071902275 0.12159635 0.65899998 4294967295
-0.070675418 0.12159736 0.65899998 4294967295
-0.069448583 0.12159833 0.65899998 4294967295
-0.068428829 0.1219683 0.66100001 4294967295
-0.067198336 0.12196919 0.66100001 4294967295
-0.066067666 0.12215455 0.662 4294967293
-0.064933315 0.1223399 0.66299999 4294967294
-0.063699193 0.12234066 0.66299999 4294967295
-0.062465105 0.12234139 0.66299999 4294967295
-0.061323401 0.12252659 0.66399997 4294967295
-0.060087513 0.12252725 0.66399997 4294967295
-0.058851656 0.12252785 0.66399997 4294967295
-0.057615835 0.12252841 0.66399997 4294967295
-0.056380048 0.12252894 0.66399997 4294967289
-0.055310387 0.12289848 0.66600001 4294967289
-0.054070935 0.12289894 0.66600001 4294967295
-0.052910853 0.12308387 0.667 4294967290
-0.051669609 0.12308423 0.667 4294967288
-0.05065522 0.12363816 0.67000002 4294967284
-0.049408466 0.12363844 0.67000002 4294966762
-0.048305504 0.12400774 0.67199999 4294965735
-0.047055099 0.12400794 0.67199999 4294965735
-0.045804724 0.12400809 0.67199999 4294768355
-0.044554383 0.12400819 0.67199999 4294570724
-0.043432966 0.12437735 0.67400002 4294307553
-0.042178974 0.12437738 0.67400002 4294306773
-0.040985744 0.1245619 0.67500001 4294306773
-0.039729964 0.12456184 0.67500001 4294176737
-0.038531221 0.12474627 0.676 4293913308
-0.037273657 0.12474614 0.676 4293716188
-0.036122683 0.12511502 0.67799997 4294110689
-0.034964304 0.12548387 0.68000001 4294176735
-0.033699412 0.1254836 0.68000001 4293453011
-0.032529946 0.12585236 0.68199998 4293583314
-0.031307247 0.12603654 0.68300003 4294043865
-0.03021279 0.12677425 0.68699998 4294109658
-0.028935023 0.1267738 0.68699998 4293846742
-0.027697559 0.12695786 0.68800002 4293715667
-0.026494808 0.12732638 0.69 4293649618
-0.025248121 0.12751032 0.69099998 4293649620
-0.024032429 0.12787876 0.69300002 4293386705
-0.022743704 0.1278781 0.69300002 4293517519
-0.15853533 0.13029873 0.69999999 4294967295
-0.15723024 0.13030231 0.69999999 4294967295
-0.15458871 0.12918895 0.69400001 4294967295
-0.15196955 0.12807548 0.68800002 4294967295
-0.15024889 0.12770656 0.68599999 4294967295
-0.14831856 0.12715143 0.68300003 4294967295
-0.14683002 0.12696855 0.68199998 4294967295
-0.14513183 0.12659948 0.68000001 4294967295
-0.14386426 0.12660271 0.68000001 4294967295
-0.14238699 0.12641971 0.67900002 4294967295
-0.14091349 0.12623665 0.67799997 4294967295
-0.13923778 0.12586737 0.676 4294967295
-0.13756958 0.12549803 0.67400002 4294967295
-0.13590883 0.12512864 0.67199999 4294967295
-0.13445593 0.12494539 0.671 4294967295
-0.13300683 0.12476212 0.67000002 4294967295
-0.13175812 0.12476499 0.67000002 4294967295
-0.13050945 0.12476783 0.67000002 4294967295
-0.12887494 0.12439819 0.66799998 4294967295
-0.12763003 0.12440095 0.66799998 4294967295
-0.12619597 0.12421745 0.667 4294967295
-0.12476566 0.12403389 0.66600001 4294967295
-0.12315364 0.12366406 0.66399997 4294967295
-0.12191631 0.12366665 0.66399997 4294967295
-0.12067901 0.12366922 0.66399997 4294967295
-0.11944175 0.12367176 0.66399997 4294967295
-0.1182045 0.12367423 0.66399997 4294967295
-0.11679115 0.12349044 0.66299999 4294967295
-0.11555582 0.12349284 0.66299999 4294967295
-0.1141481 0.12330894 0.662 4294967295
-0.11274413 0.123125 0.66100001 4294967295
-0.11151263 0.12312731 0.66100001 4294967295
-0.10994747 0.122757 0.65899998 4294967295
-0.10871973 0.12275919 0.65899998 4294967295
-0.10749203 0.12276136 0.65899998 4294967295
-0.10610311 0.12257721 0.65799999 4294967295
-0.10487734 0.1225793 0.65799999 4294967295
-0.10349406 0.12239505 0.65700001 4294967295
-0.1022702 0.12239707 0.65700001 4294967295
-0.10104638 0.12239905 0.65700001 4294967295
-0.099974498 0.12258728 0.65799999 4294967295
-0.098748863 0.12258918 0.65799999 4294967295
-0.097523257 0.12259103 0.65799999 4294967295
-0.096297681 0.12259287 0.65799999 4294967295
-0.09507212 0.12259464 0.65799999 4294967295
-0.093846597 0.12259638 0.65799999 4294967295
-0.092621095 0.12259809 0.65799999 4294967295
-0.091534518 0.12278606 0.65899998 4294967295
-0.090307228 0.12278771 0.65899998 4294967295
-0.089079954 0.12278928 0.65899998 4294967295
-0.087852716 0.12279084 0.65899998 4294967295
-0.086494058 0.12260602 0.65799999 4294967295
-0.085268728 0.12260749 0.65799999 4294967295
-0.084171169 0.12279527 0.65899998 4294967295
-0.082944036 0.12279665 0.65899998 4294967295
-0.081716947 0.12279802 0.65899998 4294967295
-0.080489881 0.12279932 0.65899998 4294967295
-0.079262845 0.1228006 0.65899998 4294967295
-0.077917434 0.12261549 0.65799999 4294967295
-0.07669232 0.12261669 0.65799999 4294967295
-0.075581916 0.12280419 0.65899998 4294967295
-0.074355014 0.1228053 0.65899998 4294967295
-0.073128127 0.12280638 0.65899998 4294967295
-0.071901262 0.1228074 0.65899998 4294967295
-0.070674442 0.1228084 0.65899998 4294967295
-0.069447652 0.12280936 0.65899998 4294967295
-0.068427935 0.12318299 0.66100001 4294967295
-0.067197487 0.12318388 0.66100001 4294967295
-0.066066854 0.12337105 0.662 4294967289
-0.06493254 0.12355822 0.66299999 4294967289
-0.063698456 0.12355897 0.66299999 4294967295
-0.062464409 0.12355969 0.66299999 4294967295
-0.061230388 0.12356038 0.66299999 4294967295
-0.060086895 0.12374735 0.66399997 4294967295
-0.058851082 0.12374797 0.66399997 4294967295
-0.057615295 0.12374851 0.66399997 4294967293
-0.056379553 0.12374903 0.66399997 4294967283
-0.055309929 0.12412223 0.66600001 4294967026
-0.05415171 0.12430904 0.667 4294967288
-0.052910484 0.12430944 0.667 4294967287
-0.051746741 0.12449614 0.66799998 4294967283
-0.05073053 0.12505558 0.671 4294506985
-0.049481958 0.12505583 0.671 4294703592
-0.048305295 0.12524243 0.67199999 4294637799
-0.046984907 0.12505624 0.671 4294636765
-0.045736432 0.12505639 0.671 4294636765
-0.044554297 0.12524287 0.67199999 4294044896
-0.043304045 0.12524292 0.67199999 4293847517
-0.042178981 0.12561569 0.67400002 4294044113
-0.040985785 0.12580203 0.67500001 4294110162
-0.03973005 0.12580195 0.67500001 4293978842
-0.038531344 0.1259882 0.676 4293913049
-0.037273828 0.12598805 0.676 4293584345
-0.036122896 0.12636061 0.67799997 4293518552
-0.034913141 0.12654674 0.67900002 4293715413
-0.033699706 0.12673283 0.68000001 4292926154
-0.032434892 0.1267325 0.68000001 4293189587
-0.031170111 0.12673213 0.68000001 4293979103
-0.030213218 0.12803631 0.68699998 4294044117
-0.028935499 0.12803584 0.68699998 4293649359
-0.027698075 0.12822172 0.68800002 4293649107
-0.026495371 0.12859391 0.69 4293583314
-0.025248727 0.12877966 0.69099998 4293452496
-0.024033081 0.12915178 0.69300002 4293320909
-0.022744399 0.12915109 0.69300002 4293386187
-0.15853177 0.13158579 0.69999999 4294967295
-0.15655291 0.13102542 0.69700003 4294967295
-0.15458526 0.13046496 0.69400001 4294967295
-0.15240791 0.12971643 0.69 4294967295
-0.15024553 0.12896784 0.68599999 4294967295
-0.14853241 0.12859517 0.68400002 4294967295
-0.14682676 0.12822245 0.68199998 4294967295
-0.14512861 0.12784967 0.68000001 4294967295
-0.14386107 0.12785289 0.68000001 4294967295
-0.14238386 0.12766804 0.67900002 4294967295
-0.14091039 0.12748313 0.67799997 4294967295
-0.13923474 0.12711017 0.676 4294967295
-0.13756655 0.12673715 0.67400002 4294967295
-0.13590586 0.12636405 0.67199999 4294967295
-0.13445301 0.12617895 0.671 4294967295
-0.13300395 0.12599382 0.67000002 4294967295
-0.13175528 0.12599669 0.67000002 4294967295
-0.13050663 0.12599954 0.67000002 4294967295
-0.12887219 0.12562621 0.66799998 4294967295
-0.12762731 0.12562895 0.66799998 4294967295
-0.12619328 0.12544358 0.667 4294967295
-0.12476302 0.12525819 0.66600001 4294967295
-0.12315103 0.12488466 0.66399997 4294967295
-0.12191375 0.12488724 0.66399997 4294967295
-0.1206765 0.12488981 0.66399997 4294967295
-0.11943926 0.12489232 0.66399997 4294967295
-0.11820206 0.12489479 0.66399997 4294967295
-0.11678874 0.12470914 0.66299999 4294967295
-0.11537917 0.12452343 0.662 4294967295
-0.11414578 0.1245258 0.662 4294967295
-0.11274184 0.12434001 0.66100001 4294967295
-0.11117298 0.12396605 0.65899998 4294967295
-0.10994526 0.12396828 0.65899998 4294967295
-0.1085526 0.12378237 0.65799999 4294967295
-0.10732678 0.12378451 0.65799999 4294967295
-0.10610102 0.12378663 0.65799999 4294967295
-0.10487527 0.12378871 0.65799999 4294967295
-0.10364957 0.12379076 0.65799999 4294967295
-0.10242388 0.12379275 0.65799999 4294967295
-0.10119823 0.12379472 0.65799999 4294967295
-0.099972598 0.12379665 0.65799999 4294967295
-0.098747008 0.12379853 0.65799999 4294967295
-0.097521424 0.12380037 0.65799999 4294967295
-0.096295893 0.12380219 0.65799999 4294967295
-0.09507037 0.12380397 0.65799999 4294967295
-0.093844876 0.12380568 0.65799999 4294967295
-0.092619412 0.12380738 0.65799999 4294967295
-0.091532886 0.12399719 0.65899998 4294967295
-0.090305641 0.12399881 0.65899998 4294967295
-0.089078404 0.12400039 0.65899998 4294967295
-0.087851204 0.12400194 0.65899998 4294967295
-0.086624026 0.12400343 0.65899998 4294967295
-0.085396871 0.12400489 0.65899998 4294967295
-0.084169775 0.12400632 0.65899998 4294967295
-0.082942687 0.12400769 0.65899998 4294967295
-0.081715636 0.12400904 0.65899998 4294967295
-0.0804886 0.12401034 0.65899998 4294967295
-0.079261601 0.1240116 0.65899998 4294967295
-0.078034639 0.12401283 0.65899998 4294967295
-0.0768077 0.12401401 0.65899998 4294967295
-0.075580798 0.12401515 0.65899998 4294967295
-0.074353933 0.12401624 0.65899998 4294967295
-0.073127076 0.12401731 0.65899998 4294967295
-0.071900263 0.12401833 0.65899998 4294967295
-0.070673473 0.12401932 0.65899998 4294967295
-0.06965749 0.12439665 0.66100001 4294967295
-0.068427056 0.12439756 0.66100001 4294967295
-0.067298301 0.12458661 0.662 4294967294
-0.066066049 0.12458744 0.662 4294967287
-0.064833842 0.12458823 0.662 4294967286
-0.06360165 0.12458898 0.662 4294967295
-0.062369507 0.12458967 0.662 4294967295
-0.061229747 0.12477854 0.66299999 4294967284
-0.059995797 0.12477916 0.66299999 4294967287
-0.058850519 0.12496795 0.66399997 4294967291
-0.057614774 0.12496848 0.66399997 4294967287
-0.056379069 0.12496899 0.66399997 4294967280
-0.055309493 0.12534586 0.66600001 4294967280
-0.054151308 0.12553449 0.667 4294967286
-0.052989442 0.12572306 0.66799998 4294967284
-0.051901355 0.12609982 0.67000002 4294967284
-0.050730243 0.12628832 0.671 4294506985
-0.04948172 0.12628859 0.671 4294768617
-0.048233222 0.1262888 0.671 4294439652
-0.046984758 0.12628897 0.671 4294439641
-0.045736324 0.12628908 0.671 4294242261
-0.04455423 0.12647739 0.67199999 4293978842
-0.043304011 0.12647744 0.67199999 4293913049
-0.042178988 0.12685387 0.67400002 4293913299
-0.040985838 0.12704204 0.67500001 4293979092
-0.039789006 0.12723015 0.676 4293913049
-0.038531486 0.12723002 0.676 4293781206
-0.037384283 0.12760627 0.67799997 4293780695
-0.036123119 0.12760606 0.67799997 4293780695
-0.03491341 0.12779403 0.67900002 4294043865
-0.033700019 0.12798193 0.68000001 4293517521
-0.032435246 0.1279816 0.68000001 4293320655
-0.031170508 0.12798122 0.68000001 4293320655
-0.030213665 0.12929824 0.68699998 4293583564
-0.028935986 0.12929775 0.68699998 4293715150
-0.027779123 0.12986185 0.69 4293583314
-0.026495947 0.1298613 0.69 4293386191
-0.025249347 0.13004889 0.69099998 4293057999
-0.024033748 0.13042465 0.69300002 4293057999
-0.022745108 0.13042396 0.69300002 4292926413
-0.15852821 0.13287275 0.69999999 4294967295
-0.15654938 0.13230683 0.69700003 4294967295
-0.15435904 0.13155101 0.69300002 4294967295
-0.15240453 0.13098496 0.69 4294967295
-0.15046121 0.13041882 0.68699998 4294967295
-0.14852911 0.12985264 0.68400002 4294967295
-0.14682351 0.12947622 0.68199998 4294967295
-0.14512542 0.12909977 0.68000001 4294967295
-0.14385791 0.12910298 0.68000001 4294967295
-0.14238074 0.12891626 0.67900002 4294967295
-0.1409073 0.12872951 0.67799997 4294967295
-0.13923168 0.12835285 0.676 4294967295
-0.13756357 0.12797613 0.67400002 4294967295
-0.13630737 0.12797911 0.67400002 4294967295
-0.13445011 0.12741241 0.671 4294967295
-0.13300107 0.12722543 0.67000002 4294967295
-0.13175243 0.12722829 0.67000002 4294967295
-0.13050386 0.12723112 0.67000002 4294967295
-0.12886941 0.12685409 0.66799998 4294967295
-0.1276246 0.12685683 0.66799998 4294967295
-0.12619062 0.12666962 0.667 4294967295
-0.12476039 0.12648238 0.66600001 4294967295
-0.12351939 0.12648501 0.66600001 4294967295
-0.12191121 0.12610774 0.66399997 4294967295
-0.12067397 0.12611027 0.66399997 4294967295
-0.11943678 0.12611277 0.66399997 4294967295
-0.1180216 0.12592532 0.66299999 4294967295
-0.11678634 0.12592773 0.66299999 4294967295
-0.11537681 0.12574019 0.662 4294967295
-0.11397104 0.12555259 0.66100001 4294967295
-0.11239845 0.125175 0.65899998 4294967295
-0.11117074 0.12517725 0.65899998 4294967295
-0.10977623 0.12498952 0.65799999 4294967295
-0.10855044 0.12499171 0.65799999 4294967295
-0.10732467 0.12499385 0.65799999 4294967295
-0.10609895 0.12499595 0.65799999 4294967295
-0.10487324 0.12499801 0.65799999 4294967295
-0.10364757 0.12500004 0.65799999 4294967295
-0.10242192 0.12500204 0.65799999 4294967295
-0.1011963 0.12500398 0.65799999 4294967295
-0.099970706 0.1250059 0.65799999 4294967295
-0.098745137 0.12500778 0.65799999 4294967295
-0.097519621 0.1250096 0.65799999 4294967295
-0.096294113 0.1250114 0.65799999 4294967295
-0.095068634 0.12501316 0.65799999 4294967295
-0.093843184 0.12501487 0.65799999 4294967295
-0.092617765 0.12501657 0.65799999 4294967295
-0.091531262 0.12520821 0.65899998 4294967295
-0.090304054 0.12520981 0.65899998 4294967295
-0.089076862 0.12521137 0.65899998 4294967295
-0.087849692 0.12521291 0.65899998 4294967295
-0.086622559 0.1252144 0.65899998 4294967295
-0.085395448 0.12521584 0.65899998 4294967295
-0.084040657 0.12502724 0.65799999 4294967295
-0.082815468 0.12502861 0.65799999 4294967295
-0.081590317 0.12502994 0.65799999 4294967295
-0.080487333 0.12522124 0.65899998 4294967295
-0.079260379 0.12522249 0.65899998 4294967295
-0.078033455 0.1252237 0.65899998 4294967295
-0.07680656 0.12522489 0.65899998 4294967295
-0.075579688 0.12522601 0.65899998 4294967295
-0.074352853 0.12522708 0.65899998 4294967295
-0.073347986 0.12560821 0.66100001 4294967295
-0.072117478 0.12560922 0.66100001 4294967295
-0.070887022 0.1256102 0.66100001 4294967295
-0.069656581 0.12561111 0.66100001 4294967295
-0.068426177 0.12561202 0.66100001 4294967292
-0.067195803 0.12561287 0.66100001 4294967286
-0.065965459 0.12561367 0.66100001 4294967290
-0.064833082 0.1258045 0.662 4294967287
-0.063600942 0.12580523 0.662 4294967292
-0.062368844 0.12580591 0.662 4294967292
-0.061229113 0.1259966 0.66299999 4294967273
-0.059995208 0.1259972 0.66299999 4294967268
-0.058849964 0.12618783 0.66399997 4294967277
-0.057614263 0.12618835 0.66399997 4294966505
-0.056548417 0.12656891 0.66600001 4294967281
-0.055309057 0.12656936 0.66600001 4294967281
-0.054232106 0.12694986 0.66799998 4294966769
-0.053147748 0.12733033 0.67000002 4294835182
-0.051901046 0.12733065 0.67000002 4294835432
-0.050729979 0.12752098 0.671 4294374881
-0.049481492 0.12752123 0.671 4294440938
-0.048233032 0.12752141 0.671 4294177509
-0.04698462 0.12752156 0.671 4294373850
-0.045736227 0.12752168 0.671 4293979092
-0.044487868 0.12752177 0.671 4293913560
-0.043303993 0.12771183 0.67199999 4294111195
-0.042179011 0.12809193 0.67400002 4293913045
-0.040985908 0.12828192 0.67500001 4293979094
-0.039789114 0.12847187 0.676 4294044117
-0.038531639 0.12847172 0.676 4293583566
-0.03738448 0.12885164 0.67799997 4293583062
-0.036123358 0.12885141 0.67799997 4293714648
-0.034913689 0.12904121 0.67900002 4293518291
-0.033700343 0.12923093 0.68000001 4293518291
-0.032435615 0.12923057 0.68000001 4293189839
-0.031491794 0.13056049 0.68699998 4292663495
-0.030214118 0.13056003 0.68699998 4293188808
-0.028978607 0.13074958 0.68800002 4293386187
-0.02777967 0.13112916 0.69 4292925902
-0.026496533 0.13112858 0.69 4292860108
-0.025249982 0.13131799 0.69099998 4292729290
-0.024034424 0.1316974 0.69300002 4292663497
-0.022745831 0.1316967 0.69300002 4292663497
-0.15852468 0.13415956 0.69999999 4294967295
-0.15654591 0.13358812 0.69700003 4294967295
-0.15435562 0.13282494 0.69300002 4294967295
-0.15240113 0.13225333 0.69 4294967295
-0.15045787 0.13168171 0.68699998 4294967295
-0.14852583 0.13110998 0.68400002 4294967295
-0.14682028 0.13072987 0.68199998 4294967295
-0.14512222 0.13034974 0.68000001 4294967295
-0.14385475 0.13035291 0.68000001 4294967295
-0.1423776 0.13016436 0.67900002 4294967295
-0.14090423 0.12997577 0.67799997 4294967295
-0.13902272 0.12940371 0.67500001 4294967295
-0.13715239 0.12883157 0.67199999 4294967295
-0.13589998 0.12883455 0.67199999 4294967295
-0.13444722 0.12864576 0.671 4294967295
-0.13299823 0.12845692 0.67000002 4294967295
-0.13174962 0.12845975 0.67000002 4294967295
-0.13050106 0.12846257 0.67000002 4294967295
-0.12886669 0.12808186 0.66799998 4294967295
-0.12762189 0.12808459 0.66799998 4294967295
-0.12618797 0.12789555 0.667 4294967295
-0.12475777 0.12770644 0.66600001 4294967295
-0.12314587 0.12732552 0.66399997 4294967295
-0.12172507 0.12713635 0.66299999 4294967295
-0.12048975 0.12713885 0.66299999 4294967295
-0.11925445 0.12714134 0.66299999 4294967295
-0.11801918 0.1271438 0.66299999 4294967295
-0.11678395 0.1271462 0.66299999 4294967295
-0.11537447 0.12695681 0.662 4294967295
-0.11396873 0.12676735 0.66100001 4294967295
