# .PCD v0.7 - Point Cloud Data file format
VERSION 0.7
FIELDS x y z rgba
SIZE 4 4 4 4
TYPE F F F U
COUNT 1 1 1 1
WIDTH 1031
HEIGHT 1
VIEWPOINT 0 0 0 1 0 0 0
POINTS 1031
DATA ascii
0.0094143162 -0.088120021 0.79000002 4294966769
0.010889076 -0.088119261 0.79000002 4294769389
0.012363782 -0.088118531 0.79000002 4294900203
0.01387347 -0.088340916 0.792 4293847515
0.015351804 -0.088340268 0.792 4294043611
0.016830085 -0.088339642 0.792 4294109660
0.018354544 -0.088562138 0.79400003 4293845970
0.019836446 -0.088561587 0.79400003 4293582799
0.0213183 -0.088561073 0.79400003 4293320396
0.022857523 -0.088783659 0.796 4293188554
0.024342995 -0.088783219 0.796 4292597954
0.02582841 -0.088782795 0.796 4292597954
0.027313769 -0.088782422 0.796 4292728770
0.02879907 -0.08878208 0.796 4292399805
0.030360406 -0.089004837 0.79799998 4292398772
0.031849325 -0.089004569 0.79799998 4292201650
0.039834697 -0.090230621 0.80900002 4291610553
0.041343786 -0.090230569 0.80900002 4291216051
0.042958751 -0.090453602 0.81099999 4291412649
0.044471454 -0.090453617 0.81099999 4291149220
0.045984093 -0.090453677 0.81099999 4290819747
0.047613807 -0.090676844 0.81300002 4290819747
0.049009185 -0.090453885 0.81099999 4291017110
0.050521642 -0.090454049 0.81099999 4290490766
-0.07220988 -0.091020808 0.829 4294967295
-0.070489399 -0.090798475 0.82700002 4294967295
-0.06894318 -0.09079577 0.82700002 4294967295
-0.067396984 -0.090793096 0.82700002 4294967295
-0.065213822 -0.089912191 0.81900001 4294967295
-0.063682668 -0.089909628 0.81900001 4294967295
-0.061999768 -0.089687534 0.81699997 4294967295
-0.060028337 -0.089026414 0.81099999 4294967295
-0.058367964 -0.088804439 0.80900002 4294967295
-0.056715105 -0.088582516 0.80699998 4294967295
-0.055069759 -0.088360637 0.80500001 4294967295
-0.053565022 -0.08835832 0.80500001 4294967295
-0.051930975 -0.088136531 0.80299997 4294967295
-0.050430048 -0.088134296 0.80299997 4294967295
-0.048868235 -0.088022366 0.80199999 4294967295
-0.047251139 -0.087800704 0.80000001 4294967295
-0.045755945 -0.087798595 0.80000001 4294967295
-0.044260796 -0.087796517 0.80000001 4294967295
-0.04255186 -0.087355502 0.796 4294967295
-0.04106427 -0.087353513 0.796 4294967295
-0.039576724 -0.087351553 0.796 4294967295
-0.038089216 -0.087349616 0.796 4294967295
-0.036601759 -0.087347738 0.796 4294967295
-0.035114337 -0.087345876 0.796 4294967295
-0.033626959 -0.087344065 0.796 4294967295
-0.032139629 -0.087342292 0.796 4294967295
-0.030575326 -0.087121099 0.79400003 4294967295
-0.029091824 -0.087119401 0.79400003 4294967295
-0.027538814 -0.08689829 0.792 4294967295
-0.02599333 -0.086677216 0.79000002 4294967295
-0.024517434 -0.086675636 0.79000002 4294967295
-0.02304158 -0.086674079 0.79000002 4294967295
-0.021565774 -0.086672559 0.79000002 4294967295
-0.020090016 -0.086671077 0.79000002 4294967295
-0.0186143 -0.086669616 0.79000002 4294967295
-0.017138632 -0.086668216 0.79000002 4294967295
-0.015663009 -0.086666837 0.79000002 4294967295
-0.014187435 -0.086665496 0.79000002 4294967295
-0.012711909 -0.086664177 0.79000002 4294967295
-0.011236431 -0.086662918 0.79000002 4294967295
-0.0097610001 -0.086661667 0.79000002 4294967295
-0.0082856175 -0.086660482 0.79000002 4294967295
-0.006801663 -0.086549602 0.78899997 4294967295
-0.0053282459 -0.086548477 0.78899997 4294967295
-0.0038548782 -0.086547382 0.78899997 4294967295
-0.0023815602 -0.086546324 0.78899997 4294967295
-0.00090829196 -0.086545296 0.78899997 4294967295
0.00056492619 -0.086544305 0.78899997 4294967294
0.0020380937 -0.086543359 0.78899997 4294967285
0.0035112104 -0.086542435 0.78899997 4294967289
0.004990594 -0.086651236 0.79000002 4294967287
0.0064654741 -0.086650394 0.79000002 4294967281
0.0079403035 -0.086649574 0.79000002 4294637801
0.0094150808 -0.086648799 0.79000002 4294702310
0.010889806 -0.086648054 0.79000002 4294768104
0.012364478 -0.086647339 0.79000002 4294767840
0.013874132 -0.086866029 0.792 4293715152
0.0153912 -0.087084748 0.79400003 4293715163
0.016873179 -0.087084144 0.79400003 4293846750
0.018355101 -0.087083571 0.79400003 4293715150
0.019836972 -0.087083042 0.79400003 4293320648
0.021318786 -0.087082535 0.79400003 4293385419
0.022857975 -0.087301426 0.796 4293319626
0.024343411 -0.087300994 0.796 4292597952
0.025828794 -0.087300606 0.796 4292532159
0.027314115 -0.087300234 0.796 4292466618
0.028799381 -0.087299913 0.796 4292203446
0.030360686 -0.087518968 0.79799998 4292398774
0.031849567 -0.087518722 0.79799998 4292201652
0.03363084 -0.088286214 0.80500001 4292069557
0.035132669 -0.088286035 0.80500001 4291937971
0.036816474 -0.088724576 0.80900002 4291938991
0.038325649 -0.088724472 0.80900002 4291675819
0.03983476 -0.08872439 0.80900002 4291214764
0.041343816 -0.088724352 0.80900002 4291017641
0.042958748 -0.08894369 0.81099999 4291477409
0.044471405 -0.088943727 0.81099999 4291608995
0.045984011 -0.088943794 0.81099999 4290622111
0.047613692 -0.089163259 0.81300002 4290293402
0.049009033 -0.088944048 0.81099999 4290229141
0.050521452 -0.088944227 0.81099999 4289965968
-0.072207138 -0.089476243 0.829 4294967271
-0.070657164 -0.089473501 0.829 4294967295
-0.069107242 -0.089470804 0.829 4294967295
-0.067394361 -0.089252293 0.82700002 4294967295
-0.0653705 -0.088602148 0.82099998 4294967295
-0.063680135 -0.088383757 0.81900001 4294967295
-0.061997291 -0.088165417 0.81699997 4294967295
-0.060173936 -0.087731302 0.81300002 4294967295
-0.058365565 -0.087297246 0.80900002 4294967295
-0.056853317 -0.087294862 0.80900002 4294967295
-0.055204265 -0.087076709 0.80699998 4294967295
-0.053562749 -0.086858623 0.80500001 4294967295
-0.05205809 -0.086856365 0.80500001 4294967295
-0.050427858 -0.086638354 0.80299997 4294967295
-0.048866082 -0.086528286 0.80199999 4294967295
-0.047367148 -0.086526141 0.80199999 4294967295
-0.045868255 -0.08652404 0.80199999 4294967295
-0.044258755 -0.086306207 0.80000001 4294967295
-0.042763688 -0.08630418 0.80000001 4294967295
-0.04106231 -0.085870683 0.796 4294967295
-0.039574798 -0.085868739 0.796 4294967295
-0.038087331 -0.085866839 0.796 4294967295
-0.036599904 -0.085864961 0.796 4294967295
-0.035112519 -0.085863128 0.796 4294967295
-0.033625178 -0.085861325 0.796 4294967295
-0.032137886 -0.085859552 0.796 4294967295
-0.030650632 -0.085857823 0.796 4294967295
-0.029163426 -0.085856132 0.796 4294967295
-0.027606726 -0.085638769 0.79400003 4294967295
-0.026057541 -0.085421428 0.792 4294967295
-0.024515878 -0.085204147 0.79000002 4294967295
-0.023040062 -0.085202605 0.79000002 4294967295
-0.02156429 -0.0852011 0.79000002 4294967295
-0.020088563 -0.085199639 0.79000002 4294967295
-0.018612884 -0.085198209 0.79000002 4294967295
-0.017137252 -0.085196808 0.79000002 4294967295
-0.015661666 -0.085195445 0.79000002 4294967295
-0.014186126 -0.085194118 0.79000002 4294967295
-0.012710636 -0.085192822 0.79000002 4294967295
-0.011235191 -0.08519157 0.79000002 4294967295
-0.0097597949 -0.085190348 0.79000002 4294967295
-0.0082844477 -0.085189164 0.79000002 4294967295
-0.00680053 -0.085080177 0.78899997 4294967295
-0.0053271479 -0.085079052 0.78899997 4294967295
-0.0038538154 -0.085077979 0.78899997 4294967295
-0.0023805322 -0.085076943 0.78899997 4294967294
-0.00090729899 -0.085075922 0.78899997 4294967295
0.00056588399 -0.085074961 0.78899997 4294967293
0.0020390167 -0.085074022 0.78899997 4294967292
0.003512098 -0.085073121 0.78899997 4294967286
0.0049914471 -0.085180074 0.79000002 4294967285
0.0064662932 -0.08517924 0.79000002 4294967286
0.0079611912 -0.085394084 0.792 4294703342
0.0094396677 -0.085393324 0.792 4294241757
0.010918091 -0.085392602 0.792 4294373600
0.012396459 -0.085391901 0.792 4294569175
0.013909815 -0.085606888 0.79400003 4294174417
0.015391813 -0.085606262 0.79400003 4293583314
0.016916258 -0.085821301 0.796 4293649107
0.018401878 -0.085820749 0.796 4293715667
0.019887444 -0.085820228 0.796 4293189067
0.021372955 -0.085819751 0.796 4293188808
0.022858411 -0.085819297 0.796 4293123015
0.024343813 -0.085818887 0.796 4292401343
0.025829157 -0.085818507 0.796 4292269501
0.027314447 -0.085818179 0.796 4292071608
0.028799675 -0.085817859 0.796 4292137401
0.030360945 -0.086033218 0.79799998 4292202161
0.031849794 -0.086032994 0.79799998 4291741610
0.03363103 -0.086787462 0.80500001 4291345318
0.035132822 -0.086787306 0.80500001 4291937712
0.036634557 -0.086787172 0.80500001 4292266674
0.038136233 -0.086787082 0.80500001 4292003503
0.039834809 -0.08721827 0.80900002 4291081633
0.04144603 -0.087433867 0.81099999 4290950047
0.043064661 -0.087649509 0.81300002 4291081119
0.044581022 -0.087649576 0.81300002 4291146913
0.04609732 -0.087649658 0.81300002 4290556822
0.047730684 -0.087865405 0.815 4290227857
0.04925058 -0.087865569 0.815 4289770134
-0.072204396 -0.087931775 0.829 4294967295
-0.070654467 -0.087929048 0.829 4294967295
-0.069104567 -0.087926373 0.829 4294967295
-0.067391738 -0.087711602 0.82700002 4294967295
-0.065686427 -0.087496877 0.82499999 4294967295
-0.063833117 -0.0870701 0.82099998 4294967295
-0.062146578 -0.086855493 0.81900001 4294967295
-0.060319535 -0.086428836 0.815 4294967295
-0.058507472 -0.086002231 0.81099999 4294967295
-0.056850962 -0.085787781 0.80900002 4294967295
-0.055338781 -0.085785449 0.80900002 4294967295
-0.053693559 -0.085571088 0.80699998 4294967295
-0.052055862 -0.085356779 0.80500001 4294967295
-0.050425678 -0.085142508 0.80299997 4294967295
-0.048924875 -0.08514034 0.80299997 4294967295
-0.047365043 -0.085032187 0.80199999 4294967295
-0.045866188 -0.085030094 0.80199999 4294967295
-0.044367369 -0.085028045 0.80199999 4294967295
-0.042868599 -0.085026026 0.80199999 4294967295
-0.041266698 -0.084812023 0.80000001 4294967295
-0.039672319 -0.084598057 0.79799998 4294967295
-0.038181145 -0.08459615 0.79799998 4294967295
-0.036690019 -0.084594294 0.79799998 4294967295
-0.035198931 -0.084592469 0.79799998 4294967295
-0.033707891 -0.084590673 0.79799998 4294967295
-0.032216895 -0.084588915 0.79799998 4294967295
-0.030725945 -0.084587201 0.79799998 4294967295
-0.029161768 -0.084373534 0.796 4294967295
-0.027605107 -0.084159896 0.79400003 4294967295
-0.026121762 -0.084158294 0.79400003 4294967295
-0.024638461 -0.084156729 0.79400003 4294967295
-0.023155209 -0.084155194 0.79400003 4294967295
-0.021562818 -0.083729751 0.79000002 4294967295
-0.020087129 -0.083728299 0.79000002 4294967295
-0.018611483 -0.083726883 0.79000002 4294967295
-0.017135885 -0.08372549 0.79000002 4294967295
-0.015660336 -0.083724149 0.79000002 4294967295
-0.014184831 -0.083722837 0.79000002 4294967295
-0.012709375 -0.083721563 0.79000002 4294967295
-0.011233968 -0.083720334 0.79000002 4294967295
-0.0097586066 -0.083719127 0.79000002 4294967295
-0.0082832947 -0.08371795 0.79000002 4294967295
-0.0068080318 -0.083716817 0.79000002 4294967295
-0.0053260662 -0.083609745 0.78899997 4294967295
-0.003852769 -0.083608687 0.78899997 4294967295
-0.0023795203 -0.083607651 0.78899997 4294967290
-0.00090632273 -0.08360666 0.78899997 4294967292
0.00056754361 -0.083711676 0.79000002 4294967295
0.0020399226 -0.083604783 0.78899997 4294967295
0.0035129695 -0.083603904 0.78899997 4294835180
0.0049922843 -0.083709024 0.79000002 4294506214
0.0064670951 -0.083708204 0.79000002 4294768367
0.0079619605 -0.083919346 0.792 4294834160
0.0094404006 -0.083918594 0.792 4294308068
0.010918788 -0.083917871 0.792 4294176739
0.012397123 -0.083917208 0.792 4294175953
0.013945484 -0.084340386 0.796 4293847244
0.015431177 -0.084339783 0.796 4293583564
0.016916817 -0.084339209 0.796 4293517770
0.018402401 -0.084338672 0.796 4293386189
0.019887934 -0.084338166 0.796 4292662210
0.02137341 -0.084337711 0.796 4292662200
0.02285883 -0.084337279 0.796 4292925116
0.024344195 -0.084336884 0.796 4292532409
0.025829507 -0.084336527 0.796 4292269493
0.027314756 -0.084336206 0.796 4292137399
0.028872311 -0.084547803 0.79799998 4292137399
0.030361189 -0.084547564 0.79799998 4292201633
0.031849999 -0.084547356 0.79799998 4291806875
0.033631202 -0.085288815 0.80500001 4291740078
0.035132956 -0.085288674 0.80500001 4291805871
0.036634654 -0.085288569 0.80500001 4292002733
0.038136296 -0.085288487 0.80500001 4291871403
0.039834835 -0.085712247 0.80900002 4291082149
0.041343812 -0.085712254 0.80900002 4290884769
0.043064613 -0.08613608 0.81300002 4290884769
0.044580936 -0.086136155 0.81300002 4290818976
0.0460972 -0.086136274 0.81300002 4290360209
0.047730524 -0.08634831 0.815 4289899658
0.049250394 -0.086348504 0.815 4289505933
-0.072375864 -0.086595841 0.83099997 4294962826
-0.070651785 -0.086384729 0.829 4294967295
-0.069101922 -0.086382054 0.829 4294967295
-0.067389138 -0.086171016 0.82700002 4294967295
-0.065683864 -0.085960038 0.82499999 4294967295
-0.0639861 -0.085749112 0.82300001 4294967295
-0.062144116 -0.08532986 0.81900001 4294967295
-0.060317118 -0.084910661 0.815 4294967295
-0.058649391 -0.084699899 0.81300002 4294967295
-0.056848645 -0.084280811 0.80900002 4294967295
-0.055336494 -0.084278502 0.80900002 4294967295
-0.053824376 -0.084276222 0.80900002 4294967295
-0.052182987 -0.084065646 0.80699998 4294967295
-0.050549105 -0.083855115 0.80500001 4294967295
-0.048922744 -0.083644621 0.80299997 4294967295
-0.047422007 -0.083642505 0.80299997 4294967295
-0.045921318 -0.083640426 0.80299997 4294967295
-0.044420671 -0.083638385 0.80299997 4294967295
-0.042866621 -0.083532237 0.80199999 4294967295
-0.041264761 -0.083321966 0.80000001 4294967295
-0.039769847 -0.083320037 0.80000001 4294967295
-0.038274974 -0.083318144 0.80000001 4294967295
-0.036688194 -0.083108 0.79799998 4294967295
-0.035197143 -0.083106183 0.79799998 4294967295
-0.033706136 -0.083104409 0.79799998 4294967295
-0.032215174 -0.083102673 0.79799998 4294967295
-0.030724263 -0.083100967 0.79799998 4294967295
-0.029160123 -0.082891032 0.796 4294967295
-0.02767303 -0.0828894 0.796 4294967295
-0.026120191 -0.082679562 0.79400003 4294967295
-0.024636926 -0.082678005 0.79400003 4294967295
-0.023153707 -0.082676485 0.79400003 4294967295
-0.021615949 -0.082466744 0.792 4294967295
-0.020136558 -0.082465306 0.792 4294967295
-0.018657211 -0.082463905 0.792 4294967295
-0.017177917 -0.082462542 0.792 4294967295
-0.015698666 -0.082461208 0.792 4294967295
-0.01421946 -0.082459904 0.792 4294967295
-0.012740305 -0.082458638 0.792 4294967295
-0.011261196 -0.082457408 0.792 4294967295
-0.009757434 -0.082248002 0.79000002 4294967295
-0.0082821567 -0.082246847 0.79000002 4294967295
-0.0068069291 -0.08224573 0.79000002 4294967295
-0.00533175 -0.08224465 0.79000002 4294967295
-0.0038566203 -0.082243599 0.79000002 4294967295
-0.0023815404 -0.082242586 0.79000002 4294967288
-0.00090651039 -0.08224161 0.79000002 4294967288
0.00056846929 -0.082240678 0.79000002 4294967292
0.002040812 -0.082135662 0.78899997 4294967289
0.0035138233 -0.082134791 0.78899997 4294900203
0.0049931048 -0.082238071 0.79000002 4294308066
0.0065006288 -0.082653664 0.79400003 4294504162
0.0079828193 -0.082652889 0.79400003 4294504162
0.0094649587 -0.082652166 0.79400003 4294241757
0.010947044 -0.082651466 0.79400003 4293913049
0.012429075 -0.08265081 0.79400003 4293650640
0.013946095 -0.082858369 0.796 4293453261
0.015431753 -0.08285778 0.796 4293453009
0.016917357 -0.082857221 0.796 4293387216
0.018402908 -0.082856707 0.796 4292991945
0.019888403 -0.082856223 0.796 4292531394
0.021427549 -0.08306396 0.79799998 4292661949
0.022859231 -0.082855366 0.796 4292661949
0.024344558 -0.082854994 0.796 4292334531
0.025829833 -0.082854651 0.796 4292268737
0.027315047 -0.082854353 0.796 4291611057
0.02887257 -0.083062261 0.79799998 4291676850
0.030361408 -0.083062023 0.79799998 4291675557
0.031850185 -0.083061829 0.79799998 4291675557
0.033631351 -0.083790287 0.80500001 4291805871
0.035133075 -0.083790161 0.80500001 4291608493
0.036634732 -0.083790071 0.80500001 4291411112
0.038136341 -0.083790019 0.80500001 4291411112
0.039834838 -0.084206343 0.80900002 4291016869
0.04134379 -0.084206365 0.80900002 4290753953
0.043064546 -0.084622778 0.81300002 4290557088
0.044580836 -0.084622875 0.81300002 4290425502
0.046097063 -0.084623009 0.81300002 4290426013
0.047730353 -0.084831342 0.815 4289636753
0.049250185 -0.084831551 0.815 4289701515
0.060963597 -0.093472145 0.898 4289045386
0.062637873 -0.093472578 0.898 4290887334
-0.072373152 -0.085047893 0.83099997 4289633921
-0.07064911 -0.084840499 0.829 4294174158
-0.069099292 -0.084837839 0.829 4294967293
-0.067386545 -0.084630556 0.82700002 4294967295
-0.065681323 -0.084423304 0.82499999 4294967295
-0.063983604 -0.084216118 0.82300001 4294967295
-0.062293403 -0.084008977 0.82099998 4294967295
-0.060462721 -0.083597235 0.81699997 4294967295
-0.058791302 -0.083390206 0.815 4294967295
-0.056986861 -0.082978584 0.81099999 4294967295
-0.055471011 -0.082976282 0.81099999 4294967295
-0.053822134 -0.082769386 0.80900002 4294967295
-0.052180793 -0.082562543 0.80699998 4294967295
-0.050546944 -0.082355753 0.80500001 4294967295
-0.049042474 -0.082353614 0.80500001 4294967295
-0.047419935 -0.082146905 0.80299997 4294967295
-0.04591928 -0.082144834 0.80299997 4294967295
-0.044418667 -0.082142815 0.80299997 4294967295
-0.042918101 -0.082140826 0.80299997 4294967295
-0.041365989 -0.082036577 0.80199999 4294967295
-0.039867375 -0.08203467 0.80199999 4294967295
-0.038273122 -0.081828222 0.80000001 4294967295
-0.036778331 -0.081826381 0.80000001 4294967295
-0.035283577 -0.081824571 0.80000001 4294967295
-0.033788871 -0.081822805 0.80000001 4294967295
-0.032213472 -0.081616521 0.79799998 4294967295
-0.030722588 -0.081614837 0.79799998 4294967295
-0.029158495 -0.08140865 0.796 4294967295
-0.027671438 -0.081407033 0.796 4294967295
-0.026184428 -0.081405461 0.796 4294967295
-0.02463541 -0.081199385 0.79400003 4294967295
-0.023152227 -0.08119788 0.79400003 4294967295
-0.021614505 -0.080991887 0.792 4294967295
-0.020135151 -0.080990463 0.792 4294967295
-0.01865584 -0.080989063 0.792 4294967295
-0.017219955 -0.08119224 0.79400003 4294967295
-0.015737005 -0.081190914 0.79400003 4294967295
-0.014254101 -0.081189625 0.79400003 4294967295
-0.012771244 -0.081188381 0.79400003 4294967295
-0.011288435 -0.081187159 0.79400003 4294967295
-0.0098056765 -0.081185982 0.79400003 4294967295
-0.0083020004 -0.080980346 0.792 4294967295
-0.0068230736 -0.080979243 0.792 4294967295
-0.0053441958 -0.080978163 0.792 4294967295
-0.0038556054 -0.080772653 0.79000002 4294967295
-0.0023805609 -0.080771655 0.79000002 4294967284
-0.00090556598 -0.080770694 0.79000002 4294967285
0.00056937843 -0.08076977 0.79000002 4294967288
0.0020442724 -0.080768891 0.79000002 4294967284
0.0035191155 -0.080768034 0.79000002 4294637288
0.0050318358 -0.081380635 0.796 4294176737
0.0065177768 -0.081379853 0.796 4294307807
0.0080036651 -0.081379093 0.796 4294373600
0.0094895009 -0.081378385 0.796 4293913299
0.010975285 -0.081377707 0.796 4293715663
0.012492324 -0.081581518 0.79799998 4293846992
0.013981733 -0.081580907 0.79799998 4293517770
0.015471088 -0.081580341 0.79799998 4293255114
0.016960388 -0.081579797 0.79799998 4293255114
0.018449636 -0.081579298 0.79799998 4292663493
0.01993883 -0.081578843 0.79799998 4292005563
0.021535374 -0.081987321 0.80199999 4292398270
0.022974484 -0.081782475 0.80000001 4292003512
0.024467241 -0.08178211 0.80000001 4291872448
0.025959942 -0.08178179 0.80000001 4292201157
0.027521219 -0.08198595 0.80199999 4291676337
0.029053716 -0.082087934 0.80299997 4291610544
0.030551849 -0.082087718 0.80299997 4291741099
0.032209568 -0.082496442 0.80699998 4291477670
0.033715043 -0.082496308 0.80699998 4291280044
0.035220452 -0.082496189 0.80699998 4291280044
0.036725812 -0.082496122 0.80699998 4291016871
0.038231112 -0.082496092 0.80699998 4290753699
0.039736349 -0.082496092 0.80699998 4290884767
0.041343734 -0.082700588 0.80900002 4290818974
0.04295852 -0.082905114 0.81099999 4290490523
0.044580713 -0.083109692 0.81300002 4290359194
0.046096902 -0.083109841 0.81300002 4290030746
0.047730152 -0.083314478 0.815 4289504402
0.049249951 -0.083314694 0.815 4289439109
0.050769676 -0.083314963 0.815 4289110144
0.059288882 -0.091800496 0.898 4288979339
0.060963184 -0.091800921 0.898 4288914057
0.062637411 -0.091801375 0.898 4291019690
0.064526409 -0.092108555 0.90100002 4290954156
0.066353038 -0.092313543 0.903 4291151791
0.067885689 -0.092109665 0.90100002 4293584064
0.069565229 -0.092110284 0.90100002 4294571215
-0.072544619 -0.083700992 0.833 4284900396
-0.070816882 -0.083497338 0.83099997 4291669632
-0.069263369 -0.083494693 0.83099997 4294967267
-0.067546926 -0.083291136 0.829 4294967295
-0.065678783 -0.082886681 0.82499999 4294967295
-0.063981108 -0.082683228 0.82300001 4294967295
-0.062290963 -0.082479827 0.82099998 4294967295
-0.060608331 -0.082276486 0.81900001 4294967295
-0.058933217 -0.082073167 0.81699997 4294967295
-0.057125099 -0.081669018 0.81300002 4294967295
-0.055468746 -0.081465811 0.81099999 4294967295
-0.053952962 -0.08146356 0.81099999 4294967295
-0.052307919 -0.08126045 0.80900002 4294967295
-0.050670385 -0.081057392 0.80699998 4294967295
-0.049040373 -0.080854371 0.80500001 4294967295
-0.047535975 -0.080852285 0.80500001 4294967295
-0.04591725 -0.080649354 0.80299997 4294967295
-0.044416681 -0.080647349 0.80299997 4294967295
-0.042916141 -0.08064536 0.80299997 4294967295
-0.041364081 -0.080543011 0.80199999 4294967295
-0.039865497 -0.080541097 0.80199999 4294967295
-0.038366958 -0.080539234 0.80199999 4294967295
-0.036776528 -0.080336563 0.80000001 4294967295
-0.035281811 -0.080334783 0.80000001 4294967295
-0.033787139 -0.080333032 0.80000001 4294967295
-0.032292515 -0.080331318 0.80000001 4294967295
-0.030720936 -0.080128804 0.79799998 4294967295
-0.029156882 -0.079926357 0.796 4294967295
-0.02766986 -0.079924762 0.796 4294967295
-0.026182882 -0.079923198 0.796 4294967295
-0.024633905 -0.079720862 0.79400003 4294967295
-0.023150761 -0.07971938 0.79400003 4294967295
-0.021667657 -0.079717934 0.79400003 4294967295
-0.020184604 -0.079716519 0.79400003 4294967295
-0.018701592 -0.07971514 0.79400003 4294967295
-0.017262001 -0.079914585 0.796 4294967295
-0.015775351 -0.079913273 0.796 4294967295
-0.014288748 -0.079911999 0.796 4294967295
-0.012802194 -0.079910763 0.796 4294967295
-0.011315686 -0.079909563 0.796 4294967295
-0.0098292259 -0.079908401 0.796 4294967295
-0.0083218552 -0.079706497 0.79400003 4294967295
-0.0068392279 -0.079705402 0.79400003 4294967295
-0.0053566517 -0.079704359 0.79400003 4294967295
-0.0038741238 -0.079703338 0.79400003 4294967295
-0.0023916462 -0.079702355 0.79400003 4294967027
-0.0009069285 -0.079500645 0.792 4294967284
0.00057171454 -0.079499736 0.792 4294967290
0.0020554846 -0.079699621 0.79400003 4294834932
0.0035377594 -0.079698779 0.79400003 4294308066
0.0050326274 -0.079898722 0.796 4294308066
0.0065185325 -0.079897955 0.796 4294373600
0.008004386 -0.079897225 0.796 4294241757
0.009514031 -0.080097258 0.79799998 4293978321
0.011003511 -0.080096602 0.79799998 4293978321
0.012492938 -0.080095969 0.79799998 4293846992
0.014017357 -0.080296122 0.80000001 4293123013
0.015510407 -0.080295563 0.80000001 4292859843
0.017003406 -0.080295049 0.80000001 4292728257
0.018496348 -0.080294564 0.80000001 4292202944
0.019989239 -0.080294117 0.80000001 4292071358
0.021535777 -0.080494434 0.80199999 4292530112
0.022974847 -0.08029332 0.80000001 4292069561
0.024467569 -0.080292985 0.80000001 4292134071
0.026025133 -0.080493405 0.80199999 4291870899
0.027521476 -0.080493137 0.80199999 4291609512
0.02905394 -0.080593273 0.80299997 4291675305
0.03062813 -0.080793805 0.80500001 4291806892
0.032289546 -0.081195109 0.80900002 4291543463
0.033715155 -0.080994248 0.80699998 4290819747
0.035220534 -0.080994174 0.80699998 4290753953
0.036725856 -0.080994122 0.80699998 4290688156
0.038231116 -0.080994107 0.80699998 4290688156
0.039736319 -0.080994122 0.80699998 4290557088
0.04134367 -0.081194922 0.80900002 4290491295
0.04295842 -0.081395738 0.81099999 4290227607
0.044580571 -0.081596613 0.81300002 4289767056
0.046210118 -0.08179751 0.815 4289634953
0.047964197 -0.082199194 0.81900001 4289569160
0.049491413 -0.082199417 0.81900001 4289242248
0.059288479 -0.090129375 0.898 4289175417
0.06096274 -0.0901298 0.898 4288782989
0.062636919 -0.09013027 0.898 4290888365
0.064311035 -0.090130791 0.898 4291019951
0.066205516 -0.090432465 0.90100002 4291480502
0.067659043 -0.090131953 0.898 4292137912
0.069332957 -0.090132594 0.898 4293190856
-0.070984676 -0.082146861 0.833 4286800462
-0.069260746 -0.081946984 0.83099997 4294963163
-0.067707315 -0.081944376 0.83099997 4294967295
-0.065835483 -0.081547394 0.82700002 4294967295
-0.064134121 -0.081347674 0.82499999 4294967295
-0.062440269 -0.081147999 0.82300001 4294967295
-0.060605947 -0.080751188 0.81900001 4294967295
-0.058930866 -0.080551624 0.81699997 4294967295
-0.057263322 -0.080352113 0.815 4294967295
-0.055603281 -0.080152638 0.81300002 4294967295
-0.053950749 -0.079953231 0.81099999 4294967295
-0.052305743 -0.079753861 0.80900002 4294967295
-0.050668243 -0.079554521 0.80699998 4294967295
-0.049160112 -0.079552412 0.80699998 4294967295
-0.047533918 -0.079353176 0.80500001 4294967295
-0.046029605 -0.079351142 0.80500001 4294967295
-0.044525325 -0.079349145 0.80500001 4294967295
-0.042914208 -0.079150029 0.80299997 4294967295
-0.041413747 -0.079148099 0.80299997 4294967295
-0.039913338 -0.079146214 0.80299997 4294967295
-0.038365133 -0.079045802 0.80199999 4294967295
-0.036866672 -0.079043992 0.80199999 4294967295
-0.03528006 -0.078845106 0.80000001 4294967295
-0.033785425 -0.07884337 0.80000001 4294967295
-0.032290839 -0.078841671 0.80000001 4294967295
-0.030796293 -0.07884001 0.80000001 4294967295
-0.029228531 -0.078641273 0.79799998 4294967295
-0.027737815 -0.078639694 0.79799998 4294967295
-0.02624714 -0.078638144 0.79799998 4294967295
-0.024694463 -0.078439541 0.796 4294967295
-0.023207616 -0.078438073 0.796 4294967295
-0.021720814 -0.078436628 0.796 4294967295
-0.02023406 -0.078435235 0.796 4294967295
-0.01874735 -0.078433864 0.796 4294967295
-0.017260689 -0.078432538 0.796 4294967295
-0.015774075 -0.078431241 0.796 4294967295
-0.014287508 -0.07842999 0.796 4294967295
-0.012800991 -0.078428768 0.796 4294967295
-0.011314517 -0.078427576 0.796 4294967295
-0.0098280944 -0.078426436 0.796 4294967295
-0.0083417185 -0.078425311 0.796 4294967295
-0.0068553942 -0.078424245 0.796 4294967295
-0.0053691184 -0.078423202 0.796 4294967295
-0.0038828924 -0.078422189 0.796 4294967295
-0.0023967165 -0.078421228 0.796 4294967031
-0.00091059069 -0.078420289 0.796 4294967288
0.00057548442 -0.078419387 0.796 4294967290
0.0020615086 -0.078418538 0.796 4294571504
0.0035474815 -0.078417711 0.796 4294373607
0.0050334027 -0.078416921 0.796 4294176485
0.0065192725 -0.078416176 0.796 4294241496
0.0080050891 -0.078415453 0.796 4294109910
0.0095146997 -0.078611784 0.79799998 4293518289
0.011004144 -0.07861115 0.79799998 4293386703
0.012524848 -0.078807555 0.80000001 4293583562
0.01401792 -0.078806981 0.80000001 4293057217
0.015549713 -0.079003453 0.80199999 4292728518
0.017046405 -0.079002954 0.80199999 4292597189
0.018543046 -0.079002485 0.80199999 4292333760
0.020039629 -0.079002053 0.80199999 4292267967
0.02153616 -0.07900165 0.80199999 4292464315
0.02303263 -0.0790013 0.80199999 4291937971
0.024529049 -0.079000972 0.80199999 4291806644
0.026025413 -0.079000689 0.80199999 4291477422
0.027556028 -0.079098947 0.80299997 4291346602
0.029054141 -0.079098731 0.80299997 4291609773
0.030628297 -0.079295561 0.80500001 4291676070
0.032289676 -0.079689443 0.80900002 4291478692
0.033798806 -0.079689339 0.80900002 4290886055
0.035482459 -0.080083273 0.81300002 4290754213
0.036816895 -0.079689234 0.80900002 4290754453
0.038325854 -0.079689242 0.80900002 4290228109
0.039933227 -0.07988628 0.81099999 4290359707
0.041445788 -0.079886377 0.81099999 4290557342
0.043064237 -0.080083497 0.81300002 4290096791
0.044799745 -0.080477655 0.81699997 4289504398
0.04643672 -0.080674864 0.81900001 4289569662
0.047963958 -0.080675095 0.81900001 4289569662
0.049732856 -0.08106938 0.82300001 4289438344
0.051267426 -0.081069686 0.82300001 4288714364
0.057485461 -0.088260934 0.89600003 4288648812
0.059288058 -0.088458367 0.898 4289438327
0.060962267 -0.088458821 0.898 4288979603
0.06263642 -0.08845932 0.898 4290427049
0.064310484 -0.088459857 0.898 4290953643
0.066204935 -0.088755965 0.90100002 4291874745
0.067658417 -0.088461056 0.898 4292269505
0.069332279 -0.088461727 0.898 4292335298
0.071006075 -0.088462427 0.898 4293453009
-0.070982024 -0.080595523 0.833 4284035584
-0.069424845 -0.080592886 0.833 4293049206
-0.067704752 -0.080396786 0.83099997 4294966508
-0.065832973 -0.08000727 0.82700002 4294967295
-0.064131647 -0.079811282 0.82499999 4294967295
-0.062437847 -0.079615362 0.82300001 4294967295
-0.060751565 -0.079419479 0.82099998 4294967295
-0.059072793 -0.07922364 0.81900001 4294967295
-0.057401545 -0.079027861 0.81699997 4294967295
-0.055737812 -0.07883212 0.815 4294967295
-0.054081596 -0.078636445 0.81300002 4294967295
-0.052432887 -0.0784408 0.81099999 4294967295
-0.050791703 -0.078245215 0.80900002 4294967295
-0.049279861 -0.078243099 0.80900002 4294967295
-0.047768068 -0.078241035 0.80900002 4294967295
-0.046256308 -0.078238994 0.80900002 4294967295
-0.044633973 -0.07804358 0.80699998 4294967295
-0.043126039 -0.078041621 0.80699998 4294967295
-0.041515004 -0.077846289 0.80500001 4294967295
-0.040010888 -0.077844411 0.80500001 4294967295
-0.038411152 -0.077649169 0.80299997 4294967295
-0.036910865 -0.077647373 0.80299997 4294967295
-0.035366517 -0.077548914 0.80199999 4294967295
-0.033868182 -0.077547185 0.80199999 4294967295
-0.032369893 -0.077545494 0.80199999 4294967295
-0.030871648 -0.07754384 0.80199999 4294967295
-0.029300202 -0.077348858 0.80000001 4294967295
-0.027805775 -0.077347286 0.80000001 4294967295
-0.026311401 -0.077345751 0.80000001 4294967295
-0.024755031 -0.077150881 0.79799998 4294967295
-0.023264484 -0.077149421 0.79799998 4294967295
-0.021773985 -0.077147998 0.79799998 4294967295
-0.02023269 -0.076953255 0.796 4294967295
-0.01874602 -0.076951906 0.796 4294967295
-0.017259393 -0.076950587 0.796 4294967295
-0.015772814 -0.076949313 0.796 4294967295
-0.014286283 -0.076948084 0.796 4294967295
-0.012799799 -0.076946869 0.796 4294967295
-0.01134179 -0.077139027 0.79799998 4294967295
-0.0098516662 -0.077137887 0.79799998 4294967295
-0.0083615938 -0.077136792 0.79799998 4294967295
-0.0068715704 -0.077135719 0.79799998 4294967295
-0.0053815967 -0.077134699 0.79799998 4294967295
-0.003881919 -0.076940387 0.796 4294967295
-0.0023957791 -0.076939449 0.796 4294967033
-0.00091197487 -0.07713183 0.79799998 4294967290
0.00057779811 -0.077130944 0.79799998 4294966261
0.0020675201 -0.077130117 0.79799998 4294505710
0.0035482752 -0.076935999 0.796 4294308584
0.0050341608 -0.076935217 0.796 4293979618
0.0065363762 -0.077127784 0.79799998 4293781458
0.0080258902 -0.077127084 0.79799998 4293847251
0.0095392 -0.077319734 0.80000001 4293189839
0.011032342 -0.0773191 0.80000001 4293189839
0.012525429 -0.077318497 0.80000001 4293715154
0.014018464 -0.077317946 0.80000001 4292991174
0.015550222 -0.0775107 0.80199999 4292793800
0.017046882 -0.07751023 0.80199999 4292530371
0.018543486 -0.077509776 0.80199999 4291939256
0.020065021 -0.077606007 0.80299997 4292136636
0.021563379 -0.077605627 0.80299997 4292267967
0.023061682 -0.077605285 0.80299997 4291610294
0.024559926 -0.077604979 0.80299997 4291544497
0.026058119 -0.077604719 0.80299997 4291347117
0.027624886 -0.077797771 0.80500001 4291346602
0.029126691 -0.077797577 0.80500001 4291412395
0.030780636 -0.078183994 0.80900002 4291544751
0.032369617 -0.07837715 0.81099999 4291347115
0.033882439 -0.078377068 0.81099999 4290558887
0.035482496 -0.078570299 0.81300002 4290493094
0.036907911 -0.078377001 0.81099999 4291017119
0.038420565 -0.078377031 0.81099999 4290293652
0.04022859 -0.078956947 0.81699997 4290096791
0.041752309 -0.078957058 0.81699997 4290096791
0.043487843 -0.079343759 0.82099998 4290096791
0.045018896 -0.079343937 0.82099998 4289964949
0.046549894 -0.079344146 0.82099998 4290031246
0.048197959 -0.079537682 0.82300001 4289439109
0.049732558 -0.07953798 0.82300001 4289438607
0.051267091 -0.079538316 0.82300001 4288714884
0.057485063 -0.08659374 0.89600003 4288714605
0.059155561 -0.086594172 0.89600003 4288911727
0.060826007 -0.086594656 0.89600003 4288584334
0.062496394 -0.086595178 0.89600003 4290557867
0.064309917 -0.086789034 0.898 4290756011
0.065983884 -0.086789638 0.898 4291742906
0.067657761 -0.086790271 0.898 4292137153
0.069331594 -0.086790971 0.898 4292729290
0.071005337 -0.086791694 0.898 4292664781
0.072679006 -0.086792469 0.898 4293717212
-0.066308081 -0.079036556 0.833 4294967273
-0.064751059 -0.079034053 0.833 4294967295
-0.062587164 -0.078272574 0.82499999 4294967295
-0.061045174 -0.078270175 0.82499999 4294967295
-0.059070468 -0.077698588 0.81900001 4294967295
-0.057399269 -0.077506542 0.81699997 4294967295
-0.055735569 -0.077314541 0.815 4294967295
-0.054212425 -0.07731232 0.815 4294967295
-0.052430738 -0.076930702 0.81099999 4294967295
-0.050915152 -0.076928563 0.81099999 4294967295
-0.049399611 -0.076926462 0.81099999 4294967295
-0.047884118 -0.076924406 0.81099999 4294967295
-0.046368659 -0.076922372 0.81099999 4294967295
-0.044742629 -0.076730691 0.80900002 4294967295
-0.043124117 -0.076539055 0.80699998 4294967295
-0.041513123 -0.076347463 0.80500001 4294967295
-0.040009048 -0.0763456 0.80500001 4294967295
-0.038505018 -0.076343767 0.80500001 4294967295
-0.036909096 -0.07615231 0.80299997 4294967295
-0.035408884 -0.076150559 0.80299997 4294967295
-0.033908721 -0.076148845 0.80299997 4294967295
-0.032368243 -0.076052345 0.80199999 4294967295
-0.03087003 -0.076050699 0.80199999 4294967295
-0.029371871 -0.076049097 0.80199999 4294967295
-0.027804235 -0.0758579 0.80000001 4294967295
-0.026309898 -0.07585638 0.80000001 4294967295
-0.024753565 -0.075665243 0.79799998 4294967295
-0.023263056 -0.075663805 0.79799998 4294967295
-0.021827158 -0.075852029 0.80000001 4294967295
-0.020282172 -0.075661011 0.79799998 4294967295
-0.018791799 -0.075659685 0.79799998 4294967295
-0.017301474 -0.075658374 0.79799998 4294967295
-0.01577157 -0.07546749 0.796 4294967295
-0.014285076 -0.075466275 0.796 4294967295
-0.012830784 -0.075654685 0.79799998 4294967295
-0.01134065 -0.075653531 0.79799998 4294967295
-0.0098505635 -0.075652413 0.79799998 4294967295
-0.0083605275 -0.075651333 0.79799998 4294967295
-0.0068705389 -0.075650282 0.79799998 4294967288
-0.0053806016 -0.075649269 0.79799998 4294966776
-0.0038907134 -0.075648293 0.79799998 4294966261
-0.0024008756 -0.075647362 0.79799998 4294966261
-0.00091108779 -0.075646468 0.79799998 4294505710
0.00057864905 -0.075645596 0.79799998 4294374381
0.002068335 -0.075644769 0.79799998 4293782244
0.0035490522 -0.075454392 0.796 4293847265
0.0050349017 -0.075453632 0.796 4293518300
0.0065370821 -0.075642496 0.79799998 4293780947
0.0080466783 -0.075831398 0.80000001 4294043863
0.0095398361 -0.07583075 0.80000001 4293255637
0.011032942 -0.075830132 0.80000001 4292531657
0.012557308 -0.076019123 0.80199999 4292728005
0.014054039 -0.076018587 0.80199999 4292793798
0.015570104 -0.076112866 0.80299997 4292727242
0.017068593 -0.076112397 0.80299997 4292266691
0.018567026 -0.076111965 0.80299997 4292135866
0.020065404 -0.07611157 0.80299997 4292135866
0.021617435 -0.076300777 0.80500001 4292070074
0.023061991 -0.076110885 0.80299997 4291609523
0.024560202 -0.076110594 0.80299997 4291542952
0.026123259 -0.076299921 0.80500001 4291411366
0.027693721 -0.07648927 0.80699998 4290819493
0.029199224 -0.076489091 0.80699998 4290753699
0.030780766 -0.076678522 0.80900002 4290820260
0.032369711 -0.076867983 0.81099999 4290886053
0.033882499 -0.076867908 0.81099999 4290687904
0.035395227 -0.076867878 0.81099999 4290556318
0.036998916 -0.077057458 0.81300002 4290359194
0.038515262 -0.077057503 0.81300002 4290227607
0.040326979 -0.077626266 0.81900001 4290030998
0.041854393 -0.077626392 0.81900001 4290030998
0.043487679 -0.077816114 0.82099998 4290031244
0.045018695 -0.0778163 0.82099998 4289636742
0.046663053 -0.078006111 0.82300001 4289503616
0.048197679 -0.078006387 0.82300001 4288911479
0.049732242 -0.0780067 0.82300001 4288516488
0.051266737 -0.078007035 0.82300001 4287726971
0.057484634 -0.084926672 0.89600003 4287596142
0.059155099 -0.084927142 0.89600003 4288714366
0.060825504 -0.084927641 0.89600003 4288846997
0.062495839 -0.084928185 0.89600003 4290623408
0.064309321 -0.085118338 0.898 4290492590
0.065983243 -0.085118964 0.898 4291413692
0.067657091 -0.085119627 0.898 4292070845
0.069330879 -0.085120343 0.898 4292926154
0.071004584 -0.085121095 0.898 4292861138
0.072678223 -0.085121885 0.898 4293255896
-0.066464774 -0.07767152 0.83499998 4294964144
-0.064748593 -0.077482998 0.833 4294967295
-0.063191645 -0.07748054 0.833 4294967295
-0.061634738 -0.077478133 0.833 4294967295
-0.059645142 -0.076917715 0.82700002 4294967295
-0.057397004 -0.075985335 0.81699997 4294967295
-0.055870116 -0.075983077 0.81699997 4294967295
-0.054210238 -0.075794868 0.815 4294967295
-0.052687187 -0.075792693 0.815 4294967295
-0.051038604 -0.075604573 0.81300002 4294967295
-0.049397547 -0.07541649 0.81099999 4294967295
-0.04788208 -0.075414442 0.81099999 4294967295
-0.046366666 -0.07541243 0.81099999 4294967295
-0.044851288 -0.075410455 0.81099999 4294967295
-0.043229088 -0.075222552 0.80900002 4294967295
-0.041614391 -0.075034693 0.80699998 4294967295
-0.040106613 -0.075032838 0.80699998 4294967295
-0.038503222 -0.074845076 0.80500001 4294967295
-0.036999267 -0.074843295 0.80500001 4294967295
-0.035407174 -0.074655615 0.80299997 4294967295
-0.033907045 -0.074653916 0.80299997 4294967295
-0.032406956 -0.074652255 0.80299997 4294967295
-0.030906919 -0.07465063 0.80299997 4294967295
-0.029370302 -0.074556082 0.80199999 4294967295
-0.027872216 -0.074554525 0.80199999 4294967295
-0.02637418 -0.074553013 0.80199999 4294967295
-0.024814153 -0.074365631 0.80000001 4294967295
-0.023319943 -0.074364193 0.80000001 4294967295
-0.021880342 -0.074548706 0.80199999 4294967295
-0.02033166 -0.074361436 0.80000001 4294967295
-0.018790493 -0.074174203 0.79799998 4294967295
-0.017300205 -0.074172921 0.79799998 4294967295
-0.015809966 -0.07417167 0.79799998 4294967295
-0.01431977 -0.074170455 0.79799998 4294967295
-0.012829624 -0.074169286 0.79799998 4294967295
-0.011339526 -0.074168146 0.79799998 4294967295
-0.0098494776 -0.074167043 0.79799998 4294967295
-0.0083594769 -0.07416597 0.79799998 4294967295
-0.0068695238 -0.074164942 0.79799998 4294966773
-0.0053796228 -0.074163951 0.79799998 4294834932
-0.0038897707 -0.07416299 0.79799998 4294703090
-0.0023999691 -0.074162073 0.79799998 4294703603
-0.00091249886 -0.074347064 0.80000001 4294309101
0.00058093551 -0.074346207 0.80000001 4294505197
0.0020743187 -0.074345395 0.80000001 4293913060
0.0035587309 -0.07415875 0.79799998 4293846488
0.0050482778 -0.074158005 0.79799998 4293583316
0.0065541565 -0.074343167 0.80000001 4293582028
0.0080674505 -0.074528359 0.80199999 4293713615
0.0095404545 -0.074341863 0.80000001 4293386189
0.011033524 -0.074341275 0.80000001 4292728003
0.012557857 -0.074526571 0.80199999 4292399040
0.014072074 -0.074618965 0.80299997 4292333247
0.015570581 -0.074618474 0.80299997 4292463550
0.017069031 -0.074618019 0.80299997 4292397757
0.018613674 -0.074803457 0.80500001 4292267193
0.020115748 -0.074803084 0.80500001 4292003764
0.021617766 -0.074802749 0.80500001 4291675567
0.023119727 -0.074802436 0.80500001 4291478444
0.024621632 -0.074802168 0.80500001 4291411114
0.026188383 -0.074987777 0.80699998 4291279527
0.027693903 -0.074987575 0.80699998 4290884767
0.029344101 -0.075359114 0.81099999 4290818974
0.030856974 -0.075358994 0.81099999 4290819745
0.032369781 -0.075358905 0.81099999 4290753951
0.033882536 -0.07535886 0.81099999 4290358171
0.035395227 -0.075358845 0.81099999 4290423964
0.036998883 -0.075544722 0.81300002 4290358421
0.038515192 -0.075544789 0.81300002 4289963919
0.040326871 -0.076102413 0.81900001 4289636240
0.041854244 -0.076102562 0.81900001 4289636240
0.043487489 -0.076288573 0.82099998 4289635986
0.045018472 -0.076288782 0.82099998 4289306764
0.046662789 -0.07647489 0.82300001 4289371517
0.048197377 -0.076475188 0.82300001 4288910966
0.049731903 -0.076475509 0.82300001 4288844417
0.051266361 -0.076475881 0.82300001 4287462764
0.057484187 -0.083259724 0.89600003 4287069277
0.059154615 -0.083260208 0.89600003 4289108861
0.060824972 -0.08326073 0.89600003 4289109907
0.062634759 -0.083447151 0.898 4290491560
0.06430871 -0.083447754 0.898 4290359457
0.065982595 -0.08344841 0.898 4291872696
0.067882419 -0.083727881 0.90100002 4291939004
0.069330141 -0.083449833 0.898 4292728520
0.071003802 -0.083450608 0.898 4292465612
0.073324859 -0.084194869 0.90600002 4292926163
0.075013287 -0.084195733 0.90600002 4292795858
-0.063189231 -0.075929634 0.833 4294967276
-0.061632376 -0.07592722 0.833 4294967295
-0.059642818 -0.075377986 0.82700002 4294967295
-0.058097262 -0.075375676 0.82700002 4294967295
-0.056141432 -0.074826561 0.82099998 4294967295
-0.054607149 -0.074824348 0.82099998 4294967295
-0.052814342 -0.074457638 0.81699997 4294967295
-0.051162068 -0.074273251 0.815 4294967295
-0.049639124 -0.074271157 0.815 4294967295
-0.047998149 -0.07408686 0.81300002 4294967295
-0.046364687 -0.073902607 0.81099999 4294967295
-0.044849355 -0.07390064 0.81099999 4294967295
-0.043227192 -0.073716484 0.80900002 4294967295
-0.041612532 -0.073532358 0.80699998 4294967295
-0.040104799 -0.073530525 0.80699998 4294967295
-0.038597099 -0.073528722 0.80699998 4294967295
-0.036997531 -0.073344737 0.80500001 4294967295
-0.035405472 -0.07316079 0.80299997 4294967295
-0.033905379 -0.073159099 0.80299997 4294967295
-0.032405332 -0.073157452 0.80299997 4294967295
-0.030905331 -0.073155843 0.80299997 4294967295
-0.029368749 -0.073063172 0.80199999 4294967295
-0.0278707 -0.073061638 0.80199999 4294967295
-0.026372703 -0.07306014 0.80199999 4294967295
-0.024874747 -0.073058687 0.80199999 4294967295
-0.023376839 -0.073057257 0.80199999 4294967295
-0.021878975 -0.073055871 0.80199999 4294967295
-0.02033033 -0.072872341 0.80000001 4294967295
-0.018789204 -0.072688855 0.79799998 4294967295
-0.017298955 -0.072687581 0.79799998 4294967295
-0.015808748 -0.072686352 0.79799998 4294967295
-0.01431859 -0.07268516 0.79799998 4294967295
-0.01282848 -0.07268399 0.79799998 4294967295
-0.011338418 -0.072682865 0.79799998 4294967295
-0.0098484056 -0.072681777 0.79799998 4294967294
-0.0083584413 -0.072680734 0.79799998 4294967294
-0.0068685263 -0.072679721 0.79799998 4294966259
-0.0053786603 -0.072678737 0.79799998 4294637297
-0.003888845 -0.072677799 0.79799998 4294571504
-0.002399079 -0.07267689 0.79799998 4294571504
-0.00091164309 -0.07285817 0.80000001 4294242795
0.00058175478 -0.072857343 0.80000001 4294570472
0.0020751017 -0.072856545 0.80000001 4293912799
0.0035683967 -0.072855778 0.80000001 4293846742
0.0050616404 -0.072855055 0.80000001 4293517521
0.0065712184 -0.073036507 0.80199999 4293122513
0.0080680894 -0.073035844 0.80199999 4293122513
0.0095649092 -0.07303524 0.80199999 4293188545
0.011061674 -0.073034659 0.80199999 4292991165
0.012574042 -0.073125184 0.80299997 4292135618
0.014072567 -0.073124669 0.80299997 4292069568
0.015609821 -0.073306337 0.80500001 4292266168
0.017111968 -0.073305905 0.80500001 4292266168
0.018614059 -0.073305495 0.80500001 4291937969
0.020116094 -0.073305145 0.80500001 4291214502
0.021618078 -0.073304817 0.80500001 4291543715
0.023120005 -0.073304541 0.80500001 4291609508
0.02462187 -0.073304281 0.80500001 4291082153
0.026188584 -0.073486194 0.80699998 4291016104
0.027694073 -0.073486015 0.80699998 4290884767
0.029344231 -0.073850118 0.81099999 4290884767
0.030857062 -0.073850021 0.81099999 4290688669
0.032369841 -0.073849954 0.81099999 4290557340
0.033882555 -0.073849924 0.81099999 4290227103
0.0354825 -0.074032061 0.81300002 4290227103
0.036998831 -0.074032106 0.81300002 4290227092
0.038988836 -0.07494279 0.82300001 4289766541
0.040622167 -0.075125039 0.82499999 4289372051
0.042160694 -0.075125195 0.82499999 4289372051
0.043699156 -0.075125396 0.82499999 4289437842
0.04523756 -0.075125642 0.82499999 4288845704
0.046775907 -0.075125903 0.82499999 4289042300
0.04831418 -0.075126216 0.82499999 4288779128
0.049852401 -0.075126573 0.82499999 4288515706
0.051390551 -0.075126961 0.82499999 4287397225
0.057483722 -0.081592903 0.89600003 4287529072
0.059154101 -0.081593409 0.89600003 4289634705
0.060824431 -0.081593961 0.89600003 4289569943
0.06263417 -0.081776671 0.898 4290753961
0.064308077 -0.081777312 0.898 4290688942
0.06598191 -0.08177799 0.898 4292004546
0.067881703 -0.082051896 0.90100002 4292004800
0.06956099 -0.082052656 0.90100002 4292728266
0.071240209 -0.08205346 0.90100002 4292531407
0.07332401 -0.082509652 0.90600002 4292991958
0.075012393 -0.082510538 0.90600002 4292992210
0.076700717 -0.08251147 0.90600002 4293913056
-0.063186832 -0.074378803 0.833 4294963388
-0.061630003 -0.074376427 0.833 4294967295
-0.060073219 -0.074374072 0.833 4294967295
-0.058094993 -0.073836073 0.82700002 4294967295
-0.056412734 -0.073655255 0.82499999 4294967295
-0.054737993 -0.073474497 0.82300001 4294967295
-0.052941505 -0.073115245 0.81900001 4294967295
-0.051285524 -0.072934575 0.81699997 4294967295
-0.049758889 -0.072932504 0.81699997 4294967295
-0.048114222 -0.072751932 0.815 4294967295
-0.046477064 -0.072571412 0.81300002 4294967295
-0.044958025 -0.07256946 0.81300002 4294967295
-0.043332167 -0.072389029 0.81099999 4294967295
-0.041713823 -0.072208643 0.80900002 4294967295
-0.040202383 -0.072206818 0.80900002 4294967295
-0.03859533 -0.072026514 0.80699998 4294967295
-0.036995806 -0.071846269 0.80500001 4294967295
-0.035403788 -0.071666062 0.80299997 4294967295
-0.033903729 -0.071664385 0.80299997 4294967295
-0.032403719 -0.071662761 0.80299997 4294967295
-0.030903755 -0.071661167 0.80299997 4294967295
-0.029367212 -0.071570367 0.80199999 4294967295
-0.027869204 -0.071568847 0.80199999 4294967295
-0.026371237 -0.071567364 0.80199999 4294967295
-0.02487332 -0.071565926 0.80199999 4294967295
-0.02337545 -0.07156451 0.80199999 4294967295
-0.021904899 -0.071652368 0.80299997 4294967295
-0.020379841 -0.071561806 0.80199999 4294967295
-0.018882107 -0.071560517 0.80199999 4294967295
-0.017341068 -0.071380801 0.80000001 4294967295
-0.015847167 -0.07137958 0.80000001 4294967295
-0.014317426 -0.071199946 0.79799998 4294967295
-0.012827354 -0.071198799 0.79799998 4294967295
-0.011337328 -0.071197703 0.79799998 4294967292
-0.0098473513 -0.071196631 0.79799998 4294967292
-0.0083993142 -0.071552463 0.80199999 4294967295
-0.0068675433 -0.071194597 0.79799998 4294769652
-0.005377715 -0.071193635 0.79799998 4294637297
-0.0038879353 -0.071192712 0.79799998 4294308588
-0.0024132321 -0.071637884 0.80299997 4294111207
-0.00091421971 -0.071637027 0.80299997 4294177000
0.00058474176 -0.071636207 0.80299997 4294176233
0.0020810573 -0.071546219 0.80199999 4293847267
0.0035780489 -0.071545474 0.80199999 4293846488
0.0050749895 -0.071544766 0.80199999 4293517267
0.0065718764 -0.071544088 0.80199999 4292794313
0.0080687115 -0.071543455 0.80199999 4292860106
0.0095654931 -0.071542852 0.80199999 4293122502
0.011076015 -0.071631499 0.80299997 4292596157
0.012574557 -0.07163097 0.80299997 4292266172
0.014108096 -0.071808897 0.80500001 4292200123
0.015610262 -0.071808442 0.80500001 4291741108
0.017112369 -0.071808025 0.80500001 4291872950
0.018614426 -0.071807653 0.80500001 4291806123
0.020166405 -0.071985699 0.80699998 4291806123
0.021672081 -0.071985409 0.80699998 4291740326
0.0231777 -0.071985133 0.80699998 4291279775
0.024683263 -0.071984909 0.80699998 4291081379
0.02618877 -0.071984701 0.80699998 4291147172
0.02769422 -0.071984552 0.80699998 4290621852
0.029344343 -0.072341233 0.81099999 4290621852
0.030857142 -0.072341144 0.81099999 4290491806
0.032369878 -0.072341107 0.81099999 4290426013
0.033882555 -0.072341092 0.81099999 4289964699
0.035482462 -0.072519526 0.81300002 4289964699
0.036998749 -0.072519593 0.81300002 4290292369
0.039083473 -0.073590092 0.82499999 4289766025
0.040622018 -0.073590234 0.82499999 4289503116
