# .PCD v0.7 - Point Cloud Data file format
VERSION 0.7
FIELDS x y z rgba
SIZE 4 4 4 4
TYPE F F F U
COUNT 1 1 1 1
WIDTH 1077
HEIGHT 1
VIEWPOINT 0 0 0 1 0 0 0
POINTS 1077
DATA ascii
0.047141559 0.16906828 0.64700001 4294967295
0.048415225 0.16932598 0.648 4294967295
0.049539424 0.16906105 0.64700001 4294967295
0.050738275 0.16905735 0.64700001 4294967295
0.052017361 0.16931495 0.648 4294967295
0.05321797 0.16931117 0.648 4294967295
0.054418538 0.16930735 0.648 4294967295
0.056477375 0.17191622 0.65799999 4294967295
0.057696372 0.17191225 0.65799999 4294967295
0.059004858 0.17216954 0.65899998 4294967295
0.060134213 0.17190425 0.65799999 4294967295
0.061353061 0.17190018 0.65799999 4294967295
-0.021898584 0.17539223 0.66600001 4294967295
-0.02066193 0.17539091 0.66600001 4294967295
-0.01942532 0.1753896 0.66600001 4294967295
-0.018079503 0.17433484 0.662 4294967295
-0.01672313 0.17301673 0.65700001 4294967295
-0.015503345 0.1730153 0.65700001 4294967295
-0.014283604 0.17301385 0.65700001 4294967295
-0.013063899 0.1730123 0.65700001 4294967295
-0.01180818 0.17248406 0.65499997 4294967295
-0.010576098 0.17221914 0.65399998 4294967295
-0.0093477713 0.17195417 0.653 4294967295
-0.0081231948 0.17168917 0.65200001 4294967295
-0.0068917689 0.1711608 0.64999998 4294967295
-0.0056765554 0.17089574 0.64899999 4294967295
-0.0044719847 0.17089392 0.64899999 4294967295
-0.0032624204 0.17062882 0.648 4294967295
-0.0020534305 0.1701003 0.64600003 4294967295
-0.00085455069 0.17009839 0.64600003 4294967295
0.00034428804 0.17009643 0.64600003 4294967295
0.0015430857 0.17009446 0.64600003 4294967295
0.0027418414 0.1700924 0.64600003 4294967295
0.0039283559 0.16956373 0.64399999 4294967295
0.0051233168 0.16956161 0.64399999 4294967295
0.0063182367 0.16955946 0.64399999 4294967295
0.0074897814 0.16903073 0.64200002 4294967295
0.0086809071 0.16902846 0.64200002 4294967295
0.0098719886 0.16902623 0.64200002 4294967295
0.01106303 0.16902389 0.64200002 4294967295
0.012234938 0.16875827 0.64099997 4294967295
0.013424038 0.16875586 0.64099997 4294967295
0.014613095 0.16875345 0.64099997 4294967295
0.015802108 0.16875096 0.64099997 4294967295
0.016964572 0.16848518 0.63999999 4294967295
0.018151645 0.16848263 0.63999999 4294967295
0.019278239 0.16795354 0.63800001 4294967295
0.020461518 0.16795093 0.63800001 4294967295
0.021644751 0.16794825 0.63800001 4294967295
0.022827938 0.16794555 0.63800001 4294967295
0.024011081 0.16794278 0.63800001 4294967295
0.025194185 0.16794002 0.63800001 4294967295
0.026377244 0.16793716 0.63800001 4294967295
0.027560251 0.1679343 0.63800001 4294967295
0.028743217 0.16793136 0.63800001 4294967295
0.029926144 0.16792844 0.63800001 4294967295
0.031109024 0.16792543 0.63800001 4294967295
0.032291852 0.16792239 0.63800001 4294967295
0.033579577 0.16844572 0.63999999 4294967295
0.034766026 0.16844259 0.63999999 4294967295
0.035952438 0.16843942 0.63999999 4294967295
0.037196819 0.16869938 0.64099997 4294967295
0.038384985 0.16869614 0.64099997 4294967295
0.039573107 0.16869283 0.64099997 4294967295
0.04076118 0.1686895 0.64099997 4294967295
0.041949209 0.16868614 0.64099997 4294967295
0.043271787 0.16920903 0.64300001 4294967295
0.044394284 0.16894241 0.64200002 4294967295
0.045584023 0.16893891 0.64200002 4294967295
0.046846572 0.1691985 0.64300001 4294967295
0.048262201 0.16998431 0.64600003 4294967295
0.049306087 0.16945443 0.64399999 4294967295
0.05049935 0.16945072 0.64399999 4294967295
0.051933359 0.17023638 0.64700001 4294967295
0.05313208 0.17023261 0.64700001 4294967295
0.054330751 0.17022879 0.64700001 4294967295
-0.023171229 0.17687686 0.667 4294967295
-0.021899842 0.17661041 0.66600001 4294967295
-0.020601181 0.17607875 0.66399997 4294967295
-0.019339155 0.17581223 0.66299999 4294967295
-0.017998945 0.17475018 0.65899998 4294967295
-0.01672454 0.17421842 0.65700001 4294967295
-0.015504797 0.17421697 0.65700001 4294967295
-0.014241612 0.17368513 0.65499997 4294967295
-0.013025664 0.17368363 0.65499997 4294967295
-0.011791724 0.17341685 0.65399998 4294967295
-0.010561538 0.17315012 0.653 4294967295
-0.0093064709 0.172353 0.64999998 4294967295
-0.0080999639 0.17235132 0.64999998 4294967295
-0.0068828925 0.17208442 0.64899999 4294967295
-0.0056695733 0.17181751 0.648 4294967295
-0.0044600079 0.17155057 0.64700001 4294967295
-0.0032592318 0.17154874 0.64700001 4294967295
-0.0020457702 0.17048627 0.64300001 4294967295
-0.00085249922 0.17048436 0.64300001 4294967295
0.00034126066 0.17074755 0.64399999 4294967295
0.0015363053 0.17074555 0.64399999 4294967295
0.0027313083 0.1707435 0.64399999 4294967295
0.0039262702 0.17074142 0.64399999 4294967295
0.005113238 0.17047417 0.64300001 4294967295
0.0063062608 0.17047203 0.64300001 4294967295
0.0074875788 0.17020467 0.64200002 4294967295
0.0086651435 0.16993731 0.64099997 4294967295
0.0098543288 0.16993503 0.64099997 4294967295
0.011043473 0.16993274 0.64099997 4294967295
0.01221349 0.16966523 0.63999999 4294967295
0.013400695 0.16966285 0.63999999 4294967295
0.014542269 0.16913024 0.63800001 4294967295
0.015725676 0.16912773 0.63800001 4294967295
0.016882539 0.16886015 0.63700002 4294967295
0.018064005 0.1688576 0.63700002 4294967295
0.019245429 0.168855 0.63700002 4294967295
0.020426812 0.16885236 0.63700002 4294967295
0.021608148 0.16884969 0.63700002 4294967295
0.022789441 0.16884696 0.63700002 4294967295
0.023970693 0.16884422 0.63700002 4294967295
0.025151899 0.16884141 0.63700002 4294967295
0.02633306 0.16883858 0.63700002 4294967295
0.02747098 0.16857064 0.63599998 4294967295
0.028650202 0.16856772 0.63599998 4294967295
0.029829375 0.16856474 0.63599998 4294967295
0.031057263 0.1688268 0.63700002 4294967295
0.032238204 0.16882378 0.63700002 4294967295
0.033471555 0.16908571 0.63800001 4294967295
0.034654256 0.16908254 0.63800001 4294967295
0.035836916 0.16907941 0.63800001 4294967295
0.037135575 0.16960621 0.63999999 4294967295
0.038321849 0.16960296 0.63999999 4294967295
0.039508075 0.16959962 0.63999999 4294967295
0.040694259 0.1695963 0.63999999 4294967295
0.041880392 0.16959292 0.63999999 4294967295
0.043201067 0.17011948 0.64200002 4294967295
0.044252522 0.16958603 0.63999999 4294967295
0.045438513 0.16958252 0.63999999 4294967295
0.046697307 0.16984393 0.64099997 4294967295
0.048034471 0.17037027 0.64300001 4294967295
0.049225893 0.17036663 0.64300001 4294967295
0.050417256 0.17036295 0.64300001 4294967295
0.051688835 0.17062418 0.64399999 4294967295
0.05288196 0.17062041 0.64399999 4294967295
0.054075036 0.17061658 0.64399999 4294967295
0.055268057 0.17061272 0.64399999 4294967295
-0.023172462 0.1780968 0.667 4294967295
-0.021901112 0.17782851 0.66600001 4294967295
-0.020571465 0.17702617 0.66299999 4294967295
-0.019311337 0.1767578 0.662 4294967295
-0.017945701 0.17542142 0.65700001 4294967295
-0.016675048 0.174886 0.65499997 4294967295
-0.01545906 0.17488454 0.65499997 4294967295
-0.01422137 0.17461604 0.65399998 4294967295
-0.012987431 0.17434749 0.653 4294967295
-0.011757245 0.17407894 0.65200001 4294967295
-0.010498459 0.17327634 0.64899999 4294967295
-0.0092938095 0.1732747 0.64899999 4294967295
-0.0080767367 0.17300603 0.648 4294967295
-0.0068528089 0.17247032 0.64600003 4294967295
-0.0056538493 0.17246854 0.64600003 4294967295
-0.0044411374 0.17193277 0.64399999 4294967295
-0.0032459702 0.17193092 0.64399999 4294967295
-0.0020444749 0.17139511 0.64200002 4294967295
-0.00085310108 0.17139316 0.64200002 4294967295
0.00033823203 0.17139123 0.64200002 4294967295
0.001529524 0.17138922 0.64200002 4294967295
0.0027207746 0.1713872 0.64200002 4294967295
0.0039119842 0.17138509 0.64200002 4294967295
0.0051111006 0.17164992 0.64300001 4294967295
0.0063040815 0.17164771 0.64300001 4294967295
0.0074853622 0.17137857 0.64200002 4294967295
0.0086628888 0.17110935 0.64099997 4294967295
0.0098520331 0.17110705 0.64099997 4294967295
0.011023913 0.1708378 0.63999999 4294967295
0.012172958 0.17030156 0.63800001 4294967295
0.01335641 0.17029917 0.63800001 4294967295
0.01449424 0.16976286 0.63599998 4294967295
0.015673898 0.16976038 0.63599998 4294967295
0.016880013 0.17002478 0.63700002 4294967295
0.01806144 0.17002222 0.63700002 4294967295
0.019242823 0.17001961 0.63700002 4294967295
0.020392098 0.16975005 0.63599998 4294967295
0.021571539 0.16974735 0.63599998 4294967295
0.022750938 0.16974463 0.63599998 4294967295
0.023930294 0.16974185 0.63599998 4294967295
0.025109604 0.16973904 0.63599998 4294967295
0.02633021 0.1700031 0.63700002 4294967295
0.027468093 0.16973333 0.63599998 4294967295
0.02864727 0.1697304 0.63599998 4294967295
0.029826406 0.1697274 0.63599998 4294967295
0.031005498 0.1697244 0.63599998 4294967295
0.032184538 0.16972134 0.63599998 4294967295
0.03336354 0.16971827 0.63599998 4294967295
0.034596808 0.16998199 0.63700002 4294967295
0.035777569 0.1699788 0.63700002 4294967295
0.036958288 0.16997558 0.63700002 4294967295
0.038138956 0.16997232 0.63700002 4294967295
0.03938131 0.17023587 0.63800001 4294967295
0.040563751 0.1702325 0.63800001 4294967295
0.041746132 0.17022912 0.63800001 4294967295
0.043063048 0.17075931 0.63999999 4294967295
0.044249047 0.17075582 0.63999999 4294967295
0.045435008 0.17075233 0.63999999 4294967295
0.046693761 0.17101556 0.64099997 4294967295
0.047956165 0.17127874 0.64200002 4294967295
0.049145691 0.17127509 0.64200002 4294967295
0.050413564 0.17153817 0.64300001 4294967295
0.051604845 0.17153443 0.64300001 4294967295
0.052796077 0.17153066 0.64300001 4294967295
0.053987257 0.17152683 0.64300001 4294967295
0.055178393 0.17152297 0.64300001 4294967295
-0.024375575 0.17904899 0.66600001 4294967295
-0.023034737 0.17824122 0.66299999 4294967295
-0.021770857 0.17797111 0.662 4294967295
-0.020510731 0.17770098 0.66100001 4294967295
-0.019225182 0.17716193 0.65899998 4294967295
-0.017892465 0.17608519 0.65499997 4294967295
-0.016625563 0.17554612 0.653 4294967295
-0.015413329 0.17554465 0.653 4294967295
-0.014179392 0.17527433 0.65200001 4294967295
-0.012889531 0.17419749 0.648 4294967295
-0.011668666 0.17392707 0.64700001 4294967295
-0.010467732 0.17392546 0.64700001 4294967295
-0.0092525128 0.17365499 0.64600003 4294967295
-0.0080285799 0.17311566 0.64399999 4294967295
-0.006822722 0.1728451 0.64300001 4294967295
-0.0056293719 0.17284335 0.64300001 4294967295
-0.0044291625 0.17257273 0.64200002 4294967295
-0.0032377483 0.17257087 0.64200002 4294967295
-0.0020431872 0.17230016 0.64099997 4294967295
-0.00085237838 0.17202944 0.63999999 4294967295
0.00033415467 0.17148986 0.63800001 4294967295
0.0015179834 0.17148787 0.63800001 4294967295
0.0027102404 0.17202339 0.63999999 4294967295
0.0038976981 0.17202128 0.63999999 4294967295
0.005093059 0.17228793 0.64099997 4294967295
0.0062822895 0.17228574 0.64099997 4294967295
0.0074598207 0.17201474 0.63999999 4294967295
0.0086471112 0.17201248 0.63999999 4294967295
0.0097882617 0.1712039 0.63700002 4294967295
0.010952682 0.17093278 0.63599998 4294967295
0.012132426 0.1709304 0.63599998 4294967295
0.013333057 0.17119676 0.63700002 4294967295
0.014491786 0.17092553 0.63599998 4294967295
0.015671402 0.17092305 0.63599998 4294967295
0.016850978 0.17092052 0.63599998 4294967295
0.018030509 0.17091793 0.63599998 4294967295
0.019209996 0.17091532 0.63599998 4294967295
0.020357383 0.17064396 0.63499999 4294967295
0.021534929 0.17064123 0.63499999 4294967295
0.022712432 0.1706385 0.63499999 4294967295
0.023927515 0.17090446 0.63599998 4294967295
0.025106782 0.17090161 0.63599998 4294967295
0.026286012 0.17089875 0.63599998 4294967295
0.027465193 0.17089587 0.63599998 4294967295
0.028644333 0.17089291 0.63599998 4294967295
0.029823428 0.17088991 0.63599998 4294967295
0.031002477 0.1708869 0.63599998 4294967295
0.032181479 0.17088385 0.63599998 4294967295
0.033360437 0.17088075 0.63599998 4294967295
0.034430735 0.17034024 0.634 4294967295
0.035605904 0.17033708 0.634 4294967295
0.036897045 0.17087118 0.63599998 4294967295
0.038135696 0.1711366 0.63700002 4294967295
0.039316278 0.17113326 0.63700002 4294967295
0.040496826 0.1711299 0.63700002 4294967295
0.041677319 0.17112653 0.63700002 4294967295
0.042925045 0.17139173 0.63800001 4294967295
0.044107307 0.17138824 0.63800001 4294967295
0.045289509 0.17138472 0.63800001 4294967295
0.046617344 0.17191839 0.63999999 4294967295
0.047877856 0.17218339 0.64099997 4294967295
0.049065489 0.17217974 0.64099997 4294967295
0.050174672 0.17190744 0.63999999 4294967295
0.05136035 0.1719037 0.63999999 4294967295
0.052710194 0.17243716 0.64200002 4294967295
0.053899478 0.17243332 0.64200002 4294967295
0.055088725 0.17242944 0.64200002 4294967295
-0.024266981 0.17945488 0.66299999 4294967295
-0.023001244 0.17918295 0.662 4294967295
-0.021739265 0.178911 0.66100001 4294967295
-0.02045 0.17836832 0.65899998 4294967295
-0.019168204 0.17782563 0.65700001 4294967295
-0.017839234 0.17674159 0.653 4294967295
-0.016601542 0.17646948 0.65200001 4294967295
-0.015343998 0.1759267 0.64999998 4294967295
-0.014093918 0.17538388 0.648 4294967295
-0.012851302 0.17484105 0.64600003 4294967295
-0.011652224 0.17483942 0.64600003 4294967295
-0.010420823 0.17429651 0.64399999 4294967295
-0.009225538 0.17429486 0.64399999 4294967295
-0.0080178231 0.17402251 0.64300001 4294967295
-0.00681386 0.17375012 0.64200002 4294967295
-0.0056224065 0.17374833 0.64200002 4294967295
-0.0044240914 0.17347585 0.64099997 4294967295
-0.0032345741 0.17347398 0.64099997 4294967295
-0.0020419075 0.17320146 0.63999999 4294967295
-0.00085032237 0.17238763 0.63700002 4294967295
0.00033165058 0.17238566 0.63700002 4294967295
0.001513583 0.17238365 0.63700002 4294967295
0.0026912424 0.17211097 0.63599998 4294967295
0.0038712374 0.17210887 0.63599998 4294967295
0.005051191 0.17210673 0.63599998 4294967295
0.0062800902 0.17345756 0.64099997 4294967295
0.0074342792 0.17264354 0.63800001 4294967295
0.0086043114 0.17237069 0.63700002 4294967295
0.0097552286 0.17182717 0.63499999 4294967295
0.010933118 0.17182483 0.63499999 4294967295
0.012110967 0.17182244 0.63499999 4294967295
0.013309701 0.17209062 0.63599998 4294967295
0.014466539 0.17181756 0.63499999 4294967295
0.015644258 0.17181505 0.63499999 4294967295
0.016821939 0.17181252 0.63499999 4294967295
0.017999575 0.17180993 0.63499999 4294967295
0.019177167 0.1718073 0.63499999 4294967295
0.020322664 0.17153408 0.634 4294967295
0.021498315 0.17153138 0.634 4294967295
0.022673924 0.17152865 0.634 4294967295
0.023887107 0.17179638 0.63499999 4294967295
0.025064485 0.17179358 0.63499999 4294967295
0.026241815 0.17179069 0.63499999 4294967295
0.027419101 0.17178777 0.63499999 4294967295
0.028596343 0.17178483 0.63499999 4294967295
0.029773543 0.17178182 0.63499999 4294967295
0.030950699 0.1717788 0.63499999 4294967295
0.032127809 0.17177576 0.63499999 4294967295
0.033304874 0.17177261 0.63499999 4294967295
0.034318987 0.17095795 0.63200003 4294967295
0.035490409 0.17095479 0.63200003 4294967295
0.036777794 0.17149255 0.634 4294967295
0.038012683 0.17175975 0.63499999 4294967295
0.039189525 0.17175645 0.63499999 4294967295
0.040366322 0.17175309 0.63499999 4294967295
0.041543067 0.17174967 0.63499999 4294967295
0.04285432 0.1722872 0.63700002 4294967295
0.04403469 0.17228371 0.63700002 4294967295
0.045214996 0.17228016 0.63700002 4294967295
0.046468101 0.17254706 0.63800001 4294967295
0.047650177 0.17254345 0.63800001 4294967295
0.048832212 0.1725398 0.63800001 4294967295
0.05001419 0.1725361 0.63800001 4294967295
0.051196124 0.17253236 0.63800001 4294967295
0.05254221 0.17306943 0.63999999 4294967295
0.053811703 0.17333603 0.64099997 4294967295
0.059934404 0.17385706 0.64300001 4294967295
0.061125223 0.17385298 0.64300001 4294967295
0.062315989 0.17384885 0.64300001 4294967295
0.063605465 0.17411506 0.64399999 4294967295
0.064797997 0.17411083 0.64399999 4294967295
0.066400342 0.175188 0.648 4294967294
-0.024268212 0.18066713 0.66299999 4294967295
-0.023002513 0.18039335 0.662 4294967295
-0.021740571 0.18011957 0.66100001 4294967295
-0.020389277 0.17902826 0.65700001 4294967295
-0.019052876 0.1779369 0.653 4294967295
-0.01784065 0.17793548 0.653 4294967295
-0.016552066 0.17711657 0.64999998 4294967295
-0.01532188 0.17684262 0.64899999 4294967295
-0.014073694 0.17629613 0.64700001 4294967295
-0.012852867 0.17602211 0.64600003 4294967295
-0.01161775 0.17547554 0.64399999 4294967295
-0.010422467 0.17547387 0.64399999 4294967295
-0.0092128953 0.17519975 0.64300001 4294967295
-0.0080070747 0.17492554 0.64200002 4294967295
-0.0068156221 0.17492379 0.64200002 4294967295
-0.00562421 0.17492199 0.64200002 4294967295
-0.0044259331 0.17464769 0.64099997 4294967295
-0.003236457 0.1746458 0.64099997 4294967295
-0.0020374411 0.17382653 0.63800001 4294967295
-0.00085227517 0.17355213 0.63700002 4294967295
0.00032965688 0.17355013 0.63700002 4294967295
0.0015115483 0.17354809 0.63700002 4294967295
0.0026849424 0.17300111 0.63499999 4294967295
0.0038569577 0.17272657 0.634 4294967295
0.0050172824 0.17217955 0.63200003 4294967295
0.0061897337 0.1721774 0.63200003 4294967295
0.0073621441 0.17217517 0.63200003 4294967295
0.0085615199 0.17271775 0.634 4294967295
0.0097375559 0.17271544 0.634 4294967295
0.010913552 0.17271312 0.634 4294967295
0.012089506 0.1727107 0.634 4294967295
0.013265414 0.17270827 0.634 4294967295
0.014464062 0.17297819 0.63499999 4294967295
0.015617109 0.17270328 0.634 4294967295
0.016792895 0.17270073 0.634 4294967295
0.017968636 0.17269814 0.634 4294967295
0.019144332 0.17269549 0.634 4294967295
0.020319987 0.17269284 0.634 4294967295
0.021495599 0.17269011 0.634 4294967295
0.022671167 0.17268735 0.634 4294967295
0.023846695 0.17268457 0.634 4294967295
0.025022175 0.17268172 0.634 4294967295
0.026197612 0.17267884 0.634 4294967295
0.027286656 0.17213118 0.63200003 4294967295
0.028458295 0.17212825 0.63200003 4294967295
0.029770542 0.1729423 0.63499999 4294967295
0.030947657 0.17293924 0.63499999 4294967295
0.032124724 0.17293619 0.63499999 4294967295
0.033301748 0.17293306 0.63499999 4294967295
0.034315839 0.1721129 0.63200003 4294967295
0.03548722 0.17210971 0.63200003 4294967295
0.036774553 0.17265113 0.634 4294967295
0.037949547 0.17264783 0.634 4294967295
0.039124493 0.17264451 0.634 4294967295
0.040299393 0.17264116 0.634 4294967295
0.041474245 0.17263772 0.634 4294967295
0.042716324 0.17290656 0.63499999 4294967295
0.043892942 0.17290311 0.63499999 4294967295
0.045140486 0.17317185 0.63599998 4294967295
0.046391696 0.17344056 0.63700002 4294967295
0.047571879 0.17343694 0.63700002 4294967295
0.048752014 0.17343327 0.63700002 4294967295
0.049932107 0.17342959 0.63700002 4294967295
0.05119238 0.17369811 0.63800001 4294967295
0.052374236 0.1736943 0.63800001 4294967295
0.053556036 0.17369048 0.63800001 4294967295
0.054909382 0.17423107 0.63999999 4294967295
0.056094799 0.17422716 0.63999999 4294967295
0.057280153 0.17422321 0.63999999 4294967295
0.058739532 0.17503586 0.64300001 4294967295
0.059930354 0.17503183 0.64300001 4294967295
0.061121132 0.17502774 0.64300001 4294967295
0.062311862 0.1750236 0.64300001 4294967293
0.063601293 0.17529161 0.64399999 4294967295
0.064793788 0.17528738 0.64399999 4294967294
0.066293605 0.17609967 0.64700001 4294967293
0.067491546 0.17609535 0.64700001 4294967295
-0.02426945 0.18187928 0.66299999 4294967295
-0.02283005 0.18023208 0.65700001 4294967295
-0.021478752 0.17913346 0.653 4294967295
-0.020266488 0.17913212 0.653 4294967295
-0.019025087 0.17885643 0.65200001 4294967295
-0.017760109 0.17830636 0.64999998 4294967295
-0.016528068 0.17803061 0.64899999 4294967295
-0.015299775 0.17775479 0.648 4294967295
-0.014053481 0.17720462 0.64600003 4294967295
-0.012814649 0.17665443 0.64399999 4294967295
-0.011619367 0.17665282 0.64399999 4294967295
-0.010407938 0.17637686 0.64300001 4294967295
-0.009200261 0.17610088 0.64200002 4294967295
-0.0080088088 0.17609914 0.64200002 4294967295
-0.0068173981 0.17609736 0.64200002 4294967295
-0.005626027 0.17609555 0.64200002 4294967295
-0.0044277883 0.17581943 0.64099997 4294967295
-0.0032383532 0.1758175 0.64099997 4294967295
-0.0020393697 0.17499274 0.63800001 4294967295
-0.00085290032 0.1744422 0.63599998 4294967295
0.00032713541 0.17444021 0.63599998 4294967295
0.0015071307 0.17443816 0.63599998 4294967295
0.0026786348 0.17388754 0.634 4294967295
0.0038426777 0.17333689 0.63200003 4294967295
0.0050151288 0.17333475 0.63200003 4294967295
0.0061875395 0.17333253 0.63200003 4294967295
0.0073599098 0.17333032 0.63200003 4294967295
0.0085322373 0.17332804 0.63200003 4294967295
0.0097045228 0.17332573 0.63200003 4294967295
0.010876769 0.17332338 0.63200003 4294967295
0.012048973 0.17332098 0.63200003 4294967295
0.013221132 0.17331854 0.63200003 4294967295
0.014393252 0.17331606 0.63200003 4294967295
0.015565327 0.17331354 0.63200003 4294967295
0.016737361 0.17331098 0.63200003 4294967295
0.017909354 0.17330837 0.63200003 4294967295
0.019081304 0.17330573 0.63200003 4294967295
0.020253208 0.17330307 0.63200003 4294967295
0.02142507 0.17330034 0.63200003 4294967295
0.022596888 0.17329757 0.63200003 4294967295
0.023768667 0.17329478 0.63200003 4294967295
0.024940405 0.17329192 0.63200003 4294967295
0.026070774 0.17301486 0.63099998 4294967295
0.027240563 0.17301193 0.63099998 4294967295
0.028410312 0.17300898 0.63099998 4294967295
0.029580016 0.17300597 0.63099998 4294967295
0.030749673 0.17300293 0.63099998 4294967295
0.031868707 0.17272569 0.63 4294967295
0.033036422 0.17272258 0.63 4294967295
0.03431268 0.17326775 0.63200003 4294967295
0.03548402 0.17326453 0.63200003 4294967295
0.036655307 0.17326127 0.63200003 4294967295
0.037826549 0.17325799 0.63200003 4294967295
0.038936041 0.17298053 0.63099998 4294967295
0.040105343 0.17297716 0.63099998 4294967295
0.041340012 0.1732479 0.63200003 4294967295
0.042645607 0.1737927 0.634 4294967295
0.043820329 0.17378922 0.634 4294967295
0.045065977 0.17405978 0.63499999 4294967295
0.046315283 0.17433031 0.63599998 4294967295
0.04749357 0.17432667 0.63599998 4294967295
0.048671819 0.17432299 0.63599998 4294967295
0.049850017 0.17431931 0.63599998 4294967295
0.051108405 0.17458963 0.63700002 4294967295
0.052288365 0.17458586 0.63700002 4294967295
0.053552203 0.1748561 0.63800001 4294967295
0.0549055 0.17540033 0.63999999 4294967295
0.05591559 0.17484832 0.63800001 4294967295
0.057097215 0.17484434 0.63800001 4294967295
0.058552824 0.17566247 0.64099997 4294967295
0.059833106 0.17593247 0.64200002 4294967295
0.061117042 0.17620237 0.64300001 4294967295
0.06230773 0.17619824 0.64300001 4294967295
0.06359712 0.17646809 0.64399999 4294967295
0.064789556 0.17646384 0.64399999 4294967294
0.066186875 0.17700759 0.64600003 4294967293
0.067382932 0.17700326 0.64600003 4294967293
0.068685085 0.17727289 0.64700001 4294967284
-0.023977844 0.1808821 0.65499997 4294967295
-0.022761831 0.18088083 0.65499997 4294967295
-0.021480072 0.18032721 0.653 4294967295
-0.020236811 0.18004972 0.65200001 4294967295
-0.019026486 0.1800483 0.65200001 4294967295
-0.017761547 0.1794946 0.64999998 4294967295
-0.016504075 0.1789408 0.648 4294967295
-0.015301289 0.17893933 0.648 4294967295
-0.014055033 0.17838551 0.64600003 4294967295
-0.012816239 0.17783163 0.64399999 4294967295
-0.011620997 0.17783 0.64399999 4294967295
-0.010409606 0.17755222 0.64300001 4294967295
-0.0092019681 0.17727438 0.64200002 4294967295
-0.0080105579 0.17727265 0.64200002 4294967295
-0.0068191877 0.17727083 0.64200002 4294967295
-0.005627858 0.17726903 0.64200002 4294967295
-0.0044296575 0.17699103 0.64099997 4294967295
-0.0032352086 0.17671302 0.63999999 4294967295
-0.0020349124 0.17560659 0.63599998 4294967295
-0.00085487694 0.17560464 0.63599998 4294967295
0.00032409572 0.17505041 0.634 4294967295
0.0015003396 0.1750484 0.634 4294967295
0.0026680997 0.17449409 0.63200003 4294967295
0.0038405515 0.17449197 0.63200003 4294967295
0.00500503 0.17421369 0.63099998 4294967295
0.0061755455 0.17421149 0.63099998 4294967295
0.0073460191 0.17420927 0.63099998 4294967295
0.0085164523 0.17420696 0.63099998 4294967295
0.0096868426 0.17420466 0.63099998 4294967295
0.010857192 0.17420226 0.63099998 4294967295
0.012027501 0.17419988 0.63099998 4294967295
0.013197766 0.17419741 0.63099998 4294967295
0.01436799 0.17419496 0.63099998 4294967295
0.01553817 0.1741924 0.63099998 4294967295
0.016708311 0.17418987 0.63099998 4294967295
0.017878408 0.17418723 0.63099998 4294967295
0.01904846 0.17418459 0.63099998 4294967295
0.020218473 0.17418188 0.63099998 4294967295
0.021388443 0.17417918 0.63099998 4294967295
0.022558369 0.17417639 0.63099998 4294967295
0.023728251 0.17417358 0.63099998 4294967295
0.024898086 0.17417072 0.63099998 4294967295
0.026067885 0.17416784 0.63099998 4294967295
0.027237633 0.17416491 0.63099998 4294967295
0.028407339 0.17416193 0.63099998 4294967295
0.029577006 0.17415893 0.63099998 4294967295
0.030746628 0.17415588 0.63099998 4294967295
0.031865619 0.17387678 0.63 4294967295
0.0330333 0.17387366 0.63 4294967295
0.034255218 0.17414646 0.63099998 4294967295
0.035424661 0.17414328 0.63099998 4294967295
0.036594056 0.17414001 0.63099998 4294967295
0.037763406 0.17413673 0.63099998 4294967295
0.038932715 0.17413339 0.63099998 4294967295
0.040101983 0.17413002 0.63099998 4294967295
0.041271191 0.17412661 0.63099998 4294967295
0.042507626 0.17439912 0.63200003 4294967295
0.043816827 0.17494749 0.634 4294967295
0.04506243 0.17521988 0.63499999 4294967295
0.046238873 0.17521627 0.63499999 4294967295
0.047415271 0.17521262 0.63499999 4294967295
0.048591629 0.17520897 0.63499999 4294967295
0.049846306 0.17548116 0.63599998 4294967295
0.051024418 0.17547742 0.63599998 4294967295
0.052284569 0.17574953 0.63700002 4294967295
0.05354837 0.17602158 0.63800001 4294967295
0.054730043 0.17601769 0.63800001 4294967295
0.055911675 0.17601375 0.63800001 4294967295
0.057093255 0.17600977 0.63800001 4294967295
0.058548801 0.17683339 0.64099997 4294967295
0.059829038 0.17710519 0.64200002 4294967295
0.061112925 0.17737696 0.64300001 4294967295
0.062303584 0.17737278 0.64300001 4294967295
0.063494176 0.17736858 0.64300001 4294967295
0.064785331 0.1776402 0.64399999 4294967292
0.066182591 0.17818758 0.64600003 4294967295
0.067378595 0.17818324 0.64600003 4294967295
0.068574563 0.17817888 0.64600003 4294967289
0.069878474 0.17845026 0.64700001 4294967020
-0.027880317 0.18375097 0.66100001 4294967295
-0.026653087 0.18374978 0.66100001 4294967295
-0.025425905 0.18374859 0.66100001 4294967295
-0.023979098 0.18207939 0.65499997 4294967295
-0.022728376 0.18180014 0.65399998 4294967295
-0.021448508 0.18124285 0.65200001 4294967295
-0.020238183 0.18124148 0.65200001 4294967295
-0.018969532 0.18068412 0.64999998 4294967295
-0.017735671 0.18040468 0.64899999 4294967295
-0.016505564 0.18012525 0.648 4294967295
-0.015279206 0.17984578 0.64700001 4294967295
-0.0140566 0.17956622 0.64600003 4294967295
-0.01281784 0.17900868 0.64399999 4294967295
-0.011622639 0.17900705 0.64399999 4294967295
-0.010395098 0.17844947 0.64200002 4294967295
-0.0091893515 0.17816977 0.64099997 4294967295
-0.0079998393 0.17816801 0.64099997 4294967295
-0.0068103657 0.17816623 0.64099997 4294967295
-0.0056209322 0.17816439 0.64099997 4294967295
-0.0044107991 0.17732868 0.63800001 4294967295
-0.0032168967 0.17677088 0.63599998 4294967295
-0.002033659 0.17649101 0.63499999 4294967295
-0.00085417234 0.17621107 0.634 4294967295
0.00032105541 0.17565322 0.63200003 4294967295
0.0014935483 0.17565116 0.63200003 4294967295
0.0026617821 0.17537111 0.63099998 4294967295
0.0038323384 0.17536898 0.63099998 4294967295
0.0050028535 0.1753668 0.63099998 4294967295
0.0061733285 0.17536458 0.63099998 4294967295
0.0073321238 0.17508443 0.63 4294967295
0.0085006617 0.17508213 0.63 4294967295
0.0096691567 0.17507981 0.63 4294967295
0.010837612 0.17507742 0.63 4294967295
0.012006024 0.17507501 0.63 4294967295
0.013174395 0.17507255 0.63 4294967295
0.014342725 0.17507006 0.63 4294967295
0.01551101 0.1750675 0.63 4294967295
0.016705733 0.17534283 0.63099998 4294967295
0.017847458 0.17506233 0.63 4294967295
0.019015616 0.17505966 0.63 4294967295
0.020183733 0.17505695 0.63 4294967295
0.021351811 0.17505425 0.63 4294967295
0.02251984 0.17505147 0.63 4294967295
0.023687826 0.17504862 0.63 4294967295
0.024855772 0.17504576 0.63 4294967295
0.026023675 0.17504287 0.63 4294967295
0.027234692 0.17531778 0.63099998 4294967295
0.028404359 0.17531477 0.63099998 4294967295
0.029573983 0.17531174 0.63099998 4294967295
0.030743562 0.1753087 0.63099998 4294967295
0.031811949 0.17474996 0.62900001 4294967295
0.032977734 0.17474681 0.62900001 4294967295
0.03414347 0.17474364 0.62900001 4294967295
0.035365306 0.17501822 0.63 4294967295
0.036532808 0.17501497 0.63 4294967295
0.037700266 0.17501166 0.63 4294967295
0.038867682 0.17500833 0.63 4294967295
0.04003505 0.17500493 0.63 4294967295
0.04120237 0.17500153 0.63 4294967295
0.042504162 0.17555363 0.63200003 4294967295
0.043675106 0.17555009 0.63200003 4294967295
0.044987917 0.17610209 0.634 4294967295
0.046162467 0.17609848 0.634 4294967295
0.047411632 0.1763726 0.63499999 4294967295
0.048587944 0.17636891 0.63499999 4294967295
0.049764216 0.17636517 0.63499999 4294967295
0.051020652 0.17663912 0.63599998 4294967295
0.052198678 0.17663534 0.63599998 4294967295
0.053460583 0.17690924 0.63700002 4294967295
0.054640368 0.17690532 0.63700002 4294967295
0.055820107 0.17690139 0.63700002 4294967295
0.056999795 0.17689742 0.63700002 4294967295
0.058453441 0.17772649 0.63999999 4294967292
0.059731778 0.17800012 0.64099997 4294967295
0.061013773 0.17827368 0.64200002 4294967295
0.062202532 0.17826952 0.64200002 4294967295
0.063489981 0.17854302 0.64300001 4294967295
0.064680502 0.17853874 0.64300001 4294967295
0.065973401 0.1788121 0.64399999 4294967295
0.067165673 0.17880778 0.64399999 4294967294
0.068570189 0.17935869 0.64600003 4294967290
0.06976606 0.17935428 0.64600003 4294967284
-0.031706505 0.18580195 0.66399997 4294967295
-0.030427741 0.18552107 0.66299999 4294967295
-0.029196769 0.18551996 0.66299999 4294967295
-0.027797107 0.18439953 0.65899998 4294967295
-0.026372014 0.18299927 0.65399998 4294967295
-0.025080932 0.18243842 0.65200001 4294967295
-0.023870537 0.18243718 0.65200001 4294967295
-0.022694929 0.18271568 0.653 4294967295
-0.021384053 0.18187489 0.64999998 4294967295
-0.020177485 0.18187352 0.64999998 4294967295
-0.018941769 0.1815923 0.64899999 4294967295
-0.017709803 0.18131107 0.648 4294967295
-0.016481591 0.1810298 0.64700001 4294967295
-0.015280746 0.18102825 0.64700001 4294967295
-0.014014655 0.18018728 0.64399999 4294967295
-0.012799552 0.17990586 0.64300001 4294967295
-0.011606248 0.17990421 0.64300001 4294967295
-0.010396792 0.17962274 0.64200002 4294967295
-0.0091910847 0.17934123 0.64099997 4294967295
-0.0080016125 0.17933945 0.64099997 4294967295
-0.0068015526 0.17905787 0.63999999 4294967295
-0.0056140153 0.179056 0.63999999 4294967295
-0.0044126865 0.1784946 0.63800001 4294967295
-0.0032188185 0.17793311 0.63599998 4294967295
-0.0020324129 0.17737164 0.634 4294967295
-0.00085346861 0.17681012 0.63200003 4294967295
0.00031851931 0.17652832 0.63099998 4294967295
0.0014891163 0.17652626 0.63099998 4294967295
0.0026596729 0.17652416 0.63099998 4294967295
0.0038301891 0.17652202 0.63099998 4294967295
0.0049927388 0.17624007 0.63 4294967295
0.0061613182 0.17623784 0.63 4294967295
0.007329856 0.17623556 0.63 4294967295
0.0084983539 0.17623328 0.63 4294967295
0.0096668098 0.17623092 0.63 4294967295
0.010835225 0.17622852 0.63 4294967295
0.011984543 0.17594638 0.62900001 4294967295
0.01315102 0.17594393 0.62900001 4294967295
0.014317455 0.17594141 0.62900001 4294967295
0.015508462 0.17621855 0.63 4294967295
0.016676668 0.17621598 0.63 4294967295
0.017816504 0.17593366 0.62900001 4294967295
0.01898277 0.17593099 0.62900001 4294967295
0.020148994 0.17592829 0.62900001 4294967295
0.021281287 0.17564587 0.62800002 4294967295
0.022445567 0.17564307 0.62800002 4294967295
0.023647405 0.17591994 0.62900001 4294967295
0.024813456 0.17591706 0.62900001 4294967295
0.025979465 0.17591415 0.62900001 4294967295
0.027145423 0.17591119 0.62900001 4294967295
0.028221322 0.17534888 0.62699997 4294967295
0.029383497 0.17534585 0.62699997 4294967295
0.03059434 0.17562248 0.62800002 4294967295
0.031758275 0.17561936 0.62800002 4294967295
0.032922164 0.17561622 0.62800002 4294967295
0.034086011 0.17561302 0.62800002 4294967295
0.035362076 0.17616908 0.63 4294967295
0.036529541 0.17616579 0.63 4294967295
0.037696958 0.1761625 0.63 4294967295
0.038864333 0.17615914 0.63 4294967295
0.040031668 0.17615575 0.63 4294967295
0.041198943 0.17615232 0.63 4294967295
0.042433441 0.17642844 0.63099998 4294967295
0.043602485 0.17642492 0.63099998 4294967295
0.044842441 0.17670096 0.63200003 4294967295
0.046013247 0.17669737 0.63200003 4294967295
0.047333322 0.17725287 0.634 4294967295
0.04850775 0.17724918 0.634 4294967295
0.049682118 0.17724544 0.634 4294967295
0.050936662 0.17752123 0.63499999 4294967295
0.052112795 0.1775174 0.63499999 4294967295
0.053372808 0.17779312 0.63599998 4294967295
0.054636471 0.17806876 0.63700002 4294967295
0.055816177 0.17806482 0.63700002 4294967295
0.056995824 0.17806084 0.63700002 4294967295
0.058449406 0.17889537 0.63999999 4294967292
0.059634518 0.17889129 0.63999999 4294967294
0.060914606 0.17916666 0.64099997 4294967295
0.062198367 0.17944202 0.64200002 4294967295
0.063485771 0.17971732 0.64300001 4294967295
0.06467624 0.17971303 0.64300001 4294967295
0.065866672 0.17970873 0.64300001 4294901754
0.067057051 0.1797044 0.64300001 4294967286
0.068247385 0.17970002 0.64300001 4294967287
0.069545649 0.17997506 0.64399999 4294967025
0.070737742 0.17997059 0.64399999 4294965739
0.072264843 0.18080445 0.64700001 4294900207
0.07679528 0.18302609 0.65499997 4293782244
0.078007482 0.18302135 0.65499997 4293847263
-0.032940418 0.18701662 0.66399997 4294967295
-0.031659801 0.18673392 0.66299999 4294967295
-0.030382935 0.18645118 0.662 4294967295
-0.029021734 0.18560512 0.65899998 4294967295
-0.027713906 0.18504068 0.65700001 4294967295
-0.026373213 0.18419456 0.65399998 4294967295
-0.025082169 0.18363005 0.65200001 4294967295
-0.023871811 0.1836288 0.65200001 4294967295
-0.02266149 0.18362747 0.65200001 4294967295
-0.021352509 0.1827812 0.64899999 4294967295
-0.020147838 0.1827798 0.64899999 4294967295
-0.018914018 0.18249677 0.648 4294967295
-0.017683947 0.18221368 0.64700001 4294967295
-0.016483106 0.18221216 0.64700001 4294967295
-0.015258681 0.18192899 0.64600003 4294967295
-0.014016245 0.18136416 0.64399999 4294967295
-0.01280118 0.18108089 0.64300001 4294967295
-0.011607917 0.18107924 0.64300001 4294967295
-0.010398498 0.18079591 0.64200002 4294967295
-0.0091928309 0.18051255 0.64099997 4294967295
-0.0079659419 0.17966597 0.63800001 4294967295
-0.0067714867 0.17938255 0.63700002 4294967295
-0.0055895569 0.17938069 0.63700002 4294967295
-0.0044007478 0.17909722 0.63599998 4294967295
-0.003220754 0.17909527 0.63599998 4294967295
-0.0020279652 0.17796691 0.63200003 4294967295
-0.00085547264 0.17796494 0.63200003 4294967295
0.00031647802 0.17768128 0.63099998 4294967295
0.0014870348 0.17767921 0.63099998 4294967295
0.0026575509 0.17767709 0.63099998 4294967295
0.0038280264 0.17767492 0.63099998 4294967295
0.00499054 0.17739116 0.63 4294967295
0.0061590788 0.17738891 0.63 4294967295
0.0073275766 0.17738661 0.63 4294967295
0.0084825484 0.17710274 0.62900001 4294967295
0.0096491082 0.17710041 0.62900001 4294967295
0.010815628 0.17709798 0.62900001 4294967295
0.011982106 0.17709556 0.62900001 4294967295
0.013127638 0.17681153 0.62800002 4294967295
0.014292179 0.17680901 0.62800002 4294967295
0.015456677 0.17680645 0.62800002 4294967295
0.016621131 0.17680387 0.62800002 4294967295
0.017757224 0.17651971 0.62699997 4294967295
0.01891974 0.17651702 0.62699997 4294967295
0.020082215 0.17651431 0.62699997 4294967295
0.021244645 0.17651156 0.62699997 4294967295
0.022407034 0.17650878 0.62699997 4294967295
0.023569383 0.17650594 0.62699997 4294967295
0.024731686 0.17650306 0.62699997 4294967295
0.025811352 0.17593718 0.625 4294967295
0.026969861 0.17593423 0.625 4294967295
0.028218335 0.17649423 0.62699997 4294967295
0.029380469 0.17649117 0.62699997 4294967295
0.030542554 0.17648812 0.62699997 4294967295
0.031704593 0.176485 0.62699997 4294967295
0.032866593 0.17648186 0.62699997 4294967295
0.033920001 0.17591573 0.625 4294967295
0.035078213 0.17591251 0.625 4294967295
0.036526259 0.17731652 0.63 4294967295
0.03763381 0.17703176 0.62900001 4294967295
0.03879929 0.1770284 0.62900001 4294967295
0.040028263 0.17730643 0.63 4294967295
0.041195516 0.177303 0.63 4294967295
0.042362712 0.17729951 0.63 4294967295
0.043529868 0.17729597 0.63 4294967295
0.04476792 0.17757384 0.63099998 4294967295
0.045936838 0.17757024 0.63099998 4294967295
0.047105707 0.17756659 0.63099998 4294967295
0.048274536 0.17756291 0.63099998 4294967295
0.049443316 0.17755918 0.63099998 4294967295
0.050612047 0.17755538 0.63099998 4294967295
0.051862799 0.17783298 0.63200003 4294967295
0.053201117 0.1783919 0.634 4294967295
0.054375265 0.17838798 0.634 4294967295
0.05563698 0.1786654 0.63499999 4294967295
0.05699183 0.17922415 0.63700002 4294967295
0.058445357 0.18006414 0.63999999 4294967295
0.059630428 0.18006006 0.63999999 4294967295
0.060910478 0.18033722 0.64099997 4294967295
0.062097315 0.18033306 0.64099997 4294967295
0.063284084 0.18032885 0.64099997 4294967295
0.06457141 0.18060592 0.64200002 4294967294
0.065759942 0.18060161 0.64200002 4294835705
0.066948429 0.18059725 0.64200002 4294967289
0.068243004 0.18087417 0.64300001 4294967289
0.06943325 0.18086974 0.64300001 4294967028
0.070623443 0.18086527 0.64300001 4294571756
0.071925268 0.18114202 0.64399999 4294769139
0.07345783 0.18198131 0.64700001 4294967033
0.074770667 0.18225795 0.648 4294374381
0.076087162 0.18253456 0.64899999 4294505710
0.077645488 0.1833736 0.65200001 4293914089
0.07897298 0.18365006 0.653 4293387745
0.080181338 0.18364525 0.653 4293454044
-0.032891829 0.18794663 0.66299999 4294967295
-0.031660859 0.18794559 0.66299999 4294967295
-0.030338138 0.18737754 0.66100001 4294967295
-0.028846713 0.18567556 0.65499997 4294967295
-0.027588531 0.18539093 0.65399998 4294967295
-0.026293771 0.1848228 0.65200001 4294967295
-0.024967998 0.18397114 0.64899999 4294967295
-0.023763258 0.18396987 0.64899999 4294967295
-0.022523787 0.18368506 0.648 4294967295
-0.021288071 0.18340026 0.64700001 4294967295
-0.020087153 0.18339884 0.64700001 4294967295
-0.018886276 0.18339743 0.64700001 4294967295
-0.017658101 0.18311249 0.64600003 4294967295
-0.016408196 0.18254405 0.64399999 4294967295
-0.015165756 0.1819756 0.64200002 4294967295
-0.013974315 0.18197401 0.64200002 4294967295
-0.012762997 0.1816889 0.64099997 4294967295
-0.011501268 0.18055347 0.63700002 4294967295
-0.01030302 0.18026832 0.63599998 4294967295
-0.009122869 0.18026657 0.63599998 4294967295
-0.0079427557 0.18026477 0.63599998 4294967295
-0.0067626825 0.18026298 0.63599998 4294967295
-0.005591427 0.18054454 0.63700002 4294967295
-0.004368044 0.17884205 0.63099998 4294967295
-0.0031973668 0.17884016 0.63099998 4294967295
-0.00202673 0.17883816 0.63099998 4294967295
-0.00085613318 0.17883615 0.63099998 4294967295
0.00031392524 0.17855069 0.63 4294967295
0.0014825865 0.1785486 0.63 4294967295
0.0026512074 0.17854649 0.63 4294967295
0.0038197881 0.17854431 0.63 4294967295
0.0049804095 0.1782587 0.62900001 4294967295
0.0061372812 0.17797305 0.62800002 4294967295
0.00730203 0.17797078 0.62800002 4294967295
0.0084667373 0.17796844 0.62800002 4294967295
0.0096160648 0.1776827 0.62699997 4294967295
0.010778836 0.17768028 0.62699997 4294967295
0.011903474 0.17711109 0.625 4294967295
0.013062451 0.17710863 0.625 4294967295
0.01422139 0.17710611 0.625 4294967295
0.015355675 0.17682016 0.62400001 4294967295
0.016512675 0.1768176 0.62400001 4294967295
0.017669633 0.17681497 0.62400001 4294967295
0.018826548 0.17681229 0.62400001 4294967295
0.01998342 0.17680958 0.62400001 4294967295
0.021140251 0.17680685 0.62400001 4294967295
0.022261307 0.17652071 0.62300003 4294967295
0.023416203 0.17651787 0.62300003 4294967295
0.024610488 0.17679833 0.62400001 4294967295
0.025725853 0.17651211 0.62300003 4294967295
0.026880616 0.17650916 0.62300003 4294967295
0.028035337 0.17650618 0.62300003 4294967295
0.029190013 0.17650315 0.62300003 4294967295
0.030344646 0.1765001 0.62300003 4294967295
0.031499237 0.17649697 0.62300003 4294967295
0.032653779 0.17649384 0.62300003 4294967295
0.033808284 0.17649066 0.62300003 4294967295
0.034962747 0.17648743 0.62300003 4294967295
0.036117159 0.17648417 0.62300003 4294967295
0.03763048 0.17818053 0.62900001 4294967295
0.038795926 0.17817713 0.62900001 4294967295
0.040024851 0.17845701 0.63 4294967295
0.041192062 0.17845353 0.63 4294967295
0.042359218 0.17845003 0.63 4294967295
0.04352634 0.17844653 0.63 4294967295
0.044693403 0.17844294 0.63 4294967295
0.045860428 0.17843932 0.63 4294967295
0.047027409 0.17843565 0.63 4294967295
0.048194345 0.17843197 0.63 4294967295
0.049361233 0.17842822 0.63 4294967295
0.050608274 0.17870767 0.63099998 4294967295
0.05177692 0.17870386 0.63099998 4294967295
0.053029429 0.17898321 0.63200003 4294967295
0.054371357 0.17954572 0.634 4294967295
0.055545423 0.17954175 0.634 4294967295
0.056719441 0.17953776 0.634 4294967293
0.057893414 0.17953372 0.634 4294967295
0.059719492 0.18151182 0.64099997 4294967295
0.060906328 0.18150768 0.64099997 4294967295
0.06209312 0.18150347 0.64099997 4294967295
0.063279867 0.18149924 0.64099997 4294967295
0.064365998 0.18121187 0.63999999 4294967294
0.065550782 0.18120754 0.63999999 4294967291
0.066944085 0.18176948 0.64200002 4294967294
0.06813249 0.18176509 0.64200002 4294967290
0.069320843 0.18176064 0.64200002 4294967288
0.070618972 0.18203929 0.64300001 4294901237
0.071809083 0.18203476 0.64300001 4294966511
0.073339738 0.18287949 0.64600003 4294966769
0.074650675 0.18315798 0.64700001 4294243306
0.075965263 0.18343639 0.648 4294177513
0.077283517 0.18371473 0.64899999 4293980137
0.078605413 0.18399306 0.64999998 4293782757
0.080176525 0.18483743 0.653 4293848033
0.0813848 0.18483259 0.653 4292861138
0.082593024 0.18482769 0.653 4292664527
-0.032843251 0.18887292 0.662 4294967295
-0.031614181 0.18887186 0.662 4294967295
-0.030339252 0.18858546 0.66100001 4294967295
-0.028847856 0.18687248 0.65499997 4294967295
-0.027505342 0.1860154 0.65200001 4294967295
-0.026174003 0.1851583 0.64899999 4294967295
-0.024892313 0.18458645 0.64700001 4294967295
-0.023691319 0.18458517 0.64700001 4294967295
-0.022455603 0.18429856 0.64600003 4294967295
-0.021256546 0.18429719 0.64600003 4294967295
-0.020057525 0.1842958 0.64600003 4294967295
-0.018770963 0.18343848 0.64300001 4294967295
-0.017550251 0.18315171 0.64200002 4294967295
-0.016358769 0.18315017 0.64200002 4294967295
-0.015049202 0.18172221 0.63700002 4294967295
-0.013845308 0.18143532 0.63599998 4294967295
-0.012665081 0.18143371 0.63599998 4294967295
-0.011466832 0.18114676 0.63499999 4294967295
-0.010288537 0.18114503 0.63499999 4294967295
-0.0091102803 0.18114331 0.63499999 4294967295
-0.0079320641 0.1811415 0.63499999 4294967295
-0.0067432504 0.18085442 0.634 4294967295
-0.005549408 0.18028204 0.63200003 4294967295
-0.0043630251 0.17970961 0.63 4294967295
-0.0031942436 0.17970768 0.63 4294967295
-0.0020255023 0.17970569 0.63 4294967295
-0.00085544068 0.17941843 0.62900001 4294967295
0.00031136561 0.17941637 0.62900001 4294967295
0.0014757819 0.17912903 0.62800002 4294967295
0.0026406527 0.17912689 0.62800002 4294967295
0.0038054835 0.17912471 0.62800002 4294967295
0.0049702725 0.17912249 0.62800002 4294967295
0.0061350223 0.17912024 0.62800002 4294967295
0.0072881058 0.17883271 0.62699997 4294967295
0.0084509188 0.17883037 0.62699997 4294967295
0.009613689 0.178828 0.62699997 4294967295
0.010742047 0.17825517 0.625 4294967295
0.011881985 0.17796753 0.62400001 4294967295
0.013039067 0.17796504 0.62400001 4294967295
0.014196112 0.17796254 0.62400001 4294967295
0.015353113 0.17795996 0.62400001 4294967295
0.016510071 0.17795737 0.62400001 4294967295
0.017638678 0.17766954 0.62300003 4294967295
0.0187937 0.17766687 0.62300003 4294967295
0.019948678 0.17766415 0.62300003 4294967295
0.021103613 0.17766136 0.62300003 4294967295
0.022258511 0.17765857 0.62300003 4294967295
0.023413364 0.17765573 0.62300003 4294967295
0.024568172 0.17765287 0.62300003 4294967295
0.025722938 0.17764993 0.62300003 4294967295
0.02687766 0.17764698 0.62300003 4294967295
0.02803234 0.177644 0.62300003 4294967295
0.029186981 0.17764093 0.62300003 4294967295
0.030292869 0.17735274 0.62199998 4294967295
0.031445563 0.17734963 0.62199998 4294967295
0.03259822 0.17734648 0.62199998 4294967295
0.033750828 0.17734329 0.62199998 4294967295
0.034903396 0.17734006 0.62199998 4294967295
0.036055919 0.1773368 0.62199998 4294967295
0.037268218 0.17761859 0.62300003 4294967295
0.038484178 0.17790031 0.62400001 4294967295
0.039894383 0.17903727 0.62800002 4294967295
0.041123219 0.17931892 0.62900001 4294967295
0.042288486 0.1793154 0.62900001 4294967295
0.043453712 0.17931189 0.62900001 4294967295
0.044618886 0.17930828 0.62900001 4294967295
0.045784023 0.17930469 0.62900001 4294967295
0.046949111 0.17930102 0.62900001 4294967295
0.048114154 0.17929731 0.62900001 4294967295
0.049279157 0.17929359 0.62900001 4294967295
0.0504441 0.17928982 0.62900001 4294967295
0.051773105 0.17985606 0.63099998 4294967295
0.05302557 0.18013722 0.63200003 4294967295
0.054367445 0.18070334 0.634 4294967295
0.055541471 0.18069939 0.634 4294967295
0.056715444 0.18069534 0.634 4294967295
0.05788938 0.1806913 0.634 4294967295
0.05906326 0.18068723 0.634 4294967295
0.060237102 0.18068312 0.634 4294967294
0.061410896 0.18067896 0.634 4294967294
0.062683344 0.18095975 0.63499999 4294967293
0.063959464 0.18124045 0.63599998 4294967292
0.065239236 0.18152115 0.63700002 4294967292
0.066522665 0.18180177 0.63800001 4294967290
0.067915857 0.18236728 0.63999999 4294967286
0.069208436 0.18264779 0.64099997 4294967285
0.07050468 0.18292825 0.64200002 4294835697
0.071692899 0.18292373 0.64200002 4294900709
0.072994582 0.1832041 0.64300001 4294966502
0.074530683 0.18405423 0.64600003 4294242793
0.075843379 0.18433446 0.64700001 4294045157
0.0772788 0.18489954 0.64899999 4294111207
0.07847973 0.18489479 0.64899999 4293848035
0.080048934 0.18574463 0.65200001 4293717214
0.08137995 0.18602464 0.653 4293125078
0.082588129 0.18601973 0.653 4292796882
-0.036586791 0.19037269 0.66299999 4294967295
-0.035355795 0.19037175 0.66299999 4294967295
-0.034073364 0.19008361 0.662 4294967295
-0.032844294 0.19008256 0.662 4294967295
-0.031567514 0.18979438 0.66100001 4294967295
-0.030248579 0.18921898 0.65899998 4294967295
-0.028849019 0.1880693 0.65499997 4294967295
-0.027295601 0.18577109 0.64700001 4294967295
-0.026054241 0.18548277 0.64600003 4294967295
-0.024778154 0.18490726 0.64399999 4294967295
-0.02358277 0.18490595 0.64399999 4294967295
-0.022387423 0.18490459 0.64399999 4294967295
-0.021159209 0.1846161 0.64300001 4294967295
-0.019934747 0.18432759 0.64200002 4294967295
-0.018743234 0.18432614 0.64200002 4294967295
-0.017524414 0.18403752 0.64099997 4294967295
-0.01633483 0.18403596 0.64099997 4294967295
-0.015050775 0.18288596 0.63700002 4294967295
-0.013846919 0.18259728 0.63599998 4294967295
-0.012646815 0.18230852 0.63499999 4294967295
-0.011468519 0.18230684 0.63499999 4294967295
-0.010274061 0.18201801 0.634 4294967295
-0.0090977009 0.18201627 0.634 4294967295
-0.0079338746 0.18230152 0.63499999 4294967295
-0.0067450986 0.1820126 0.634 4294967295
-0.0055512902 0.18143655 0.63200003 4294967295
-0.0043580136 0.18057337 0.62900001 4294967295
-0.0031911274 0.18057144 0.62900001 4294967295
-0.0020242813 0.18056946 0.62900001 4294967295
-0.00085747504 0.18056741 0.62900001 4294967295
0.00030879935 0.18027827 0.62800002 4294967295
0.0014736705 0.18027619 0.62800002 4294967295
0.0026385016 0.18027402 0.62800002 4294967295
0.003797235 0.17998476 0.62699997 4294967295
0.00496013 0.17998251 0.62699997 4294967295
0.006122984 0.17998025 0.62699997 4294967295
0.0072625582 0.17940389 0.625 4294967295
0.0084216222 0.17940152 0.625 4294967295
0.0095806429 0.17939916 0.625 4294967295
