# .PCD v0.7 - Point Cloud Data file format
VERSION 0.7
FIELDS x y z rgba
SIZE 4 4 4 4
TYPE F F F U
COUNT 1 1 1 1
WIDTH 1124
HEIGHT 1
VIEWPOINT 0 0 0 1 0 0 0
POINTS 1124
DATA ascii
0.19614425 0.15566784 0.74400002 4292137160
0.19804911 0.15607828 0.74599999 4291742402
0.19969396 0.15627944 0.74699998 4291676602
0.20161161 0.15668973 0.74900001 4291544760
0.20299459 0.1566816 0.74900001 4291610042
0.20465031 0.15688257 0.75 4291215284
0.20603505 0.15687434 0.75 4291477690
0.20741969 0.15686609 0.75 4291280055
0.20880428 0.15685779 0.75 4291278508
0.21018881 0.15684947 0.75 4291278508
0.21072702 0.15621373 0.74699998 4290819497
0.21210594 0.15620539 0.74699998 4290029724
0.21348479 0.156197 0.74699998 4289898143
0.22111697 0.15868039 0.759 4289635736
0.22251782 0.15867175 0.759 4289569189
0.22450864 0.15908113 0.76099998 4289569189
0.225913 0.1590724 0.76099998 4289241744
0.096961468 0.1693878 0.80000001 4294967295
0.098443672 0.16938254 0.80000001 4294967295
0.099675983 0.16895376 0.79799998 4294967295
0.10115434 0.16894841 0.79799998 4294967295
0.10263263 0.16894302 0.79799998 4294967295
0.10150158 0.16470355 0.778 4294967295
0.10267807 0.16427481 0.77600002 4294967295
0.10384706 0.16384603 0.77399999 4294967295
0.10528065 0.16384059 0.77399999 4294967295
0.10657629 0.16362345 0.773 4294967295
0.10800791 0.16361795 0.773 4294967295
0.10915629 0.16318908 0.77100003 4294967295
0.11001034 0.16233689 0.76700002 4294967295
0.11143064 0.16233128 0.76700002 4294967295
0.11270376 0.16211399 0.76599997 4294967295
0.11382413 0.16168505 0.764 4294967295
0.1144845 0.16062124 0.759 4294967295
0.11558437 0.16019228 0.75700003 4294967295
0.11698584 0.16018653 0.75700003 4294967295
0.11838724 0.16018073 0.75700003 4294967295
0.11978859 0.16017491 0.75700003 4294967295
0.1208697 0.15974583 0.755 4294967295
0.12210526 0.15952836 0.75400001 4294967295
0.12317326 0.15909925 0.75199997 4294967295
0.12456512 0.15909329 0.75199997 4294967295
0.12562191 0.15866417 0.75 4294967295
0.12700993 0.15865815 0.75 4294967295
0.12822667 0.15844049 0.74900001 4294967295
0.12961273 0.15843441 0.74900001 4294967295
0.13064891 0.15800518 0.74699998 4294967295
0.13203113 0.15799898 0.74699998 4294967295
0.13341327 0.15799277 0.74699998 4294967295
0.13479535 0.15798646 0.74699998 4294967295
0.13617739 0.15798016 0.74699998 4294967295
0.13737521 0.15776233 0.74599999 4294967295
0.13875526 0.15775596 0.74599999 4294967295
0.13975957 0.15732659 0.74400002 4294967295
0.14113578 0.15732014 0.74400002 4294967295
0.14251198 0.15731366 0.74400002 4294967295
0.14350128 0.15688422 0.74199998 4294967295
0.14467838 0.15666625 0.741 4294967295
0.14604884 0.15665966 0.741 4294967295
0.1474192 0.15665303 0.741 4294967295
0.14838794 0.15622357 0.73900002 4294967295
0.14975451 0.15621687 0.73900002 4294967295
0.15152998 0.1566329 0.741 4294967295
0.15290013 0.15662611 0.741 4294967295
0.1542702 0.15661928 0.741 4294967295
0.15522017 0.15618972 0.73900002 4294967295
0.15658641 0.15618283 0.73900002 4294967295
0.15795261 0.1561759 0.73900002 4294967295
0.15931876 0.15616892 0.73900002 4294967295
0.16068482 0.15616192 0.73900002 4294967295
0.16183156 0.15594356 0.73799998 4294967295
0.1631957 0.15593649 0.73799998 4294967295
0.16455975 0.15592939 0.73799998 4294967295
0.16592374 0.15592223 0.73799998 4294967295
0.16728766 0.15591504 0.73799998 4294967295
0.16865157 0.15590781 0.73799998 4294967295
0.16955465 0.15547806 0.736 4294967292
0.17091471 0.15547079 0.736 4294572787
0.17227474 0.15546347 0.736 4294901239
0.17410649 0.15587854 0.73799998 4294967032
0.17547008 0.15587111 0.73799998 4294506481
0.17683363 0.15586367 0.73799998 4294243052
0.17819712 0.15585619 0.73799998 4293848296
0.17956056 0.15584868 0.73799998 4293848296
0.18092389 0.15584111 0.73799998 4293914091
0.18253423 0.15604468 0.73900002 4293848298
0.18389934 0.15603706 0.73900002 4293387484
0.18526438 0.15602939 0.73900002 4293321691
0.18713446 0.15644392 0.741 4292664277
0.18850307 0.15643615 0.741 4292664277
0.18987168 0.15642834 0.741 4292795860
0.19124019 0.15642053 0.741 4292401102
0.19286859 0.15662374 0.74199998 4292334535
0.19423887 0.15661581 0.74199998 4291807934
0.19613634 0.15703 0.74400002 4291939268
0.19751017 0.15702198 0.74400002 4291742145
0.19941859 0.15743601 0.74599999 4291545530
0.20079602 0.15742792 0.74599999 4291479737
0.20298646 0.15805285 0.74900001 4291544760
0.20464215 0.15825565 0.75 4291018416
0.20602685 0.15824741 0.75 4291148737
0.20741142 0.15823913 0.75 4290951357
0.20879599 0.15823084 0.75 4290687906
0.21018055 0.1582225 0.75 4290753699
0.21071872 0.15758125 0.74699998 4290621861
0.21209762 0.15757287 0.74699998 4289832346
0.22110842 0.16006982 0.759 4289701261
0.22250918 0.16006114 0.759 4289437351
0.22449993 0.16047417 0.76099998 4289371558
0.22590429 0.16046543 0.76099998 4289175437
0.22880211 0.16151088 0.76599997 4288583300
0.096713848 0.17042658 0.79799998 4294967295
0.098192297 0.17042127 0.79799998 4294967295
0.099420868 0.16998886 0.796 4294967295
0.10089549 0.16998351 0.796 4294967295
0.10095537 0.16762915 0.78500003 4294967295
0.10149626 0.16612904 0.778 4294967295
0.10267273 0.16569662 0.77600002 4294967295
0.10384168 0.16526416 0.77399999 4294967295
0.10527523 0.16525872 0.77399999 4294967295
0.10657085 0.16503972 0.773 4294967295
0.1080024 0.16503419 0.773 4294967295
0.10915076 0.16460165 0.77100003 4294967295
0.11000478 0.1637421 0.76700002 4294967295
0.11142504 0.16373648 0.76700002 4294967295
0.11269812 0.16351734 0.76599997 4294967295
0.11381844 0.16308472 0.764 4294967295
0.11447883 0.16201171 0.759 4294967295
0.11557864 0.16157907 0.75700003 4294967295
0.11698008 0.16157331 0.75700003 4294967295
0.11838146 0.16156749 0.75700003 4294967295
0.11946627 0.16113479 0.755 4294967295
0.12086383 0.16112891 0.755 4294967295
0.12209935 0.16090956 0.75400001 4294967295
0.12316734 0.1604768 0.75199997 4294967295
0.12455913 0.1604708 0.75199997 4294967295
0.12595087 0.16046478 0.75199997 4294967295
0.12700388 0.16003194 0.75 4294967295
0.1282206 0.1598125 0.74900001 4294967295
0.12926051 0.15937962 0.74699998 4294967295
0.13046788 0.15916011 0.74599999 4294967295
0.13184819 0.15915391 0.74599999 4294967295
0.13340704 0.159361 0.74699998 4294967295
0.13478909 0.15935472 0.74699998 4294967295
0.13617107 0.15934838 0.74699998 4294967295
0.13755299 0.15934201 0.74699998 4294967295
0.13874888 0.1591223 0.74599999 4294967295
0.14012887 0.15911585 0.74599999 4294967295
0.14112934 0.15868281 0.74400002 4294967295
0.1425055 0.15867631 0.74400002 4294967295
0.14349478 0.15824319 0.74199998 4294967295
0.14467186 0.15802337 0.741 4294967295
0.14604226 0.15801676 0.741 4294967295
0.14701471 0.15758364 0.73900002 4294967295
0.14838132 0.15757698 0.73900002 4294967295
0.14974782 0.15757027 0.73900002 4294967295
0.1511143 0.15756352 0.73900002 4294967295
0.15248069 0.15755673 0.73900002 4294967295
0.15384701 0.15754989 0.73900002 4294967295
0.1552133 0.15754302 0.73900002 4294967295
0.15657952 0.15753613 0.73900002 4294967295
0.15794569 0.15752918 0.73900002 4294967295
0.15931179 0.15752217 0.73900002 4294967295
0.16067784 0.15751517 0.73900002 4294967295
0.16182455 0.15729497 0.73799998 4294967295
0.16318861 0.15728788 0.73799998 4294967295
0.16455266 0.15728074 0.73799998 4294967295
0.16591659 0.15727358 0.73799998 4294967295
0.1672805 0.15726639 0.73799998 4294967295
0.16864434 0.15725914 0.73799998 4294967295
0.16954742 0.15682572 0.736 4294967291
0.17090745 0.15681842 0.736 4294835959
0.17226742 0.15681109 0.736 4294506996
0.17409915 0.15722981 0.73799998 4294375154
0.17546271 0.15722238 0.73799998 4293783525
0.176347 0.15678887 0.736 4294112490
0.17770676 0.15678141 0.736 4294638064
0.17955306 0.15719989 0.73799998 4293980135
0.18091635 0.15719232 0.73799998 4294177259
0.18252665 0.1573977 0.73900002 4293519586
0.18389173 0.15739004 0.73900002 4293321691
0.18575807 0.15780829 0.741 4293321691
0.18712677 0.15780056 0.741 4292401102
0.18849532 0.15779278 0.741 4292664531
0.19012012 0.15799788 0.74199998 4292795606
0.19149046 0.15799002 0.74199998 4292137933
0.19286072 0.15798213 0.74199998 4292202692
0.19423097 0.1579742 0.74199998 4292071106
0.19560112 0.15796623 0.74199998 4291874245
0.19697125 0.15795824 0.74199998 4291545280
0.19887593 0.15837595 0.74400002 4291480000
0.20024966 0.15836786 0.74400002 4291414207
0.20162332 0.15835974 0.74400002 4291545534
0.20299691 0.1583516 0.74400002 4290953141
0.20601864 0.15962036 0.75 4290886587
0.20740321 0.15961206 0.75 4290623158
0.20878771 0.15960374 0.75 4290556836
0.21017222 0.15959539 0.75 4290556836
0.21155661 0.159587 0.75 4290294182
0.21294102 0.15957856 0.75 4290096803
0.21575418 0.16063394 0.755 4290426032
0.21714771 0.16062538 0.755 4290228652
0.21912006 0.16104229 0.75700003 4289243027
0.22051717 0.16103366 0.75700003 4288979855
0.22250056 0.16145043 0.759 4289502365
0.22449122 0.16186711 0.76099998 4289502365
0.22589558 0.16185834 0.76099998 4289175439
0.22819592 0.16248757 0.764 4288912011
0.23020679 0.16290405 0.76599997 4287467141
0.096708611 0.17188863 0.79799998 4294967295
0.098187022 0.17188336 0.79799998 4294967295
0.099415548 0.17144726 0.796 4294967295
0.10089012 0.17144187 0.796 4294967295
0.10069285 0.16863661 0.78299999 4294967295
0.10175183 0.16798511 0.77999997 4294967295
0.10266735 0.16711828 0.77600002 4294967295
0.10383628 0.16668214 0.77399999 4294967295
0.10526978 0.16667669 0.77399999 4294967295
0.10656536 0.16645584 0.773 4294967295
0.10771745 0.16601962 0.77100003 4294967295
0.1091452 0.16601406 0.77100003 4294967295
0.11028603 0.16557781 0.76899999 4294967295
0.11141943 0.16514154 0.76700002 4294967295
0.11283959 0.16513588 0.76700002 4294967295
0.11381275 0.16448425 0.764 4294967295
0.11477476 0.16383265 0.76099998 4294967295
0.11587826 0.16339631 0.759 4294967295
0.11728335 0.16339052 0.759 4294967295
0.11837562 0.16295414 0.75700003 4294967295
0.11946045 0.16251776 0.755 4294967295
0.12085794 0.16251186 0.755 4294967295
0.12209344 0.16229068 0.75400001 4294967295
0.12348896 0.16228467 0.75400001 4294967295
0.12455316 0.1618482 0.75199997 4294967295
0.12594485 0.16184215 0.75199997 4294967295
0.12699783 0.16140565 0.75 4294967295
0.12821451 0.16118433 0.74900001 4294967295
0.1292544 0.1607478 0.74699998 4294967295
0.13046172 0.16052642 0.74599999 4294967295
0.131842 0.16052023 0.74599999 4294967295
0.1334008 0.16072913 0.74699998 4294967295
0.13460238 0.16050765 0.74599999 4294967295
0.13598248 0.16050132 0.74599999 4294967295
0.13736251 0.16049494 0.74599999 4294967295
0.13874249 0.16048853 0.74599999 4294967295
0.13974674 0.16005181 0.74400002 4294967295
0.14112288 0.16004533 0.74400002 4294967295
0.14249897 0.16003878 0.74400002 4294967295
0.143875 0.16003223 0.74400002 4294967295
0.1446653 0.15938036 0.741 4294967295
0.14603566 0.15937373 0.741 4294967295
0.14700811 0.15893693 0.73900002 4294967295
0.14837465 0.15893023 0.73900002 4294967295
0.14974113 0.15892352 0.73900002 4294967295
0.15110756 0.15891676 0.73900002 4294967295
0.15247391 0.15890995 0.73900002 4294967295
0.15384021 0.15890311 0.73900002 4294967295
0.15520646 0.15889622 0.73900002 4294967295
0.15657264 0.15888931 0.73900002 4294967295
0.15793875 0.15888233 0.73900002 4294967295
0.15930484 0.15887535 0.73900002 4294967295
0.16067083 0.15886831 0.73900002 4294967295
0.16203679 0.15886123 0.73900002 4294967295
0.16318156 0.15863915 0.73799998 4294967295
0.16454552 0.158632 0.73799998 4294967295
0.16590945 0.15862483 0.73799998 4294967295
0.16749999 0.15883255 0.73900002 4294967295
0.16863713 0.15861034 0.73799998 4294967295
0.16954015 0.15817325 0.736 4294967290
0.17090017 0.15816593 0.736 4294967291
0.17179202 0.15772882 0.73400003 4294572791
0.1731482 0.15772143 0.73400003 4294440949
0.1754553 0.15857352 0.73799998 4294046184
0.17633958 0.15813632 0.736 4294046184
0.1776993 0.15812884 0.736 4294046182
0.17954552 0.15855098 0.73799998 4293585631
0.1809088 0.15854338 0.73799998 4293650656
0.18251903 0.15875059 0.73900002 4293321691
0.18388408 0.15874293 0.73900002 4293387486
0.18524905 0.15873522 0.73900002 4293518815
0.18661401 0.15872748 0.73900002 4292598736
0.18797886 0.1587197 0.73900002 4292795858
0.1898561 0.15914142 0.741 4292663504
0.19122455 0.15913357 0.741 4292005831
0.19259295 0.15912566 0.741 4292333762
0.19396131 0.15911773 0.741 4292465349
0.19532961 0.15910977 0.741 4292070845
0.19669783 0.15910177 0.741 4291676087
0.19833331 0.15930843 0.74199998 4291085244
0.20024158 0.15972973 0.74400002 4290887609
0.2016152 0.1597216 0.74400002 4291018934
0.20655973 0.16142248 0.75199997 4290820789
0.20794795 0.16141415 0.75199997 4290426032
0.20933613 0.1614058 0.75199997 4290426284
0.21072434 0.16139741 0.75199997 4290228904
0.21211241 0.16138899 0.75199997 4290162342
0.21350046 0.16138053 0.75199997 4289767840
0.2157457 0.16201581 0.755 4289374627
0.21713917 0.16200726 0.755 4289243040
0.2191115 0.1624278 0.75700003 4289570454
0.22050858 0.16241917 0.75700003 4288978317
0.22249191 0.16283959 0.759 4289240208
0.22448251 0.16325991 0.76099998 4289306001
0.22588682 0.16325113 0.76099998 4289044112
0.22758982 0.16345684 0.76200002 4288780941
0.2295969 0.16387697 0.764 4287466628
0.23100661 0.16386807 0.764 4287203455
0.096461013 0.17291614 0.796 4294967295
0.097935654 0.17291085 0.796 4294967295
0.098286234 0.17095055 0.787 4294967295
0.099490605 0.17051077 0.78500003 4294967295
0.1006875 0.17007101 0.78299999 4294967295
0.10187691 0.16963121 0.78100002 4294967295
0.10266197 0.16853982 0.77600002 4294967295
0.10409916 0.16853438 0.77600002 4294967295
0.10526433 0.16809452 0.77399999 4294967295
0.10655986 0.16787185 0.773 4294967295
0.10771192 0.16743195 0.77100003 4294967295
0.10913962 0.16742636 0.77100003 4294967295
0.11028044 0.16698642 0.76899999 4294967295
0.1114138 0.16654648 0.76700002 4294967295
0.11268678 0.16632365 0.76599997 4294967295
0.11380704 0.16588363 0.764 4294967295
0.11476904 0.16522653 0.76099998 4294967295
0.11587251 0.16478652 0.759 4294967295
0.11696852 0.16434652 0.75700003 4294967295
0.1183698 0.16434066 0.75700003 4294967295
0.11945459 0.1639006 0.755 4294967295
0.12085203 0.16389467 0.755 4294967295
0.12208751 0.16367163 0.75400001 4294967295
0.12315543 0.16323151 0.75199997 4294967295
0.12454715 0.16322549 0.75199997 4294967295
0.12560387 0.16278532 0.75 4294967295
0.12699175 0.16277923 0.75 4294967295
0.1282084 0.16255605 0.74900001 4294967295
0.12959433 0.1625499 0.74900001 4294967295
0.13063042 0.16210963 0.74699998 4294967295
0.13201252 0.16210341 0.74699998 4294967295
0.13339454 0.16209713 0.74699998 4294967295
0.13459608 0.16187382 0.74599999 4294967295
0.13597614 0.16186745 0.74599999 4294967295
0.13735615 0.16186106 0.74599999 4294967295
0.13836414 0.1614207 0.74400002 4294967295
0.1397403 0.16141424 0.74400002 4294967295
0.14111641 0.16140774 0.74400002 4294967295
0.14249247 0.16140118 0.74400002 4294967295
0.14386846 0.16139461 0.74400002 4294967295
0.14485395 0.16095415 0.74199998 4294967295
0.14602904 0.16073057 0.741 4294967295
0.14700146 0.16029011 0.73900002 4294967295
0.14836796 0.16028339 0.73900002 4294967295
0.14973441 0.16027665 0.73900002 4294967295
0.1511008 0.16026989 0.73900002 4294967295
0.1524671 0.16026306 0.73900002 4294967295
0.15383337 0.16025619 0.73900002 4294967295
0.15519959 0.16024931 0.73900002 4294967295
0.15656574 0.16024238 0.73900002 4294967295
0.15793182 0.16023538 0.73900002 4294967295
0.15929785 0.16022839 0.73900002 4294967295
0.1606638 0.16022132 0.73900002 4294967295
0.16202973 0.16021425 0.73900002 4294967295
0.16339555 0.16020711 0.73900002 4294967295
0.16476136 0.16019994 0.73900002 4294967295
0.1661271 0.16019273 0.73900002 4294967295
0.16749276 0.16018547 0.73900002 4294967295
0.16862988 0.15996143 0.73799998 4294967295
0.1695329 0.15952066 0.736 4294507246
0.17089286 0.15951334 0.736 4294638832
0.1717847 0.15907253 0.73400003 4294441201
0.17314084 0.15906514 0.73400003 4294441201
0.17544787 0.15992454 0.73799998 4294637551
0.17633216 0.15948369 0.736 4294177000
0.17769182 0.15947616 0.736 4293980135
0.179538 0.15990195 0.73799998 4293848548
0.18090124 0.15989435 0.73799998 4293454306
0.18251143 0.16010337 0.73900002 4292993755
0.18387643 0.16009568 0.73900002 4293255385
0.18524139 0.16008797 0.73900002 4293255385
0.18660627 0.16008021 0.73900002 4292598736
0.18797109 0.16007243 0.73900002 4292532942
0.18984829 0.1604978 0.741 4292072139
0.19121672 0.16048992 0.741 4292006346
0.19258507 0.160482 0.741 4292070595
0.19395338 0.16047406 0.741 4291807166
0.19532165 0.16046609 0.741 4291544249
0.19668987 0.16045807 0.741 4291478455
0.19832526 0.16066654 0.74199998 4291018936
0.19969524 0.16065845 0.74199998 4291018936
0.20106514 0.16065031 0.74199998 4291215284
0.2016165 0.15999267 0.73900002 4290952111
0.20298079 0.15998451 0.73900002 4290558387
0.20793965 0.16279049 0.75199997 4290492338
0.20932782 0.16278213 0.75199997 4290361006
0.21071595 0.16277373 0.75199997 4289900455
0.21210398 0.16276529 0.75199997 4290096549
0.21349201 0.16275683 0.75199997 4289570204
0.21573719 0.1633976 0.755 4289438618
0.21770585 0.16382185 0.75700003 4289307289
0.21910293 0.16381322 0.75700003 4289241757
0.22049996 0.16380456 0.75700003 4289044379
0.22248322 0.16422863 0.759 4289504148
0.22447377 0.16465262 0.76099998 4288912011
0.22617488 0.16486017 0.76200002 4288518284
0.22758099 0.16485134 0.76200002 4288320905
0.22898702 0.16484246 0.76200002 4287597700
0.23039304 0.16483358 0.76200002 4287268735
0.09645576 0.17437428 0.796 4294967295
0.097930349 0.17436896 0.796 4294967295
0.098280951 0.17239214 0.787 4294967295
0.099485286 0.1719487 0.78500003 4294967295
0.10068215 0.17150524 0.78299999 4294967295
0.10187154 0.17106177 0.78100002 4294967295
0.10318572 0.1708373 0.77999997 4294967295
0.10409373 0.16995575 0.77600002 4294967295
0.10525885 0.16951223 0.77399999 4294967295
0.10655433 0.16928768 0.773 4294967295
0.10770637 0.1688441 0.77100003 4294967295
0.10885093 0.16840053 0.76899999 4294967295
0.11027481 0.16839488 0.76899999 4294967295
0.11140814 0.16795127 0.76700002 4294967295
0.1126811 0.16772658 0.76599997 4294967295
0.11380134 0.16728291 0.764 4294967295
0.1147633 0.16662027 0.76099998 4294967295
0.11586674 0.16617659 0.759 4294967295
0.11696272 0.16573289 0.75700003 4294967295
0.11836397 0.16572702 0.75700003 4294967295
0.11944871 0.16528328 0.755 4294967295
0.12084612 0.16527733 0.755 4294967295
0.12208156 0.16505246 0.75400001 4294967295
0.12314946 0.16460864 0.75199997 4294967295
0.12454113 0.16460261 0.75199997 4294967295
0.12559782 0.16415876 0.75 4294967295
0.12698567 0.16415265 0.75 4294967295
0.12837344 0.1641465 0.75 4294967295
0.12958816 0.16392146 0.74900001 4294967295
0.13062423 0.16347753 0.74699998 4294967295
0.13182957 0.16325244 0.74599999 4294967295
0.13320971 0.16324615 0.74599999 4294967295
0.13458978 0.16323981 0.74599999 4294967295
0.13596977 0.16323344 0.74599999 4294967295
0.13698152 0.16278943 0.74400002 4294967295
0.13835771 0.162783 0.74400002 4294967295
0.13973387 0.16277653 0.74400002 4294967295
0.14110991 0.16276999 0.74400002 4294967295
0.14248593 0.16276343 0.74400002 4294967295
0.14386187 0.16275683 0.74400002 4294967295
0.14484733 0.16231269 0.74199998 4294967295
0.14602241 0.16208728 0.741 4294967295
0.14699483 0.16164313 0.73900002 4294967295
0.14836128 0.16163641 0.73900002 4294967295
0.14952506 0.16141093 0.73799998 4294967295
0.15088956 0.16140415 0.73799998 4294967295
0.15246031 0.16161601 0.73900002 4294967295
0.15382652 0.16160914 0.73900002 4294967295
0.1551927 0.16160224 0.73900002 4294967295
0.15655881 0.16159527 0.73900002 4294967295
0.15792485 0.1615883 0.73900002 4294967295
0.15929085 0.16158126 0.73900002 4294967295
0.16065677 0.1615742 0.73900002 4294967295
0.16202264 0.16156709 0.73900002 4294967295
0.16338846 0.16155994 0.73900002 4294967295
0.16475421 0.16155276 0.73900002 4294967295
0.1661199 0.16154553 0.73900002 4294967295
0.16748552 0.16153829 0.73900002 4294967295
0.16862264 0.1613124 0.73799998 4294967294
0.16952565 0.16086793 0.736 4294967285
0.17088555 0.16086058 0.736 4294967285
0.17271349 0.16129032 0.73799998 4294901491
0.17407699 0.16128288 0.73799998 4294506733
0.17544042 0.1612754 0.73799998 4294505708
0.1768038 0.16126789 0.73799998 4294111207
0.17816715 0.16126038 0.73799998 4294176487
0.17953046 0.1612528 0.73799998 4294307816
0.18089367 0.16124518 0.73799998 4293255394
0.1825038 0.16145602 0.73900002 4292729050
0.18386878 0.16144831 0.73900002 4292794832
0.1852337 0.16144058 0.73900002 4292334281
0.18659851 0.16143282 0.73900002 4292465612
0.18796334 0.16142502 0.73900002 4292465612
0.18984045 0.16185403 0.741 4292202958
0.19120887 0.16184615 0.741 4292202958
0.19257715 0.1618382 0.741 4292202694
0.19394545 0.16183025 0.741 4291610557
0.19531366 0.16182226 0.741 4291478715
0.19668187 0.16181421 0.741 4291478715
0.19831726 0.16202453 0.74199998 4291215799
0.19941804 0.16179807 0.741 4291215799
0.20024414 0.16135328 0.73900002 4291215538
0.2016084 0.16134512 0.73900002 4290754987
0.20297267 0.16133696 0.73900002 4290689201
0.20433681 0.16132873 0.73900002 4290689201
0.20876279 0.16372174 0.75 4290557351
0.21014719 0.16371337 0.75 4290096801
0.21153149 0.16370493 0.75 4290030503
0.21348357 0.16413298 0.75199997 4289504159
0.2157287 0.16477923 0.755 4289307798
0.21769726 0.16520713 0.75700003 4289307798
0.21909432 0.1651985 0.75700003 4289306013
0.22049135 0.16518983 0.75700003 4289174683
0.22306077 0.16605395 0.76099998 4289239947
0.22446504 0.16604516 0.76099998 4288779396
0.22616614 0.16625458 0.76200002 4288452491
0.22816949 0.16668203 0.764 4287860354
0.22897817 0.16623683 0.76200002 4287663493
0.23038416 0.16622791 0.76200002 4287137149
0.26386884 0.1825195 0.83700001 4290557883
0.26731542 0.18381774 0.84299999 4291018434
0.26887041 0.1838076 0.84299999 4291018164
0.097432941 0.17494339 0.792 4294967295
0.098275632 0.17383361 0.787 4294967295
0.099479951 0.1733865 0.78500003 4294967295
0.10067677 0.17293936 0.78299999 4294967295
0.10186612 0.17249221 0.78100002 4294967295
0.10331256 0.17248674 0.78100002 4294967295
0.10408826 0.17137699 0.77600002 4294967295
0.10525335 0.17092977 0.77399999 4294967295
0.10627313 0.17026174 0.77100003 4294967295
0.10742141 0.16981448 0.76899999 4294967295
0.10884533 0.16980888 0.76899999 4294967295
0.11026917 0.16980322 0.76899999 4294967295
0.11140245 0.16935591 0.76700002 4294967295
0.11282248 0.16935016 0.76700002 4294967295
0.1137956 0.16868204 0.764 4294967295
0.11490834 0.16823468 0.76200002 4294967295
0.11586095 0.16756652 0.759 4294967295
0.11695692 0.16711915 0.75700003 4294967295
0.11804539 0.16667174 0.755 4294967295
0.11944283 0.16666584 0.755 4294967295
0.12084019 0.16665989 0.755 4294967295
0.12207558 0.16643314 0.75400001 4294967295
0.12347098 0.16642711 0.75400001 4294967295
0.12453508 0.16597961 0.75199997 4294967295
0.12559175 0.1655321 0.75 4294967295
0.12697956 0.16552594 0.75 4294967295
0.12836729 0.1655198 0.75 4294967295
0.12958196 0.16529289 0.74900001 4294967295
0.13061802 0.16484529 0.74699998 4294967295
0.13182332 0.16461836 0.74599999 4294967295
0.13320343 0.16461205 0.74599999 4294967295
0.13458346 0.16460571 0.74599999 4294967295
0.13596343 0.16459931 0.74599999 4294967295
0.13697514 0.16415162 0.74400002 4294967295
0.13835128 0.16414517 0.74400002 4294967295
0.13972737 0.16413867 0.74400002 4294967295
0.14110339 0.16413213 0.74400002 4294967295
0.14247938 0.16412556 0.74400002 4294967295
0.14385529 0.16411895 0.74400002 4294967295
0.14484073 0.16367112 0.74199998 4294967295
0.14562167 0.16300271 0.73900002 4294967295
0.14698814 0.16299604 0.73900002 4294967295
0.14835458 0.1629893 0.73900002 4294967295
0.14951834 0.16276199 0.73799998 4294967295
0.15088278 0.16275518 0.73799998 4294967295
0.15224719 0.16274834 0.73799998 4294967295
0.15361151 0.16274145 0.73799998 4294967295
0.15518579 0.16295505 0.73900002 4294967295
0.15655185 0.16294807 0.73900002 4294967295
0.15791787 0.16294108 0.73900002 4294967295
0.15928383 0.16293402 0.73900002 4294967295
0.1606497 0.16292694 0.73900002 4294967295
0.16201554 0.16291982 0.73900002 4294967295
0.16338132 0.16291267 0.73900002 4294967295
0.16474703 0.16290547 0.73900002 4294967295
0.16611271 0.16289824 0.73900002 4294967295
0.16747829 0.16289096 0.73900002 4294967295
0.16861536 0.16266322 0.73799998 4294967294
0.16951835 0.1622151 0.736 4294967285
0.17087825 0.16220774 0.736 4294967285
0.17223807 0.16220036 0.736 4294901750
0.17406955 0.16263367 0.73799998 4294178283
0.17543298 0.16262618 0.73799998 4294373611
0.17631723 0.16217797 0.736 4294176233
0.17767683 0.16217043 0.736 4294176233
0.17952289 0.16260351 0.73799998 4294176233
0.18088606 0.16259587 0.73799998 4293123546
0.18249616 0.16280852 0.73900002 4293189339
0.18386109 0.16280083 0.73900002 4293517521
0.18522595 0.16279307 0.73900002 4293122763
0.18659079 0.16278531 0.73900002 4292859854
0.18795554 0.16277748 0.73900002 4292136388
0.18983264 0.16321014 0.741 4292005061
0.19145899 0.16342248 0.74199998 4292202440
0.19282915 0.16341452 0.74199998 4292202955
0.19393753 0.16318633 0.741 4291742405
0.19530571 0.16317831 0.741 4291545534
0.19667386 0.16317026 0.741 4291347899
0.19804192 0.16316219 0.741 4291083959
0.19887176 0.16271372 0.73900002 4291083959
0.19996506 0.16248542 0.73799998 4291149489
0.20132747 0.16247728 0.73799998 4290557351
0.20268983 0.16246909 0.73799998 4290621611
0.20737004 0.16510254 0.75 4290555818
0.20875445 0.16509417 0.75 4290228391
0.21013883 0.16508576 0.75 4290096549
0.21152309 0.16507733 0.75 4290030755
0.21347512 0.16550903 0.75199997 4289964962
0.21572016 0.16616073 0.755 4289899421
0.21768869 0.1665923 0.75700003 4289307285
0.21908574 0.16658366 0.75700003 4289764756
0.22106524 0.16701506 0.759 4289830549
0.22246581 0.16700634 0.759 4289305742
0.22445631 0.1674376 0.76099998 4289042314
0.22586049 0.16742878 0.76099998 4288518034
0.22816065 0.16807993 0.764 4288057483
0.22896934 0.16763106 0.76200002 4287926147
0.23037528 0.16762213 0.76200002 4287334010
0.26077086 0.18407089 0.83700001 4289241505
0.26231486 0.18406087 0.83700001 4290162607
0.26385882 0.18405084 0.83700001 4290885047
0.26730534 0.18536009 0.84299999 4291214012
0.26886031 0.18534993 0.84299999 4290821043
0.27041525 0.18533972 0.84299999 4290689201
0.27390581 0.18664858 0.84899998 4290690750
0.094970636 0.17729542 0.796 4294967295
0.096202873 0.17684467 0.79400003 4294967295
0.097427636 0.1763939 0.792 4294967295
0.098520055 0.17572038 0.78899997 4294967295
0.099728025 0.17526957 0.787 4294967295
0.10092853 0.17481874 0.78500003 4294967295
0.10212154 0.17436787 0.78299999 4294967295
0.10330709 0.17391703 0.78100002 4294967295
0.10408279 0.1727981 0.77600002 4294967295
0.10511186 0.17212453 0.773 4294967295
0.1062676 0.17167366 0.77100003 4294967295
0.10741586 0.17122272 0.76899999 4294967295
0.10855666 0.17077181 0.76700002 4294967295
0.10997675 0.17076613 0.76700002 4294967295
0.11139677 0.17076044 0.76700002 4294967295
0.11266966 0.17053205 0.76599997 4294967295
0.11378983 0.17008102 0.764 4294967295
0.11490254 0.16962998 0.76200002 4294967295
0.11585515 0.16895632 0.759 4294967295
0.11695109 0.16850527 0.75700003 4294967295
0.11803953 0.16805416 0.755 4294967295
0.11943691 0.16804826 0.755 4294967295
0.12083425 0.1680423 0.755 4294967295
0.1220696 0.16781372 0.75400001 4294967295
0.12346496 0.16780765 0.75400001 4294967295
0.12452905 0.16735646 0.75199997 4294967295
0.12558568 0.16690527 0.75 4294967295
0.12697344 0.16689914 0.75 4294967295
0.12836111 0.16689295 0.75 4294967295
0.12957577 0.16666421 0.74900001 4294967295
0.13043694 0.16599043 0.74599999 4294967295
0.13146368 0.16553915 0.74400002 4294967295
0.13284004 0.16553284 0.74400002 4294967295
0.13457711 0.16597146 0.74599999 4294967295
0.13595703 0.16596505 0.74599999 4294967295
0.13696873 0.16551368 0.74400002 4294967295
0.13834482 0.16550721 0.74400002 4294967295
0.13972089 0.1655007 0.74400002 4294967295
0.14109688 0.16549414 0.74400002 4294967295
0.1424728 0.16548756 0.74400002 4294967295
0.14384869 0.16548093 0.74400002 4294967295
0.14483409 0.16502942 0.74199998 4294967295
0.14561504 0.16435553 0.73900002 4294967295
0.14698146 0.16434881 0.73900002 4294967295
0.14834785 0.16434206 0.73900002 4294967295
0.14951158 0.1641129 0.73799998 4294967295
0.15087599 0.16410607 0.73799998 4294967295
0.15224035 0.16409922 0.73799998 4294967295
0.15360464 0.16409233 0.73799998 4294967295
0.15517887 0.16430774 0.73900002 4294967295
0.15654492 0.16430075 0.73900002 4294967295
0.15791088 0.16429374 0.73900002 4294967295
0.1592768 0.16428667 0.73900002 4294967295
0.16064264 0.16427957 0.73900002 4294967295
0.16200843 0.16427244 0.73900002 4294967295
0.16337417 0.16426528 0.73900002 4294967295
0.16473985 0.16425803 0.73900002 4294967295
0.16610549 0.16425081 0.73900002 4294967295
0.16747104 0.16424352 0.73900002 4294967295
0.16860807 0.16401394 0.73799998 4294967295
0.16951105 0.16356213 0.736 4294704627
0.17087089 0.16355476 0.736 4294375406
0.17223069 0.16354735 0.736 4294374894
0.17359042 0.16353992 0.736 4293980137
0.17495011 0.16353242 0.736 4294045161
0.17630975 0.16352493 0.736 4293979112
0.1776693 0.16351736 0.736 4293716708
0.17951532 0.16395409 0.73799998 4293519586
0.18087846 0.16394645 0.73799998 4293058785
0.18248849 0.16416092 0.73900002 4293058785
0.1838534 0.1641532 0.73900002 4293189839
0.18521823 0.16414545 0.73900002 4292926667
0.18658301 0.16413765 0.73900002 4292334283
0.18794776 0.16412981 0.73900002 4291742145
0.18982477 0.16456611 0.741 4291807938
0.19145109 0.16478029 0.74199998 4291742145
0.19282123 0.16477232 0.74199998 4291939268
0.19392957 0.16454226 0.741 4292005061
0.19529772 0.16453423 0.741 4291610557
0.19666584 0.16452618 0.741 4291347385
0.19803388 0.1645181 0.741 4290953143
0.19859459 0.16384394 0.73799998 4290558385
0.199957 0.16383582 0.73799998 4290886316
0.20131935 0.16382766 0.73799998 4290557351
0.20268168 0.16381946 0.73799998 4290294447
0.20736171 0.16647485 0.75 4290228398
0.20874609 0.16646646 0.75 4290228904
0.21013045 0.16645804 0.75 4290228904
0.21151468 0.16644961 0.75 4289768351
0.21403439 0.16732879 0.75400001 4289768351
0.21571167 0.16754214 0.755 4289768090
0.2176801 0.16797735 0.75700003 4289175953
0.2196559 0.16841245 0.759 4289700498
0.22105652 0.16840373 0.759 4289897620
0.22245713 0.168395 0.759 4289240208
0.22444753 0.16882992 0.76099998 4289306001
0.22585171 0.1688211 0.76099998 4288911511
0.22815175 0.16947772 0.764 4288253581
0.2295614 0.16946879 0.764 4288056702
0.23097101 0.16945985 0.764 4287464565
0.25859746 0.18516859 0.83499998 4289045146
0.26013783 0.18515863 0.83499998 4289045398
0.26167813 0.18514864 0.83499998 4289703328
0.26384887 0.1855821 0.83700001 4290426286
0.26666111 0.18645887 0.84100002 4290557615
0.26821235 0.18644872 0.84100002 4290426295
0.27040505 0.18688191 0.84299999 4290755259
0.2719599 0.18687168 0.84299999 4290691000
0.27481252 0.18774804 0.847 4291283137
0.094965369 0.17875315 0.796 4294967295
0.096197583 0.17829873 0.79400003 4294967295
0.097176291 0.17739516 0.79000002 4294967295
0.098514698 0.17716523 0.78899997 4294967295
0.099722631 0.17671075 0.787 4294967295
0.10092311 0.17625622 0.78500003 4294967295
0.10237691 0.17625076 0.78500003 4294967295
0.10356615 0.17579618 0.78299999 4294967295
0.10461376 0.17511709 0.77999997 4294967295
0.10510634 0.17353998 0.773 4294967295
0.10626204 0.17308542 0.77100003 4294967295
0.10741027 0.17263083 0.76899999 4294967295
0.10855104 0.17217623 0.76700002 4294967295
0.10997109 0.17217055 0.76700002 4294967295
0.11124584 0.17194034 0.76599997 4294967295
0.11266392 0.17193457 0.76599997 4294967295
0.11378407 0.1714799 0.764 4294967295
0.11489675 0.17102517 0.76200002 4294967295
0.11584932 0.17034599 0.759 4294967295
0.11694522 0.16989127 0.75700003 4294967295
0.11834634 0.16988535 0.75700003 4294967295
0.119431 0.16943055 0.755 4294967295
0.12082828 0.16942458 0.755 4294967295
0.12222549 0.16941856 0.755 4294967295
0.12345891 0.1691881 0.75400001 4294967295
0.12452297 0.16873322 0.75199997 4294967295
0.12557958 0.16827834 0.75 4294967295
0.1269673 0.1682722 0.75 4294967295
0.12835495 0.168266 0.75 4294967295
0.12956956 0.16803539 0.74900001 4294967295
0.13043071 0.1673561 0.74599999 4294967295
0.13145743 0.16690116 0.74400002 4294967295
0.13283373 0.16689482 0.74400002 4294967295
0.13457075 0.16733709 0.74599999 4294967295
0.13595064 0.16733067 0.74599999 4294967295
0.13733049 0.16732422 0.74599999 4294967295
0.13833837 0.16686912 0.74400002 4294967295
0.13971438 0.16686261 0.74400002 4294967295
0.14109033 0.16685604 0.74400002 4294967295
0.14246623 0.16684945 0.74400002 4294967295
0.14384206 0.16684277 0.74400002 4294967295
0.14482746 0.16638759 0.74199998 4294967295
0.14619946 0.16638088 0.74199998 4294967295
0.14697477 0.16570149 0.73900002 4294967295
0.14834112 0.16569471 0.73900002 4294967295
0.14950481 0.16546369 0.73799998 4294967295
0.15086918 0.16545685 0.73799998 4294967295
0.1524398 0.16567419 0.73900002 4294967295
0.1538059 0.16566727 0.73900002 4294967295
0.15517195 0.16566031 0.73900002 4294967295
0.15653794 0.1656533 0.73900002 4294967295
0.15790388 0.16564628 0.73900002 4294967295
0.15926975 0.16563919 0.73900002 4294967295
0.16063556 0.16563208 0.73900002 4294967295
0.16200131 0.16562495 0.73900002 4294967295
0.16336702 0.16561775 0.73900002 4294967295
0.16473265 0.16561052 0.73900002 4294967295
0.16609824 0.16560327 0.73900002 4294967295
0.16746376 0.16559595 0.73900002 4294967295
0.16860077 0.16536453 0.73799998 4294835707
0.16950372 0.16490903 0.736 4294638580
0.17039926 0.16445358 0.73400003 4294441201
0.17175533 0.16444618 0.73400003 4294505708
0.1731113 0.16443874 0.73400003 4294242793
0.17446727 0.16443126 0.73400003 4293848296
0.17582317 0.16442375 0.73400003 4293716710
0.17717901 0.16441622 0.73400003 4293125341
0.17950772 0.16530459 0.73799998 4292993755
0.18087085 0.16529693 0.73799998 4292730846
0.18248083 0.1655132 0.73900002 4292796640
0.1838457 0.16550547 0.73900002 4293256150
0.18521048 0.16549771 0.73900002 4292597963
0.18657526 0.16548988 0.73900002 4292137160
0.18768562 0.16525811 0.73799998 4291874245
0.18904839 0.16525026 0.73799998 4292070854
0.19144322 0.16613796 0.74199998 4291676096
0.19281328 0.16612999 0.74199998 4291675835
0.19392158 0.16589808 0.741 4291807164
0.19528972 0.16589007 0.741 4291084983
0.19665782 0.16588201 0.741 4291084983
0.19802581 0.1658739 0.741 4290887609
0.19858652 0.16519424 0.73799998 4290427058
0.19994891 0.16518609 0.73799998 4290755498
0.20131122 0.16517793 0.73799998 4290360740
0.20267355 0.16516973 0.73799998 4290228900
0.20707694 0.16762325 0.74900001 4290228900
0.20845939 0.16761488 0.74900001 4290032300
0.20984188 0.16760644 0.74900001 4289835178
0.21150625 0.16782176 0.75 4289505956
0.21345817 0.16826075 0.75199997 4289243040
0.21570309 0.16892344 0.755 4289307802
0.21767148 0.16936228 0.75700003 4289241753
0.21906847 0.16935362 0.75700003 4289307285
0.22104783 0.16979232 0.759 4289175699
0.22244842 0.16978356 0.759 4288910473
0.22443879 0.17022215 0.76099998 4288779144
0.22613971 0.17043698 0.76200002 4288647569
0.22814292 0.1708754 0.764 4288384397
0.2309621 0.1708575 0.764 4287529854
0.25858757 0.18669608 0.83499998 4288913555
0.26012787 0.18668613 0.83499998 4289045911
0.26166818 0.18667611 0.83499998 4289572255
0.26320839 0.1866661 0.83499998 4289703341
0.26538274 0.18710312 0.83700001 4290163892
0.26820225 0.18798712 0.84100002 4290098095
0.27039492 0.18842398 0.84299999 4290427060
0.27194971 0.18841372 0.84299999 4290756541
0.27415341 0.18885045 0.84500003 4290822334
0.094960093 0.18021074 0.796 4294967295
0.096192271 0.17975265 0.79400003 4294967295
0.097170964 0.17884172 0.79000002 4294967295
0.098509327 0.17860994 0.78899997 4294967295
0.09971723 0.17815179 0.787 4294967295
0.10117478 0.17814632 0.787 4294967295
0.10263225 0.17814077 0.787 4294967295
0.10356063 0.17722984 0.78299999 4294967295
0.10501057 0.17722426 0.78299999 4294967295
0.10523675 0.17518161 0.77399999 4294967295
0.10625647 0.17449705 0.77100003 4294967295
0.10712533 0.17358615 0.76700002 4294967295
0.1085454 0.1735805 0.76700002 4294967295
0.10996541 0.17357481 0.76700002 4294967295
0.11124013 0.17334276 0.76599997 4294967295
0.11236401 0.1728844 0.764 4294967295
0.11348044 0.17242604 0.76200002 4294967295
0.11489093 0.17242022 0.76200002 4294967295
0.11584348 0.17173553 0.759 4294967295
0.11693935 0.17127712 0.75700003 4294967295
0.11834043 0.17127119 0.75700003 4294967295
0.11942505 0.17081273 0.755 4294967295
0.1208223 0.17080672 0.755 4294967295
0.12205758 0.17057446 0.75400001 4294967295
0.12312539 0.17011593 0.75199997 4294967295
0.12418573 0.16965741 0.75 4294967295
0.12557346 0.16965127 0.75 4294967295
0.12696114 0.1696451 0.75 4294967295
0.12817763 0.16941269 0.74900001 4294967295
0.12956333 0.16940643 0.74900001 4294967295
0.13042447 0.16872163 0.74599999 4294967295
0.13180451 0.16871531 0.74599999 4294967295
0.13318448 0.16870898 0.74599999 4294967295
0.13456438 0.16870259 0.74599999 4294967295
0.13594425 0.16869615 0.74599999 4294967295
0.13732402 0.16868967 0.74599999 4294967295
0.13833191 0.16823092 0.74400002 4294967295
0.13970786 0.16822436 0.74400002 4294967295
0.14108378 0.16821778 0.74400002 4294967295
0.14245963 0.16821118 0.74400002 4294967295
0.14383543 0.1682045 0.74400002 4294967295
0.14482079 0.16774563 0.74199998 4294967295
0.14599574 0.16751286 0.741 4294967295
0.14696804 0.167054 0.73900002 4294967295
0.14833437 0.16704722 0.73900002 4294967295
0.14949803 0.16681436 0.73799998 4294967295
0.15086237 0.16680752 0.73799998 4294967295
0.15243292 0.16702665 0.73900002 4294967295
0.153799 0.16701972 0.73900002 4294967295
0.15516499 0.16701275 0.73900002 4294967295
0.15653096 0.16700573 0.73900002 4294967295
0.15768319 0.16677271 0.73799998 4294967295
0.15904717 0.16676562 0.73799998 4294967295
0.16041109 0.16675849 0.73799998 4294967295
0.16199417 0.1669773 0.73900002 4294967295
0.16335985 0.1669701 0.73900002 4294967295
0.16472544 0.16696285 0.73900002 4294967295
0.166091 0.16695556 0.73900002 4294967295
0.16745648 0.16694824 0.73900002 4294967295
0.16859345 0.16671498 0.73799998 4294572791
0.16949639 0.16625583 0.736 4294572789
0.17039192 0.16579668 0.73400003 4294572789
0.17174794 0.16578926 0.73400003 4294375146
0.1731039 0.16578183 0.73400003 4294506733
0.1744598 0.16577432 0.73400003 4293848550
0.17581567 0.16576681 0.73400003 4293782757
0.17717148 0.16575927 0.73400003 4293321689
0.17950012 0.16665493 0.73799998 4293190103
0.18086319 0.16664724 0.73799998 4292795356
0.18222623 0.16663955 0.73799998 4292795356
0.18358919 0.16663182 0.73799998 4292992208
0.18495212 0.16662402 0.73799998 4292465864
0.18631501 0.16661623 0.73799998 4292268749
0.18767777 0.16660838 0.73799998 4292466384
0.18904059 0.1666005 0.73799998 4291742145
0.19143528 0.16749553 0.74199998 4291610303
0.19280529 0.16748753 0.74199998 4291741362
0.1941753 0.1674795 0.74199998 4291807155
0.19554521 0.16747145 0.74199998 4291347899
0.19691513 0.16746338 0.74199998 4291018934
0.19828497 0.16745524 0.74199998 4290756028
0.19884749 0.16677007 0.73900002 4290098097
0.20021175 0.16676193 0.73900002 4290294432
0.20157586 0.16675372 0.73900002 4290426017
0.20431302 0.16787367 0.74400002 4290163357
0.2056863 0.16786538 0.74400002 4289900441
0.20705952 0.16785702 0.74400002 4289637544
0.20927316 0.16852544 0.74699998 4289637544
0.21121582 0.16896822 0.74900001 4289702308
0.21288198 0.16918528 0.75 4289241757
0.21540885 0.17007904 0.75400001 4289504411
0.21708781 0.17029595 0.755 4289504411
0.21905984 0.17073841 0.75700003 4289438355
0.22103913 0.17118075 0.759 4289306769
0.22302583 0.17162304 0.76099998 4288779407
0.22443001 0.17161421 0.76099998 4288450443
0.22613089 0.17183088 0.76200002 4288187536
0.22813405 0.17227297 0.764 4288055950
0.2295436 0.17226401 0.764 4287990405
0.25642169 0.18778253 0.833 4287137145
0.25795835 0.18777262 0.833 4288716433
0.25949496 0.18776266 0.833 4288914326
0.26165822 0.18820344 0.83499998 4289374877
0.26319841 0.18819341 0.83499998 4289703341
0.26537269 0.1886341 0.83700001 4290229686
0.26755428 0.18907468 0.83899999 4290033074
0.26974326 0.1895152 0.84100002 4290033074
0.27129433 0.18950498 0.84100002 4290426810
0.27349424 0.18994534 0.84299999 4290492603
0.096186943 0.18120639 0.79400003 4294967295
0.097165614 0.18028815 0.79000002 4294967295
0.098503932 0.18005452 0.78899997 4294967295
0.099711806 0.17959267 0.787 4294967295
0.10116931 0.17958717 0.787 4294967295
0.10262673 0.17958166 0.787 4294967295
0.10381961 0.17911972 0.78500003 4294967295
0.10500498 0.17865777 0.78299999 4294967295
0.10618291 0.1781958 0.78100002 4294967295
0.10625087 0.17590855 0.77100003 4294967295
0.10711974 0.17499031 0.76700002 4294967295
0.10853976 0.17498465 0.76700002 4294967295
0.10995971 0.17497894 0.76700002 4294967295
0.11123439 0.17474504 0.76599997 4294967295
0.11235824 0.17428301 0.764 4294967295
0.11347464 0.17382096 0.76200002 4294967295
0.11488511 0.17381512 0.76200002 4294967295
0.11583763 0.17312492 0.759 4294967295
0.11693347 0.17266284 0.75700003 4294967295
0.11833449 0.17265688 0.75700003 4294967295
0.11941911 0.17219475 0.755 4294967295
0.1208163 0.17218873 0.755 4294967295
0.12205156 0.17195462 0.75400001 4294967295
0.12311932 0.1714924 0.75199997 4294967295
0.12417964 0.17103021 0.75 4294967295
0.12556733 0.17102407 0.75 4294967295
0.12678571 0.17078987 0.74900001 4294967295
0.12817141 0.17078362 0.74900001 4294967295
0.12955707 0.17077735 0.74900001 4294967295
0.13059303 0.17031506 0.74699998 4294967295
0.13179819 0.17008072 0.74599999 4294967295
0.13317813 0.17007436 0.74599999 4294967295
0.13455799 0.17006795 0.74599999 4294967295
0.13593781 0.17006147 0.74599999 4294967295
0.13731755 0.17005499 0.74599999 4294967295
0.13832541 0.16959257 0.74400002 4294967295
0.13970135 0.169586 0.74400002 4294967295
0.14107719 0.16957942 0.74400002 4294967295
0.142453 0.16957279 0.74400002 4294967295
0.14344211 0.16911027 0.74199998 4294967295
0.14461894 0.16887568 0.741 4294967295
0.14598905 0.16886894 0.741 4294967295
0.14696133 0.16840641 0.73900002 4294967295
0.1483276 0.1683996 0.73900002 4294967295
0.14949122 0.16816489 0.73799998 4294967295
0.15085553 0.16815802 0.73799998 4294967295
0.15242605 0.16837899 0.73900002 4294967295
0.15379207 0.16837204 0.73900002 4294967295
0.15515804 0.16836508 0.73900002 4294967295
0.15652396 0.16835803 0.73900002 4294967295
0.15767615 0.16812314 0.73799998 4294967295
0.15904011 0.16811605 0.73799998 4294967295
0.160404 0.16810893 0.73799998 4294967295
0.16198702 0.16832954 0.73900002 4294967295
0.16335265 0.16832229 0.73900002 4294967295
0.16471821 0.16831505 0.73900002 4294901758
0.16608374 0.16830777 0.73900002 4294967295
0.16744918 0.16830043 0.73900002 4294967292
0.16858613 0.16806534 0.73799998 4294901754
0.16948906 0.16760249 0.736 4294441201
0.17084879 0.16759509 0.736 4294244078
0.17220847 0.16758765 0.736 4294242793
0.17356811 0.16758016 0.736 4294242793
0.17492768 0.16757263 0.736 4293848037
0.17676623 0.16802041 0.73799998 4293848037
0.1781294 0.16801278 0.73799998 4293584347
0.17973574 0.1682328 0.73900002 4293386712
0.18110061 0.16822512 0.73900002 4292859856
0.18221854 0.16798975 0.73799998 4292925650
0.18358147 0.167982 0.73799998 4293056720
0.18494436 0.1679742 0.73799998 4292727755
0.18630721 0.16796638 0.73799998 4292202444
0.18766998 0.16795851 0.73799998 4292070602
0.18903273 0.16795065 0.73799998 4291479487
0.19142736 0.16885297 0.74199998 4291479487
0.19331701 0.16930008 0.74400002 4291215536
0.19469066 0.16929203 0.74400002 4291610294
0.19553719 0.16882885 0.74199998 4291282878
0.19690706 0.16882074 0.74199998 4290887863
0.19881132 0.16926765 0.74400002 4290624439
0.19883943 0.16812196 0.73900002 4290163888
0.2002036 0.16811378 0.73900002 4290425511
0.20156769 0.1681056 0.73900002 4290425511
0.20430477 0.16923468 0.74400002 4290098084
0.20567803 0.16922635 0.74400002 4290032291
0.20705123 0.16921799 0.74400002 4289833896
0.20898463 0.16966446 0.74599999 4289702054
0.21064343 0.16988344 0.74699998 4289635234
0.21258967 0.17032979 0.74900001 4289503648
0.21482891 0.17100343 0.75199997 4289898404
0.21707919 0.17167699 0.755 4289635488
0.21847244 0.17166832 0.755 4289372310
0.22103044 0.17256908 0.759 4289175187
0.2230171 0.17301501 0.76099998 4288714636
0.22442119 0.17300618 0.76099998 4288254085
0.22612207 0.17322464 0.76200002 4288187786
0.22812513 0.17367035 0.764 4287924614
0.23154876 0.174107 0.76599997 4287398016
0.25151372 0.18796217 0.82700002 4287397743
0.25303933 0.18795237 0.82700002 4287200364
0.25732914 0.18884169 0.83099997 4288781204
0.25886202 0.18883173 0.83099997 4288584604
0.26102155 0.18927622 0.833 4289308584
0.26318842 0.1897206 0.83499998 4289244333
0.26472858 0.18971053 0.83499998 4289770933
0.26690641 0.19015479 0.83700001 4289836976
0.26909161 0.19059896 0.83899999 4289836976
0.27128416 0.19104309 0.84100002 4290492088
0.27348399 0.19148713 0.84299999 4290755259
0.27503872 0.19147679 0.84299999 4290492590
0.096181586 0.18266003 0.79400003 4294770686
0.09716025 0.18173444 0.79000002 4294967295
0.098498523 0.18149896 0.78899997 4294967295
0.099959746 0.18149349 0.78899997 4294967295
0.10116383 0.18102792 0.787 4294967295
0.1026212 0.18102236 0.787 4294967295
0.10381403 0.18055679 0.78500003 4294967295
0.10499937 0.18009113 0.78299999 4294967295
0.10617728 0.1796255 0.78100002 4294967295
0.10652088 0.1777799 0.773 4294967295
0.10739342 0.1768543 0.76899999 4294967295
0.10881711 0.17684859 0.76899999 4294967295
0.10995399 0.17638294 0.76700002 4294967295
0.11137384 0.17637716 0.76700002 4294967295
0.11264659 0.17614138 0.76599997 4294967295
0.11376666 0.17567565 0.764 4294967295
0.11487924 0.17520989 0.76200002 4294967295
0.11583175 0.1745142 0.759 4294967295
0.1172365 0.17450826 0.759 4294967295
0.11832855 0.17404248 0.75700003 4294967295
0.11972947 0.17403646 0.75700003 4294967295
0.12081028 0.1735706 0.755 4294967295
0.1220455 0.17333464 0.75400001 4294967295
0.12311324 0.17286879 0.75199997 4294967295
0.12417354 0.17240289 0.75 4294967295
0.12556119 0.17239673 0.75 4294967295
0.12677953 0.17216069 0.74900001 4294967295
0.1281652 0.17215444 0.74900001 4294967295
0.12955081 0.17214815 0.74900001 4294967295
0.13058674 0.17168216 0.74699998 4294967295
0.13179189 0.171446 0.74599999 4294967295
0.13317177 0.17143962 0.74599999 4294967295
0.1345516 0.1714332 0.74599999 4294967295
0.13593136 0.17142673 0.74599999 4294967295
0.13731107 0.17142022 0.74599999 4294967295
0.13869072 0.17141367 0.74599999 4294967295
0.13969478 0.17094754 0.74400002 4294967295
0.1410706 0.17094092 0.74400002 4294967295
0.14206345 0.17047475 0.74199998 4294967295
0.14343548 0.17046811 0.74199998 4294967295
0.14461227 0.17023164 0.741 4294967295
0.14558829 0.16976546 0.73900002 4294967295
0.14695458 0.16975869 0.73900002 4294967295
0.14832081 0.16975187 0.73900002 4294967295
0.14948443 0.16951534 0.73799998 4294967295
0.15084869 0.16950844 0.73799998 4294967295
0.15221287 0.16950153 0.73799998 4294967295
0.15357701 0.16949457 0.73799998 4294967295
0.15515107 0.16971725 0.73900002 4294967295
0.15651694 0.16971019 0.73900002 4294967295
0.1576691 0.16947347 0.73799998 4294967295
0.15903302 0.16946636 0.73799998 4294967295
0.16039686 0.16945922 0.73799998 4294967295
0.16197987 0.16968165 0.73900002 4294967295
0.16334544 0.16967443 0.73900002 4294704377
0.16471097 0.16966714 0.73900002 4294967291
0.16607645 0.16965985 0.73900002 4294967292
0.16744186 0.16965251 0.73900002 4294967289
0.1685788 0.16941556 0.73799998 4294967290
0.16948171 0.16894904 0.736 4294375408
0.17084141 0.16894162 0.736 4294112236
0.17220105 0.16893417 0.736 4294177513
0.17403226 0.1693857 0.73799998 4294243306
0.1753955 0.16937815 0.73799998 4293848548
0.17699821 0.16960007 0.73900002 4293585633
0.17836317 0.16959243 0.73900002 4293518815
0.17972808 0.16958475 0.73900002 4293189851
0.18084788 0.16934758 0.73799998 4292925648
0.18221083 0.16933985 0.73799998 4292794061
0.18357374 0.16933207 0.73799998 4292728016
0.1849366 0.16932426 0.73799998 4292596687
0.18629938 0.16931644 0.73799998 4292136651
0.18766212 0.16930854 0.73799998 4292070602
0.18902484 0.16930066 0.73799998 4291545282
0.19141938 0.17021029 0.74199998 4291479489
