# .PCD v0.7 - Point Cloud Data file format
VERSION 0.7
FIELDS x y z rgba
SIZE 4 4 4 4
TYPE F F F U
COUNT 1 1 1 1
WIDTH 1100
HEIGHT 1
VIEWPOINT 0 0 0 1 0 0 0
POINTS 1100
DATA ascii
0.23934279 0.07697989 0.875 4294967295
0.24096106 0.076971769 0.875 4294967295
0.24257925 0.076963603 0.875 4294967295
0.24419735 0.076955386 0.875 4294967295
0.2458154 0.076947138 0.875 4294967295
0.24743335 0.076938838 0.875 4294967295
0.2490513 0.076930493 0.875 4294967295
0.25066909 0.076922104 0.875 4294967295
0.25228685 0.076913655 0.875 4294967295
0.25390458 0.076905191 0.875 4294967295
0.25493813 0.076720901 0.87300003 4294967295
0.25655201 0.076712362 0.87300003 4294967295
0.25816578 0.076703772 0.87300003 4294967295
0.25977954 0.076695152 0.87300003 4294967295
0.26139319 0.076686472 0.87300003 4294967295
0.26240426 0.076502092 0.87099999 4294967295
0.26401412 0.076493353 0.87099999 4294967295
0.26562387 0.076484576 0.87099999 4294967295
0.26723358 0.076475747 0.87099999 4294967295
0.26884326 0.076466888 0.87099999 4294967295
0.27045283 0.076457985 0.87099999 4294967295
0.27268708 0.07662458 0.87300003 4294967295
0.27430028 0.076615572 0.87300003 4294967295
0.27528122 0.076431014 0.87099999 4294967295
0.27689061 0.076421931 0.87099999 4294967295
0.27913943 0.07658828 0.87300003 4294967295
0.28075236 0.076579109 0.87300003 4294967295
0.28236526 0.076569892 0.87300003 4294967295
0.28397802 0.076560624 0.87300003 4294967295
0.2855908 0.076551318 0.87300003 4294967294
0.28884843 0.076980367 0.87800002 4294967295
0.29047033 0.076970927 0.87800002 4294967295
0.29275748 0.077136755 0.88 4294967295
0.29438296 0.077127211 0.88 4294967291
0.29600838 0.077117629 0.88 4294967295
0.29932481 0.07754612 0.88499999 4294967294
0.30095941 0.077536404 0.88499999 4294769652
0.30259389 0.077526644 0.88499999 4294505962
0.30422834 0.077516839 0.88499999 4294374633
0.30655399 0.07768216 0.88700002 4293980900
0.30819198 0.077672251 0.88700002 4293783777
0.31052864 0.07783743 0.889 4293782757
0.31287253 0.078002498 0.89099997 4293387999
0.31557679 0.078255035 0.89399999 4293386199
0.31793731 0.078419939 0.89600003 4293518041
0.31959173 0.078409724 0.89600003 4293517519
0.32124615 0.078399479 0.89600003 4293320396
0.32290044 0.07838919 0.89600003 4293056466
0.18611485 0.084109016 0.93300003 4293394431
0.18723959 0.083831839 0.93000001 4294967295
0.18794672 0.083374418 0.92500001 4294967295
0.18966046 0.083367638 0.92500001 4294967295
0.19096035 0.083180569 0.92299998 4294967295
0.19267018 0.083173707 0.92299998 4294967295
0.19437996 0.083166793 0.92299998 4294967295
0.19545233 0.082889542 0.92000002 4294967295
0.19672777 0.082702376 0.91799998 4294967295
0.19777961 0.08242511 0.91500002 4294967295
0.19903821 0.082237907 0.91299999 4294967295
0.2000695 0.081960633 0.91000003 4294967295
0.20131126 0.0817734 0.90799999 4294967295
0.2025456 0.08158616 0.90600002 4294967295
0.20354697 0.081308864 0.903 4294967295
0.20521897 0.081301667 0.903 4294967295
0.20643267 0.081114374 0.90100002 4294967295
0.20740792 0.080837034 0.898 4294967295
0.2086048 0.080649711 0.89600003 4294967295
0.20979418 0.080462374 0.89399999 4294967295
0.21073954 0.080185026 0.89099997 4294967295
0.21238884 0.08017765 0.89099997 4294967295
0.21403807 0.080170222 0.89099997 4294967295
0.21520309 0.07998281 0.889 4294967295
0.21684846 0.079975292 0.889 4294967295
0.21800219 0.079787835 0.88700002 4294967295
0.21914847 0.079600357 0.88499999 4294967295
0.22078621 0.079592757 0.88499999 4294967295
0.2224239 0.079585098 0.88499999 4294967295
0.22330195 0.079307646 0.88200003 4294967295
0.22493389 0.079299927 0.88200003 4294967295
0.22656579 0.079292156 0.88200003 4294967295
0.22819757 0.07928434 0.88200003 4294967295
0.22930817 0.079096712 0.88 4294967295
0.23041131 0.078909084 0.87800002 4294967295
0.23203549 0.078901172 0.87800002 4294967295
0.23365958 0.078893207 0.87800002 4294967295
0.23528363 0.078885205 0.87800002 4294967295
0.23609811 0.078607656 0.875 4294967295
0.23771648 0.078599587 0.875 4294967295
0.23933473 0.078591481 0.875 4294967295
0.24095295 0.078583322 0.875 4294967295
0.24257109 0.078575127 0.875 4294967295
0.24418916 0.078566886 0.875 4294967295
0.24580714 0.078558594 0.875 4294967295
0.24742508 0.078550272 0.875 4294967295
0.24904296 0.078541905 0.875 4294967295
0.2500878 0.078353979 0.87300003 4294967295
0.2517018 0.078345537 0.87300003 4294967295
0.25389612 0.078516513 0.875 4294967295
0.25492963 0.078328528 0.87300003 4294967295
0.25654349 0.078319967 0.87300003 4294967295
0.25815722 0.078311346 0.87300003 4294967295
0.2597709 0.078302696 0.87300003 4294967295
0.26138455 0.078293994 0.87300003 4294967295
0.26239556 0.078105904 0.87099999 4294967295
0.26400539 0.078097142 0.87099999 4294967295
0.26561511 0.078088336 0.87099999 4294967295
0.26722479 0.078079492 0.87099999 4294967295
0.26883438 0.078070588 0.87099999 4294967295
0.27044398 0.07806167 0.87099999 4294967295
0.27205348 0.078052692 0.87099999 4294967295
0.27366287 0.078043669 0.87099999 4294967295
0.27527222 0.078034617 0.87099999 4294967295
0.27688158 0.078025512 0.87099999 4294967295
0.27849078 0.078016378 0.87099999 4294967295
0.28010002 0.078007199 0.87099999 4294967295
0.2817091 0.077997968 0.87099999 4294967295
0.28331822 0.077988707 0.87099999 4294967295
0.28492725 0.077979408 0.87099999 4294967287
0.28883904 0.078596681 0.87800002 4294967289
0.29046088 0.078587219 0.87800002 4294967295
0.292748 0.078756705 0.88 4294967291
0.29437342 0.078747138 0.88 4294967290
0.29667157 0.078916483 0.88200003 4294967295
0.29931515 0.079175197 0.88499999 4294967292
0.30094969 0.079165451 0.88499999 4294572787
0.30258414 0.079155684 0.88499999 4294243304
0.30421853 0.079145849 0.88499999 4294309097
0.30654413 0.079314828 0.88700002 4293914595
0.30818209 0.079304904 0.88700002 4293059287
0.31051865 0.079473712 0.889 4293255644
0.31286255 0.079642452 0.89099997 4293124057
0.31450775 0.079632364 0.89099997 4293386714
0.31721747 0.079890318 0.89399999 4293518300
0.31886819 0.079880111 0.89399999 4293320909
0.3212359 0.080048546 0.89600003 4292926152
0.32289019 0.080038235 0.89600003 4292597198
0.1843794 0.085835114 0.93300003 4283853941
0.18610816 0.085828401 0.93300003 4293130751
0.18723287 0.085545681 0.93000001 4294967295
0.18854953 0.085354932 0.92799997 4294967295
0.18965368 0.085072204 0.92500001 4294967295
0.19136728 0.08506535 0.92500001 4294967295
0.19266333 0.084874533 0.92299998 4294967295
0.19437307 0.084867589 0.92299998 4294967295
0.19544537 0.08458478 0.92000002 4294967295
0.1971494 0.084577762 0.92000002 4294967295
0.19777259 0.084111072 0.91500002 4294967295
0.19946717 0.084103994 0.91500002 4294967295
0.20006242 0.08363732 0.91000003 4294967295
0.20130421 0.083446398 0.90799999 4294967295
0.20298557 0.083439223 0.90799999 4294967295
0.20353985 0.082972579 0.903 4294967295
0.20521176 0.082965352 0.903 4294967295
0.20642544 0.082774341 0.90100002 4294967295
0.20740068 0.082491457 0.898 4294967295
0.20859751 0.082300425 0.89600003 4294967295
0.20978686 0.082109377 0.89399999 4294967295
0.21073221 0.081826471 0.89099997 4294967295
0.21238148 0.081819057 0.89099997 4294967295
0.21355022 0.081627958 0.889 4294967295
0.21519566 0.08162047 0.889 4294967295
0.21635315 0.081429325 0.88700002 4294967295
0.21799469 0.08142177 0.88700002 4294967295
0.21914092 0.081230588 0.88499999 4294967295
0.22077863 0.081222944 0.88499999 4294967295
0.22241619 0.081215262 0.88499999 4294967295
0.22329427 0.080932252 0.88200003 4294967295
0.22492617 0.080924504 0.88200003 4294967295
0.22655803 0.080916703 0.88200003 4294967295
0.2281898 0.080908865 0.88200003 4294967295
0.2287792 0.080534086 0.87800002 4294967295
0.23040345 0.080526188 0.87800002 4294967295
0.23202761 0.080518253 0.87800002 4294967295
0.23365162 0.080510266 0.87800002 4294967295
0.23527564 0.080502242 0.87800002 4294967295
0.23609011 0.080219127 0.875 4294967295
0.23770842 0.080211036 0.875 4294967295
0.23932666 0.0802029 0.875 4294967295
0.24094483 0.080194719 0.875 4294967295
0.24256292 0.080186494 0.875 4294967295
0.24418089 0.080178224 0.875 4294967295
0.24579887 0.080169909 0.875 4294967295
0.24741673 0.080161557 0.875 4294967295
0.24903455 0.080153152 0.875 4294967295
0.25007942 0.079961531 0.87300003 4294967295
0.25169337 0.079953067 0.87300003 4294967295
0.25388762 0.080127701 0.875 4294967295
0.25492117 0.079936005 0.87300003 4294967295
0.2565349 0.0799274 0.87300003 4294967295
0.25814864 0.079918772 0.87300003 4294967295
0.25976226 0.079910085 0.87300003 4294967295
0.26137584 0.07990136 0.87300003 4294967295
0.26298937 0.079892598 0.87300003 4294967295
0.26399663 0.079700775 0.87099999 4294967295
0.26560634 0.079691939 0.87099999 4294967295
0.26782957 0.079866044 0.87300003 4294967295
0.26882553 0.079674155 0.87099999 4294967295
0.27043504 0.079665191 0.87099999 4294967295
0.27204451 0.079656191 0.87099999 4294967295
0.27365386 0.079647146 0.87099999 4294967295
0.27526319 0.079638071 0.87099999 4294967295
0.27687249 0.079628952 0.87099999 4294967295
0.27848166 0.07961978 0.87099999 4294967295
0.28009084 0.079610579 0.87099999 4294967295
0.28169993 0.079601333 0.87099999 4294967295
0.28330898 0.079592034 0.87099999 4294967295
0.28491798 0.079582706 0.87099999 4294967291
0.28882962 0.080212846 0.87800002 4294967291
0.29111305 0.080386057 0.88 4294967288
0.29273847 0.080376506 0.88 4294901750
0.29503292 0.080549568 0.88200003 4294639095
0.29666194 0.080539919 0.88200003 4294836219
0.2993055 0.080804132 0.88499999 4294967290
0.30162007 0.080976956 0.88700002 4294178029
0.30257437 0.080784559 0.88499999 4294177513
0.30420876 0.08077471 0.88499999 4294243306
0.30653426 0.080947347 0.88700002 4293717214
0.3088671 0.081119888 0.889 4293256663
0.31050873 0.081109874 0.889 4293715934
0.3128525 0.081282265 0.89099997 4293518554
0.31449771 0.081272148 0.89099997 4293191134
0.31720734 0.0815356 0.89399999 4292993755
0.318858 0.08152537 0.89399999 4293059285
0.32122564 0.081697457 0.89600003 4292598734
0.32287994 0.081687123 0.89600003 4292268489
0.1818846 0.088036992 0.93800002 4283785565
0.18362275 0.088030308 0.93800002 4284114530
0.18437274 0.087554388 0.93300003 4283590512
0.18610145 0.087547645 0.93300003 4292406774
0.18722613 0.087259367 0.93000001 4294967295
0.18854275 0.087064907 0.92799997 4294967295
0.19026195 0.087058045 0.92799997 4294967295
0.19136044 0.086769737 0.92500001 4294967295
0.19265643 0.086575195 0.92299998 4294967295
0.19373438 0.086286858 0.92000002 4294967295
0.19543841 0.086279869 0.92000002 4294967295
0.19671382 0.086085275 0.91799998 4294967295
0.19776557 0.085796893 0.91500002 4294967295
0.1994601 0.085789785 0.91500002 4294967295
0.20005536 0.085313879 0.91000003 4294967295
0.20129707 0.085119225 0.90799999 4294967295
0.2029784 0.085112035 0.90799999 4294967295
0.20353267 0.084636144 0.903 4294967295
0.20520456 0.084628895 0.903 4294967295
0.2064182 0.084434167 0.90100002 4294967295
0.20739339 0.084145732 0.898 4294967295
0.20859019 0.083950989 0.89600003 4294967295
0.20977952 0.083756216 0.89399999 4294967295
0.21072486 0.083467767 0.89099997 4294967295
0.21237406 0.083460324 0.89099997 4294967295
0.21354279 0.083265521 0.889 4294967295
0.21470405 0.083070695 0.88700002 4294967295
0.21634564 0.083063155 0.88700002 4294967295
0.21749559 0.082868278 0.88499999 4294967295
0.21913332 0.082860664 0.88499999 4294967295
0.22077096 0.082852997 0.88499999 4294967295
0.22240852 0.082845293 0.88499999 4294967295
0.22328657 0.082556725 0.88200003 4294967295
0.22491844 0.082548946 0.88200003 4294967295
0.22655025 0.082541123 0.88200003 4294967295
0.22818196 0.082533255 0.88200003 4294967295
0.22877137 0.082151085 0.87800002 4294967295
0.23039556 0.082143158 0.87800002 4294967295
0.23201963 0.082135193 0.87800002 4294967295
0.23284534 0.081846558 0.875 4294967295
0.23446371 0.081838533 0.875 4294967295
0.23608208 0.081830457 0.875 4294967295
0.23770034 0.081822343 0.875 4294967295
0.23931852 0.081814185 0.875 4294967295
0.24093665 0.081805974 0.875 4294967295
0.24255468 0.081797726 0.875 4294967295
0.24417266 0.081789434 0.875 4294967295
0.24579057 0.081781089 0.875 4294967295
0.24740842 0.081772715 0.875 4294967295
0.24902621 0.081764288 0.875 4294967295
0.25007102 0.081568941 0.87300003 4294967295
0.25168493 0.081560463 0.87300003 4294967295
0.2538791 0.081738748 0.875 4294967295
0.25491259 0.081543341 0.87300003 4294967295
0.25652638 0.081534721 0.87300003 4294967295
0.25814 0.081526056 0.87300003 4294967295
0.25975361 0.081517346 0.87300003 4294967295
0.26136717 0.081508599 0.87300003 4294967295
0.26298064 0.0814998 0.87300003 4294967295
0.26398787 0.081304274 0.87099999 4294967295
0.26559752 0.081295416 0.87099999 4294967295
0.26782066 0.081473157 0.87300003 4294967295
0.26881665 0.081277579 0.87099999 4294967295
0.27042606 0.081268594 0.87099999 4294967295
0.27266017 0.081446171 0.87300003 4294967295
0.27364486 0.081250504 0.87099999 4294967295
0.2752541 0.081241384 0.87099999 4294967295
0.2768634 0.081232257 0.87099999 4294967295
0.27847254 0.081223056 0.87099999 4294967295
0.28008166 0.081213824 0.87099999 4294967295
0.28169069 0.081204548 0.87099999 4294967294
0.28329968 0.081195235 0.87099999 4294835707
0.28490865 0.081185877 0.87099999 4294966769
0.28783336 0.081549287 0.875 4294967026
0.29110357 0.082005747 0.88 4294967284
0.29272896 0.081996173 0.88 4294967284
0.29435429 0.081986554 0.88 4294440949
0.29665229 0.082163222 0.88200003 4294375156
0.29929578 0.082432926 0.88499999 4294441453
0.30093023 0.082423136 0.88499999 4293783523
0.30256462 0.082413293 0.88499999 4293980137
0.30419892 0.082403429 0.88499999 4293782757
0.30652437 0.082579724 0.88700002 4293454042
0.3081623 0.082569756 0.88700002 4293059285
0.31049871 0.082745887 0.889 4293190103
0.31214023 0.082735814 0.889 4293124309
0.31448758 0.082911789 0.89099997 4292796632
0.31719717 0.083180748 0.89399999 4292730583
0.31884781 0.083170496 0.89399999 4293058516
0.32121539 0.08334624 0.89600003 4292137414
0.32286963 0.083335884 0.89600003 4292333508
0.32452381 0.08332549 0.89600003 4291610042
0.18361604 0.089758657 0.93800002 4284311391
0.18535407 0.089751907 0.93800002 4283458149
0.1860947 0.089266717 0.93300003 4292010982
0.18782328 0.0892599 0.93300003 4294967295
0.18853594 0.088774711 0.92799997 4294967295
0.19025508 0.088767827 0.92799997 4294967295
0.19135356 0.088473961 0.92500001 4294967295
0.1926495 0.088275708 0.92299998 4294967295
0.19372745 0.087981813 0.92000002 4294967295
0.19543141 0.087974794 0.92000002 4294967295
0.19670677 0.087776482 0.91799998 4294967295
0.19775853 0.087482542 0.91500002 4294967295
0.199453 0.087475419 0.91500002 4294967295
0.20070772 0.087277047 0.91299999 4294967295
0.20128992 0.086791903 0.90799999 4294967295
0.20297122 0.086784683 0.90799999 4294967295
0.20420164 0.086586274 0.90600002 4294967295
0.20519732 0.086292282 0.903 4294967295
0.2068691 0.08628495 0.903 4294967295
0.20807892 0.086086482 0.90100002 4294967295
0.20904845 0.08579246 0.898 4294967295
0.21024145 0.085593976 0.89600003 4294967295
0.21071745 0.085108906 0.89099997 4294967295
0.21188995 0.084910423 0.889 4294967295
0.21353534 0.08490292 0.889 4294967295
0.21469657 0.084704384 0.88700002 4294967295
0.21585029 0.084505841 0.88499999 4294967295
0.21748802 0.084498234 0.88499999 4294967295
0.21912572 0.084490582 0.88499999 4294967295
0.22076333 0.084482901 0.88499999 4294967295
0.22240084 0.08447516 0.88499999 4294967295
0.22327888 0.084181041 0.88200003 4294967295
0.22491066 0.08417324 0.88200003 4294967295
0.22654244 0.084165394 0.88200003 4294967295
0.22817411 0.084157497 0.88200003 4294967295
0.22876351 0.083767928 0.87800002 4294967295
0.23038766 0.083759978 0.87800002 4294967295
0.23201169 0.083751976 0.87800002 4294967295
0.23283733 0.083457798 0.875 4294967295
0.23445573 0.083449744 0.875 4294967295
0.23607402 0.083441645 0.875 4294967295
0.23769222 0.083433501 0.875 4294967295
0.23931038 0.083425313 0.875 4294967295
0.24092844 0.083417073 0.875 4294967295
0.24254647 0.083408803 0.875 4294967295
0.2436063 0.083209857 0.87300003 4294967295
0.24522048 0.083201505 0.87300003 4294967295
0.24683458 0.083193123 0.87300003 4294967295
0.24844861 0.083184682 0.87300003 4294967295
0.25006258 0.083176211 0.87300003 4294967295
0.25167647 0.083167702 0.87300003 4294967295
0.25329027 0.083159126 0.87300003 4294967295
0.25490406 0.083150528 0.87300003 4294967295
0.25651774 0.083141878 0.87300003 4294967295
0.25813136 0.083133183 0.87300003 4294967295
0.25974491 0.083124451 0.87300003 4294967295
0.26135841 0.083115682 0.87300003 4294967295
0.26297185 0.083106868 0.87300003 4294967295
0.26397908 0.082907625 0.87099999 4294967295
0.26558864 0.082898743 0.87099999 4294967295
0.26781178 0.083080158 0.87300003 4294967295
0.26880768 0.082880847 0.87099999 4294967295
0.27041715 0.082871839 0.87099999 4294967295
0.27202651 0.082862802 0.87099999 4294967295
0.2736358 0.082853705 0.87099999 4294967295
0.27524504 0.082844563 0.87099999 4294967295
0.27685425 0.082835399 0.87099999 4294967295
0.27846333 0.082826175 0.87099999 4294967295
0.28007245 0.082816929 0.87099999 4294967293
0.28168142 0.082807623 0.87099999 4294966776
0.28329042 0.08279828 0.87099999 4294966776
0.28489932 0.0827889 0.87099999 4294967283
0.28650814 0.082779489 0.87099999 4294967281
0.28944013 0.083150141 0.875 4294967285
0.29205415 0.083425656 0.87800002 4294967028
0.29434475 0.083606049 0.88 4294441201
0.29664266 0.083786368 0.88200003 4294441201
0.29928604 0.084061578 0.88499999 4294637803
0.30092043 0.084051758 0.88499999 4294045409
0.30255479 0.084041901 0.88499999 4293914341
0.30418906 0.084032007 0.88499999 4293716962
0.30582336 0.084022075 0.88499999 4293125593
0.30745751 0.084012091 0.88499999 4292796628
0.30979022 0.084191918 0.88700002 4292927698
0.31142798 0.084181838 0.88700002 4292401354
0.31306571 0.08417172 0.88700002 4292466634
0.31718701 0.084825747 0.89399999 4292466634
0.31883755 0.084815465 0.89399999 4292466636
0.32120511 0.084994875 0.89600003 4292269001
0.32285929 0.084984489 0.89600003 4292597450
0.32451341 0.084974073 0.89600003 4292136899
0.18360937 0.091486864 0.93800002 4284573284
0.18475451 0.091187492 0.935 4284180325
0.18608792 0.090985641 0.93300003 4291812313
0.18781646 0.090978794 0.93300003 4294967295
0.18893543 0.090679385 0.93000001 4294967295
0.19065823 0.090672463 0.93000001 4294967295
0.19196725 0.090470493 0.92799997 4294967295
0.19306001 0.090171039 0.92500001 4294967295
0.19435214 0.089969039 0.92299998 4294967295
0.19542439 0.089669563 0.92000002 4294967295
0.19669972 0.089467548 0.91799998 4294967295
0.19839978 0.089460418 0.91799998 4294967295
0.19944587 0.089160904 0.91500002 4294967295
0.20070058 0.088958815 0.91299999 4294967295
0.20172611 0.088659294 0.91000003 4294967295
0.20296399 0.088457182 0.90799999 4294967295
0.20419437 0.088255055 0.90600002 4294967295
0.20519005 0.08795552 0.903 4294967295
0.20686176 0.087948151 0.903 4294967295
0.20807156 0.087745987 0.90100002 4294967295
0.20904106 0.087446399 0.898 4294967295
0.21023406 0.087244213 0.89600003 4294967295
0.21071005 0.086749904 0.89099997 4294967295
0.21188249 0.086547703 0.889 4294967295
0.21304746 0.086345486 0.88700002 4294967295
0.21468903 0.086337939 0.88700002 4294967295
0.21584275 0.086135678 0.88499999 4294967295
0.21748042 0.086128049 0.88499999 4294967295
0.21911807 0.086120367 0.88499999 4294967295
0.22075565 0.086112656 0.88499999 4294967295
0.2223931 0.086104885 0.88499999 4294967295
0.22327112 0.085805222 0.88200003 4294967295
0.22490285 0.085797392 0.88200003 4294967295
0.22653459 0.085789509 0.88200003 4294967295
0.22764882 0.085587069 0.88 4294967295
0.22875558 0.08538463 0.87800002 4294967295
0.22959252 0.08508493 0.875 4294967295
0.23121096 0.085076928 0.875 4294967295
0.23282936 0.085068896 0.875 4294967295
0.23444767 0.085060813 0.875 4294967295
0.23606591 0.085052691 0.875 4294967295
0.23768409 0.085044518 0.875 4294967295
0.23930219 0.0850363 0.875 4294967295
0.24092022 0.085028052 0.875 4294967295
0.24253817 0.085019737 0.875 4294967295
0.243598 0.084817082 0.87300003 4294967295
0.24521212 0.084808715 0.87300003 4294967295
0.24682617 0.084800296 0.87300003 4294967295
0.24844016 0.084791839 0.87300003 4294967295
0.25005409 0.084783331 0.87300003 4294967295
0.25166795 0.0847748 0.87300003 4294967295
0.25328177 0.084766209 0.87300003 4294967295
0.25489542 0.084757581 0.87300003 4294967295
0.2565091 0.084748901 0.87300003 4294967295
0.25812271 0.084740192 0.87300003 4294967295
0.25973618 0.08473143 0.87300003 4294967295
0.26134968 0.084722623 0.87300003 4294967295
0.26296303 0.084713779 0.87300003 4294967295
0.26397023 0.08451084 0.87099999 4294967295
0.26557979 0.084501922 0.87099999 4294967295
0.26780283 0.084686995 0.87300003 4294967295
0.26879877 0.084483981 0.87099999 4294967295
0.27040815 0.084474958 0.87099999 4294967295
0.27201748 0.084465876 0.87099999 4294967295
0.27362671 0.084456764 0.87099999 4294967295
0.27523592 0.084447607 0.87099999 4294967295
0.2768451 0.084438406 0.87099999 4294967290
0.27909356 0.084623046 0.87300003 4294967292
0.28070629 0.08461374 0.87300003 4294967290
0.28167215 0.084410556 0.87099999 4294967288
0.28328112 0.084401205 0.87099999 4294967288
0.28488997 0.084391803 0.87099999 4294966765
0.28649879 0.084382363 0.87099999 4294966765
0.28876907 0.084566616 0.87300003 4294835697
0.29104668 0.084750786 0.875 4294769648
0.2943351 0.085225403 0.88 4294637810
0.29596034 0.085215703 0.88 4294506481
0.29927629 0.085690081 0.88499999 4294374113
0.30091065 0.085680239 0.88499999 4293716184
0.30254495 0.085670359 0.88499999 4293847517
0.30417919 0.08566045 0.88499999 4293847517
0.30581343 0.085650489 0.88499999 4293387999
0.30744752 0.085640483 0.88499999 4292598484
0.30978018 0.085823961 0.88700002 4292598734
0.31141794 0.085813858 0.88700002 4292335561
0.3130556 0.085803717 0.88700002 4292531909
0.31717679 0.086470596 0.89399999 4292597702
0.31954059 0.086653724 0.89600003 4292399553
0.32119477 0.086643361 0.89600003 4292070845
0.32284895 0.08663296 0.89600003 4292136640
0.32703823 0.087299265 0.903 4291412660
0.18262394 0.092718005 0.93300003 4284441694
0.18435258 0.092711225 0.93300003 4284968038
0.18608114 0.092704408 0.93300003 4292007889
0.1878096 0.092697524 0.93300003 4294901502
0.18892856 0.092392556 0.93000001 4294967295
0.1906513 0.092385598 0.93000001 4294967295
0.19196025 0.092179932 0.92799997 4294967295
0.19305302 0.09187492 0.92500001 4294967295
0.19434513 0.091669209 0.92299998 4294967295
0.19541737 0.09136419 0.92000002 4294967295
0.19712116 0.091357052 0.92000002 4294967295
0.19839266 0.091151282 0.91799998 4294967295
0.19943871 0.090846211 0.91500002 4294967295
0.20069338 0.090640418 0.91299999 4294967295
0.2017189 0.090335347 0.91000003 4294967295
0.20295672 0.090129524 0.90799999 4294967295
0.2041871 0.08992368 0.90600002 4294967295
0.20518273 0.089618579 0.903 4294967295
0.20685443 0.08961121 0.903 4294967295
0.20806417 0.089405313 0.90100002 4294967295
0.20903367 0.08910019 0.898 4294967295
0.2102266 0.088894278 0.89600003 4294967295
0.21070258 0.08839073 0.89099997 4294967295
0.21139838 0.087986447 0.88700002 4294967295
0.21303996 0.087978914 0.88700002 4294967295
0.21419741 0.087772965 0.88499999 4294967295
0.21583515 0.087765358 0.88499999 4294967295
0.21747282 0.087757707 0.88499999 4294967295
0.21911041 0.087750003 0.88499999 4294967295
0.2207479 0.087742254 0.88499999 4294967295
0.22238533 0.087734461 0.88499999 4294967295
0.22326334 0.08742924 0.88200003 4294967295
0.22489507 0.087421387 0.88200003 4294967295
0.22652672 0.087413475 0.88200003 4294967295
0.22764093 0.087207332 0.88 4294967295
0.2287477 0.087001175 0.87800002 4294967295
0.22958456 0.086695932 0.875 4294967295
0.23120299 0.086687908 0.875 4294967295
0.23282135 0.086679846 0.875 4294967295
0.23443961 0.08667174 0.875 4294967295
0.23605779 0.086663581 0.875 4294967295
0.23767595 0.086655393 0.875 4294967295
0.23929398 0.086647145 0.875 4294967295
0.24036133 0.086440831 0.87300003 4294967295
0.24197556 0.086432524 0.87300003 4294967295
0.2435897 0.086424164 0.87300003 4294967295
0.24520378 0.08641576 0.87300003 4294967295
0.24681777 0.086407326 0.87300003 4294967295
0.24843176 0.086398847 0.87300003 4294967295
0.25004563 0.086390309 0.87300003 4294967295
0.25165939 0.086381748 0.87300003 4294967295
0.25327316 0.086373128 0.87300003 4294967295
0.25488684 0.08636447 0.87300003 4294967295
0.25650045 0.086355776 0.87300003 4294967295
0.25811401 0.086347036 0.87300003 4294967295
0.25972742 0.086338244 0.87300003 4294967295
0.26134086 0.086329423 0.87300003 4294967295
0.26295421 0.086320549 0.87300003 4294967295
0.26456752 0.086311631 0.87300003 4294967295
0.26618072 0.086302683 0.87300003 4294967295
0.26779386 0.086293697 0.87300003 4294967295
0.2687898 0.086086974 0.87099999 4294967295
0.27039912 0.086077921 0.87099999 4294967295
0.27200842 0.086068824 0.87099999 4294967295
0.27361766 0.086059675 0.87099999 4294967295
0.27522677 0.086050496 0.87099999 4294967295
0.27683589 0.086041279 0.87099999 4294967293
0.27908432 0.086229555 0.87300003 4294967291
0.28069702 0.086220227 0.87300003 4294967291
0.28230965 0.086210869 0.87300003 4294967295
0.28327176 0.086003967 0.87099999 4294967032
0.28488055 0.085994542 0.87099999 4294769648
0.28648934 0.085985079 0.87099999 4294769648
0.28875962 0.086172991 0.87300003 4294704629
0.29103717 0.086360805 0.875 4294638580
0.29432544 0.086844616 0.88 4294637810
0.29595062 0.086834878 0.88 4294440688
0.29825208 0.087022454 0.88200003 4293848287
0.30090085 0.087308578 0.88499999 4293782494
0.30253509 0.087298676 0.88499999 4293913308
0.3041693 0.08728873 0.88499999 4293979101
0.30580348 0.087278746 0.88499999 4293519067
0.3074376 0.087268725 0.88499999 4292729552
0.3097702 0.087455869 0.88700002 4292795599
0.31140783 0.087445743 0.88700002 4292400841
0.3130455 0.087435581 0.88700002 4292597191
0.31716654 0.088115312 0.89399999 4292465349
0.31953028 0.088302098 0.89600003 4292267452
0.32190141 0.088488787 0.898 4292201659
0.32536072 0.088970974 0.903 4292136640
0.32702771 0.088960432 0.903 4289965214
0.32978672 0.089245372 0.90600002 4290028945
0.18434581 0.094429865 0.93300003 4285032540
0.1860743 0.094423011 0.93300003 4291019447
0.18780273 0.094416112 0.93300003 4294046182
0.18892165 0.094105579 0.93000001 4294967295
0.19023435 0.093896225 0.92799997 4294967295
0.19133274 0.093585692 0.92500001 4294967295
0.19304599 0.093578644 0.92500001 4294967295
0.19433807 0.093369223 0.92299998 4294967295
0.19604748 0.0933621 0.92299998 4294967295
0.19711405 0.093051486 0.92000002 4294967295
0.19838549 0.092842005 0.91799998 4294967295
0.19943151 0.09253139 0.91500002 4294967295
0.20068616 0.09232188 0.91299999 4294967295
0.20126832 0.091809027 0.90799999 4294967295
0.20294946 0.091801718 0.90799999 4294967295
0.20417981 0.09159217 0.90600002 4294967295
0.2051754 0.091281518 0.903 4294967295
0.20684703 0.091274105 0.903 4294967295
0.20805676 0.091064513 0.90100002 4294967295
0.20902623 0.090753838 0.898 4294967295
0.21021914 0.090544216 0.89600003 4294967295
0.2102222 0.089829348 0.889 4294967295
0.21139088 0.089619748 0.88700002 4294967295
0.21303244 0.089612186 0.88700002 4294967295
0.21418984 0.089402534 0.88499999 4294967295
0.21582757 0.089394905 0.88499999 4294967295
0.21746518 0.089387223 0.88499999 4294967295
0.2191027 0.089379482 0.88499999 4294967295
0.22074018 0.089371711 0.88499999 4294967295
0.22237755 0.089363888 0.88499999 4294967295
0.2232555 0.089053132 0.88200003 4294967295
0.22488719 0.089045249 0.88200003 4294967295
0.22600518 0.088835403 0.88 4294967295
0.22763301 0.088827446 0.88 4294967295
0.22873971 0.088617586 0.87800002 4294967295
0.22957662 0.088306792 0.875 4294967295
0.23119494 0.088298745 0.875 4294967295
0.2328133 0.088290654 0.875 4294967295
0.23443151 0.088282511 0.875 4294967295
0.23604965 0.088274337 0.875 4294967295
0.23766777 0.088266104 0.875 4294967295
0.23928577 0.088257849 0.875 4294967295
0.24035309 0.088047825 0.87300003 4294967295
0.24196726 0.088039488 0.87300003 4294967295
0.24302331 0.087829426 0.87099999 4294967295
0.24463363 0.087821022 0.87099999 4294967295
0.24624392 0.087812573 0.87099999 4294967295
0.24785414 0.087804087 0.87099999 4294967295
0.24946426 0.087795563 0.87099999 4294967295
0.25107434 0.08778698 0.87099999 4294967295
0.25268432 0.08777836 0.87099999 4294967295
0.25429425 0.087769695 0.87099999 4294967295
0.25590417 0.087760992 0.87099999 4294967295
0.25751397 0.087752245 0.87099999 4294967295
0.25971869 0.08794494 0.87300003 4294967295
0.26133206 0.087936081 0.87300003 4294967295
0.26294538 0.087927185 0.87300003 4294967295
0.26455861 0.087918244 0.87300003 4294967295
0.265562 0.087707877 0.87099999 4294967295
0.26717144 0.087698877 0.87099999 4294967295
0.2687808 0.087689824 0.87099999 4294967295
0.27039006 0.08768075 0.87099999 4294967295
0.27199936 0.087671615 0.87099999 4294967295
0.27360851 0.087662451 0.87099999 4294967295
0.27584958 0.087854527 0.87300003 4294967295
0.27746236 0.087845251 0.87300003 4294901754
0.27907506 0.087835953 0.87300003 4294901752
0.28068772 0.087826587 0.87300003 4294901752
0.282947 0.088018373 0.875 4294967032
0.28326234 0.087606609 0.87099999 4294901239
0.28487116 0.087597154 0.87099999 4294637810
0.28779551 0.087989897 0.875 4294243052
0.28941157 0.087980323 0.875 4294178033
0.29202542 0.088272318 0.87800002 4293980398
0.29431579 0.088463694 0.88 4294111207
0.29594094 0.088453934 0.88 4294111207
0.2982423 0.08864516 0.88200003 4293979364
0.30089101 0.088936776 0.88499999 4293716449
0.30252519 0.088926852 0.88499999 4293520086
0.3041594 0.088916883 0.88499999 4293322706
0.30648458 0.089107804 0.88700002 4292861903
0.30812237 0.089097731 0.88700002 4292204230
0.31045848 0.089288503 0.889 4292664010
0.3120999 0.089278333 0.889 4292400839
0.31444702 0.089468941 0.89099997 4292597450
0.31715631 0.089759886 0.89399999 4292268485
0.31951997 0.089950323 0.89600003 4292136386
0.32189098 0.090140678 0.898 4292070593
0.32535025 0.090632044 0.903 4291939520
0.32701719 0.090621479 0.903 4288781456
0.32977608 0.090911902 0.90600002 4285427044
0.18433899 0.096148327 0.93300003 4285359202
0.18606745 0.09614145 0.93300003 4290425263
0.18779585 0.096134521 0.93300003 4292467410
0.18891472 0.095818445 0.93000001 4294967295
0.19022737 0.095605381 0.92799997 4294967295
0.19132572 0.09528929 0.92500001 4294967295
0.19303893 0.095282212 0.92500001 4294967295
0.19433101 0.095069081 0.92299998 4294967295
0.19540317 0.094752952 0.92000002 4294967295
0.19667837 0.094539791 0.91799998 4294967295
0.19773 0.094223641 0.91500002 4294967295
0.1994243 0.094216406 0.91500002 4294967295
0.2006789 0.094003186 0.91299999 4294967295
0.20126107 0.093481086 0.90799999 4294967295
0.20249516 0.093267858 0.90600002 4294967295
0.20349637 0.092951678 0.903 4294967295
0.20516804 0.092944294 0.903 4294967295
0.20638153 0.092731021 0.90100002 4294967295
0.20804933 0.092723541 0.90100002 4294967295
0.20901877 0.092407309 0.898 4294967295
0.21021163 0.092193983 0.89600003 4294967295
0.21021472 0.091466203 0.889 4294967295
0.21138337 0.091252893 0.88700002 4294967295
0.21302487 0.091245301 0.88700002 4294967295
0.21466632 0.091237672 0.88700002 4294967295
0.21581994 0.091024287 0.88499999 4294967295
0.21745747 0.091016561 0.88499999 4294967295
0.21909498 0.091008812 0.88499999 4294967295
0.22073242 0.091001011 0.88499999 4294967295
0.22236973 0.090993166 0.88499999 4294967295
0.22324768 0.090676852 0.88200003 4294967295
0.22487932 0.090668939 0.88200003 4294967295
0.22599727 0.090455398 0.88 4294967295
0.22762506 0.090447411 0.88 4294967295
0.22873177 0.09023384 0.87800002 4294967295
0.2295686 0.089917496 0.875 4294967295
0.23118694 0.089909427 0.875 4294967295
0.23280521 0.089901306 0.875 4294967295
0.2344234 0.08989314 0.875 4294967295
0.23604147 0.089884944 0.875 4294967295
0.23765953 0.089876689 0.875 4294967295
0.2392775 0.089868397 0.875 4294967295
0.24034481 0.089654669 0.87300003 4294967295
0.24195893 0.089646302 0.87300003 4294967295
0.24301496 0.089432538 0.87099999 4294967295
0.24462524 0.089424111 0.87099999 4294967295
0.24623552 0.08941564 0.87099999 4294967295
0.24784565 0.089407116 0.87099999 4294967295
0.24945574 0.089398555 0.87099999 4294967295
0.25106576 0.089389957 0.87099999 4294967295
0.25267574 0.089381315 0.87099999 4294967295
0.25428563 0.089372627 0.87099999 4294967295
0.25589547 0.089363895 0.87099999 4294967295
0.25750521 0.089355119 0.87099999 4294967295
0.25970989 0.089551471 0.87300003 4294967295
0.26132324 0.08954259 0.87300003 4294967295
0.2629365 0.089533672 0.87300003 4294967295
0.26394361 0.089319602 0.87099999 4294967295
0.26555306 0.089310624 0.87099999 4294967295
0.26716241 0.089301601 0.87099999 4294967295
0.2687718 0.089292526 0.87099999 4294967295
0.270381 0.089283429 0.87099999 4294967295
0.27199018 0.089274272 0.87099999 4294967295
0.27359936 0.089265093 0.87099999 4294967291
0.2758404 0.089460813 0.87300003 4294967290
0.27745312 0.089451514 0.87300003 4294967032
0.27970508 0.089647092 0.875 4294967292
0.28132138 0.089637689 0.875 4294967290
0.28293762 0.089628249 0.875 4294835957
0.2845538 0.08961878 0.875 4294507248
0.28616995 0.089609265 0.875 4294571758
0.28778601 0.089599699 0.875 4294505708
0.28940207 0.089590095 0.875 4294374381
0.29201579 0.089887597 0.87800002 4294176746
0.2943061 0.090082608 0.88 4294111207
0.29593122 0.090072833 0.88 4294045157
0.2982325 0.09026771 0.88200003 4293520099
0.29986125 0.090257838 0.88200003 4293059548
0.30251533 0.090554886 0.88499999 4292731096
0.30414942 0.090544894 0.88499999 4292665303
0.3064746 0.090739474 0.88700002 4291941837
0.30811229 0.090729371 0.88700002 4292007630
0.30974999 0.090719245 0.88700002 4292532938
0.31208971 0.090913601 0.889 4292204230
0.31373098 0.090903364 0.889 4292597961
0.31608173 0.091097578 0.89099997 4292203459
0.31879643 0.09139394 0.89399999 4292333762
0.32044685 0.091383547 0.89399999 4292070591
0.3235383 0.091781922 0.898 4291545534
0.18433218 0.097866647 0.93300003 4284112483
0.18778889 0.097852781 0.93300003 4289902531
0.18890773 0.097531147 0.93000001 4294967295
0.19022039 0.097314373 0.92799997 4294967295
0.1919392 0.097307295 0.92799997 4294967295
0.19303188 0.096985616 0.92500001 4294967295
0.19432387 0.096768782 0.92299998 4294967295
0.19539604 0.096447103 0.92000002 4294967295
0.1966712 0.096230239 0.91799998 4294967295
0.19772282 0.09590853 0.91500002 4294967295
0.19898118 0.095691636 0.91299999 4294967295
0.20067163 0.095684335 0.91299999 4294967295
0.20125377 0.095152996 0.90799999 4294967295
0.20248783 0.094936065 0.90600002 4294967295
0.20348905 0.094614342 0.903 4294967295
0.20516065 0.094606914 0.903 4294967295
0.20637411 0.09438993 0.90100002 4294967295
0.20734915 0.09406817 0.898 4294967295
0.20854577 0.093851164 0.89600003 4294967295
0.20973492 0.093634136 0.89399999 4294967295
0.2106801 0.093312368 0.89099997 4294967295
0.21185245 0.093095332 0.889 4294967295
0.21301731 0.09287829 0.88700002 4294967295
0.21465868 0.092870623 0.88700002 4294967295
0.2163 0.092862919 0.88700002 4294967295
0.2174498 0.092645787 0.88499999 4294967295
0.21908724 0.092638001 0.88499999 4294967295
0.22072461 0.092630178 0.88499999 4294967295
0.22236192 0.092622295 0.88499999 4294967295
0.22323981 0.092300437 0.88200003 4294967295
0.22487141 0.092292503 0.88200003 4294967295
0.22598937 0.092075258 0.88 4294967295
0.22761707 0.092067234 0.88 4294967295
0.22872375 0.09184996 0.87800002 4294967295
0.2295606 0.091528073 0.875 4294967295
0.23117884 0.091519967 0.875 4294967295
0.2327971 0.091511823 0.875 4294967295
0.23441523 0.091503635 0.875 4294967295
0.23603326 0.091495402 0.875 4294967295
0.23765132 0.091487125 0.875 4294967295
0.23926923 0.09147881 0.875 4294967295
0.24033649 0.091261372 0.87300003 4294967295
0.24195059 0.09125299 0.87300003 4294967295
0.2430066 0.091035515 0.87099999 4294967295
0.24461684 0.091027059 0.87099999 4294967295
0.24622703 0.09101855 0.87099999 4294967295
0.24783717 0.091010004 0.87099999 4294967295
0.24944717 0.091001421 0.87099999 4294967295
0.25105715 0.090992801 0.87099999 4294967295
0.2526671 0.090984136 0.87099999 4294967295
0.25427693 0.090975419 0.87099999 4294967295
0.25588676 0.090966664 0.87099999 4294967295
0.25749645 0.090957858 0.87099999 4294967295
0.25970104 0.091157861 0.87300003 4294967295
0.26071569 0.090940133 0.87099999 4294967295
0.2623252 0.090931222 0.87099999 4294967295
0.26332864 0.090713471 0.86900002 4294967295
0.26493436 0.090704486 0.86900002 4294967295
0.26715338 0.090904184 0.87099999 4294967295
0.26876271 0.090895094 0.87099999 4294967293
0.27037191 0.09088596 0.87099999 4294967292
0.27198112 0.090876795 0.87099999 4294967288
0.27421844 0.091076247 0.87300003 4294835443
0.27646306 0.091275588 0.875 4294901239
0.27807945 0.091266245 0.875 4294967032
0.27969575 0.091256872 0.875 4294967291
0.28131205 0.091247447 0.875 4294967292
0.2829282 0.091237977 0.875 4294835182
0.28454435 0.091228485 0.875 4294571754
0.28616044 0.091218948 0.875 4294637549
0.28777647 0.091209359 0.875 4294374633
0.28939244 0.091199726 0.875 4294439652
0.29200611 0.091502719 0.87800002 4293716186
0.29362753 0.091492988 0.87800002 4293913060
0.29592144 0.091691598 0.88 4293847267
0.29754648 0.091681764 0.88 4293387999
0.29985136 0.091880232 0.88200003 4292401104
0.30250537 0.092182778 0.88499999 4292270295
0.30413949 0.092172764 0.88499999 4292401882
0.30646455 0.092370987 0.88700002 4292073171
0.30810225 0.092360877 0.88700002 4292073171
0.30973989 0.092350714 0.88700002 4292204482
0.31207955 0.092548735 0.889 4291480502
0.31372079 0.092538476 0.889 4291676598
0.31607148 0.092736349 0.89099997 4291742391
0.31878608 0.093038209 0.89399999 4291807414
0.32187015 0.093444005 0.898 4292005050
0.32352787 0.093433492 0.898 4291610557
0.18778193 0.099570878 0.93300003 4288983966
0.18951012 0.099563837 0.93300003 4294901752
0.1906233 0.099236615 0.93000001 4294967295
0.19234577 0.099229507 0.93000001 4294967295
0.19302475 0.098688886 0.92500001 4294967295
0.19473781 0.098681696 0.92500001 4294967295
0.19602601 0.098461121 0.92299998 4294967295
0.19709249 0.098133855 0.92000002 4294967295
0.19836384 0.097913228 0.91799998 4294967295
0.19897389 0.097372651 0.91299999 4294967295
0.20066431 0.09736532 0.91299999 4294967295
0.20124647 0.096824758 0.90799999 4294967295
0.20248048 0.096604116 0.90600002 4294967295
0.20348167 0.096276835 0.903 4294967295
0.20515323 0.096269384 0.903 4294967295
0.20636666 0.09604869 0.90100002 4294967295
0.20734167 0.095721379 0.898 4294967295
0.20853828 0.09550067 0.89600003 4294967295
0.20972738 0.095279925 0.89399999 4294967295
0.21067256 0.094952621 0.89099997 4294967295
0.21184488 0.094731875 0.889 4294967295
0.21348998 0.094724208 0.889 4294967295
0.21513502 0.094716497 0.889 4294967295
0.21629229 0.094495691 0.88700002 4294967295
0.21793346 0.094487913 0.88700002 4294967295
0.21957459 0.094480082 0.88700002 4294967295
0.22121561 0.094472207 0.88700002 4294967295
0.22235405 0.094251283 0.88499999 4294967295
0.22399123 0.094243333 0.88499999 4294967295
0.2248635 0.09391591 0.88200003 4294967295
0.226495 0.0939079 0.88200003 4294967295
0.22760907 0.093686923 0.88 4294967295
0.22871572 0.093465932 0.87800002 4294967295
0.22955254 0.093138486 0.875 4294967295
0.2311708 0.093130365 0.875 4294967295
0.23278897 0.093122199 0.875 4294967295
0.23440704 0.093113974 0.875 4294967295
0.23602509 0.093105718 0.875 4294967295
0.23764305 0.093097419 0.875 4294967295
0.23926091 0.093089074 0.875 4294967295
0.24032816 0.092867933 0.87300003 4294967295
0.24194221 0.092859522 0.87300003 4294967295
0.24355617 0.092851058 0.87300003 4294967295
0.2446084 0.092629857 0.87099999 4294967295
0.24621852 0.092621334 0.87099999 4294967295
0.24782865 0.092612758 0.87099999 4294967295
0.24886587 0.092391528 0.86900002 4294967295
0.2504721 0.092382878 0.86900002 4294967295
0.25265843 0.092586793 0.87099999 4294967295
0.25426823 0.092578061 0.87099999 4294967295
0.255878 0.092569284 0.87099999 4294967295
0.25748768 0.092560455 0.87099999 4294967295
0.25909728 0.092551596 0.87099999 4294967295
0.26070684 0.092542686 0.87099999 4294967295
0.26231632 0.092533737 0.87099999 4294967295
0.26331973 0.092312299 0.86900002 4294967295
0.26492536 0.092303284 0.86900002 4294967295
0.26714438 0.09250664 0.87099999 4294967295
0.2681365 0.092285126 0.86900002 4294967287
0.26974201 0.092275999 0.86900002 4294967285
0.27197191 0.092479162 0.87099999 4294967285
0.273581 0.092469931 0.87099999 4294967286
0.27582189 0.092672966 0.87300003 4294967286
0.27743453 0.092663623 0.87300003 4294769650
0.27968639 0.092866495 0.875 4294506735
0.28130263 0.092857048 0.875 4294177513
0.28291878 0.092847578 0.875 4294307814
0.28453487 0.092838041 0.875 4294637036
0.28615093 0.092828475 0.875 4294769135
0.2877669 0.092818871 0.875 4294374633
0.28938285 0.09280923 0.875 4294374633
0.2909987 0.092799529 0.875 4293782240
0.29361784 0.093107954 0.87800002 4293978853
0.29591167 0.093310215 0.88 4293847267
0.29753664 0.093300365 0.88 4293321943
0.29984146 0.093502492 0.88200003 4292466634
0.30249545 0.093810529 0.88499999 4291875528
0.30412948 0.093800493 0.88499999 4292204493
0.30576351 0.093790412 0.88499999 4292204493
0.30809218 0.093992233 0.88700002 4292138444
0.31042817 0.094193958 0.889 4292204228
0.31206939 0.094183736 0.889 4291743677
0.31371057 0.094173461 0.889 4291545784
0.3160612 0.09437497 0.89099997 4291216562
0.31948888 0.094894141 0.89600003 4291477938
0.32185969 0.095095463 0.898 4291806903
0.32351738 0.095084928 0.898 4291478463
0.18777493 0.10128881 0.93300003 4289179823
0.18950307 0.10128174 0.93300003 4294311677
0.19061624 0.10094898 0.93000001 4294967295
0.19233866 0.10094183 0.93000001 4294967295
0.19364364 0.10071757 0.92799997 4294967295
0.19536217 0.10071032 0.92799997 4294967295
0.19601879 0.10016046 0.92299998 4294967295
0.19708525 0.099827647 0.92000002 4294967295
0.19835657 0.099603325 0.91799998 4294967295
0.19896664 0.099053524 0.91299999 4294967295
0.200657 0.099046156 0.91299999 4294967295
0.20123912 0.098496363 0.90799999 4294967295
0.20247312 0.098272011 0.90600002 4294967295
0.20347428 0.097939178 0.903 4294967295
0.20469144 0.097714804 0.90100002 4294967295
0.20635916 0.097707301 0.90100002 4294967295
0.20802684 0.097699746 0.90100002 4294967295
0.20806529 0.096933164 0.89399999 4294967295
0.20971984 0.096925572 0.89399999 4294967295
0.21066499 0.096592709 0.89099997 4294967295
0.21183726 0.096368253 0.889 4294967295
0.21348232 0.096360564 0.889 4294967295
0.21512732 0.096352831 0.889 4294967295
0.21628457 0.0961283 0.88700002 4294967295
0.2179257 0.096120499 0.88700002 4294967295
0.21956675 0.096112639 0.88700002 4294967295
0.22120772 0.096104741 0.88700002 4294967295
0.22284862 0.096096791 0.88700002 4294967295
0.2239833 0.095872149 0.88499999 4294967295
0.22485554 0.09553916 0.88200003 4294967295
0.22648698 0.095531128 0.88200003 4294967295
0.22760104 0.095306441 0.88 4294967295
0.22870769 0.095081754 0.87800002 4294967295
0.2303315 0.095073611 0.87800002 4294967295
0.2319552 0.09506543 0.87800002 4294967295
0.2327808 0.094732404 0.875 4294967295
0.23439886 0.094724163 0.875 4294967295
0.23601681 0.094715886 0.875 4294967295
0.23763475 0.094707549 0.875 4294967295
0.2392526 0.094699189 0.875 4294967295
0.24087036 0.09469077 0.875 4294967295
0.24193381 0.094465896 0.87300003 4294967295
0.24354774 0.094457418 0.87300003 4294967295
0.24459994 0.0942325 0.87099999 4294967295
0.24621002 0.094223946 0.87099999 4294967295
0.24782006 0.094215363 0.87099999 4294967295
0.24885727 0.093990408 0.86900002 4294967295
0.25046352 0.093981758 0.86900002 4294967295
0.25264978 0.094189323 0.87099999 4294967295
0.25425953 0.094180569 0.87099999 4294967295
0.25586924 0.094171755 0.87099999 4294967295
0.25747883 0.094162904 0.87099999 4294967295
0.2590884 0.094154015 0.87099999 4294967295
0.26069793 0.094145082 0.87099999 4294967295
0.26230738 0.094136111 0.87099999 4294967295
0.26391679 0.094127096 0.87099999 4294967295
0.26552609 0.094118036 0.87099999 4294967295
0.26713532 0.094108939 0.87099999 4294967290
0.26812744 0.09388373 0.86900002 4294638580
0.26973286 0.093874566 0.86900002 4294572787
0.27196279 0.094081394 0.87099999 4294835957
0.27357179 0.094072126 0.87099999 4294967292
0.2758126 0.09427882 0.87300003 4294835957
0.27742523 0.094269454 0.87300003 4294638834
0.279677 0.094475992 0.875 4293848548
0.28129321 0.094466522 0.875 4293848548
0.2829093 0.094457008 0.875 4294111207
0.28452533 0.094447464 0.875 4294637551
0.28614137 0.094437875 0.875 4294439904
0.28775731 0.094428241 0.875 4293979353
0.28937322 0.094418563 0.875 4293848287
0.2909891 0.094408855 0.875 4293584858
0.2936081 0.09472277 0.87800002 4293387999
0.29590189 0.094928697 0.88 4293059035
0.29752681 0.09491881 0.88 4293124296
0.2998316 0.095124587 0.88200003 4292532159
0.30248547 0.095438115 0.88499999 4292401606
0.30411947 0.095428064 0.88499999 4292335557
0.30575347 0.095417969 0.88499999 4292138437
0.30808204 0.095623456 0.88700002 4291940801
0.31041795 0.095828831 0.889 4292137662
0.31276122 0.096034132 0.89099997 4292203455
0.31440604 0.096023805 0.89099997 4291479739
0.31605092 0.096013449 0.89099997 4291282103
0.32098508 0.095982134 0.89099997 4291083196
0.18949603 0.10299949 0.93300003 4294964211
0.19060914 0.10266118 0.93000001 4294967295
0.19233151 0.10265401 0.93000001 4294967295
0.19363645 0.10242603 0.92799997 4294967295
0.19472343 0.10208768 0.92500001 4294967295
0.19601154 0.10185967 0.92299998 4294967295
0.19707799 0.10152131 0.92000002 4294967295
0.1983493 0.10129327 0.91799998 4294967295
0.19939518 0.1009549 0.91500002 4294967295
0.20064963 0.10072684 0.91299999 4294967295
0.20123176 0.10016781 0.90799999 4294967295
0.20246571 0.099939749 0.90600002 4294967295
0.20346685 0.099601366 0.903 4294967295
0.20468399 0.099373288 0.90100002 4294967295
0.20635168 0.099365756 0.90100002 4294967295
0.2080193 0.099358171 0.90100002 4294967295
0.20805775 0.098578677 0.89399999 4294967295
0.20971225 0.098571062 0.89399999 4294967295
0.21065737 0.098232649 0.89099997 4294967295
0.21182962 0.098004475 0.889 4294967295
0.21347465 0.097996764 0.889 4294967295
0.21511959 0.097989008 0.889 4294967295
0.21676446 0.097981207 0.889 4294967295
0.21840924 0.097973362 0.889 4294967295
0.22005394 0.097965457 0.889 4294967295
0.22119986 0.097737141 0.88700002 4294967295
0.22233826 0.097508803 0.88499999 4294967295
0.2239753 0.097500801 0.88499999 4294967295
0.2256123 0.097492762 0.88499999 4294967295
0.22724929 0.097484678 0.88499999 4294967295
0.22811025 0.097146109 0.88200003 4294967295
0.22869959 0.096697427 0.87800002 4294967295
0.23032336 0.096689261 0.87800002 4294967295
0.23194706 0.096681058 0.87800002 4294967295
0.23277262 0.096342489 0.875 4294967295
0.23439062 0.096334219 0.875 4294967295
0.23600854 0.096325912 0.875 4294967295
0.23762643 0.096317559 0.875 4294967295
0.23924422 0.096309163 0.875 4294967295
0.24086194 0.096300714 0.875 4294967295
0.24247962 0.096292228 0.875 4294967295
0.24353926 0.096063629 0.87300003 4294967295
0.2451531 0.096055076 0.87300003 4294967295
0.24620152 0.09582644 0.87099999 4294967295
0.2478115 0.095817827 0.87099999 4294967295
0.2494214 0.095809154 0.87099999 4294967295
0.25103125 0.095800452 0.87099999 4294967295
0.25264105 0.095791712 0.87099999 4294967295
0.25425076 0.095782928 0.87099999 4294967295
0.25586048 0.095774092 0.87099999 4294967295
0.25747001 0.095765218 0.87099999 4294967295
0.25907955 0.0957563 0.87099999 4294967295
0.26068902 0.095747352 0.87099999 4294967295
0.26229843 0.095738351 0.87099999 4294967294
0.26390779 0.095729306 0.87099999 4294967295
0.26551703 0.095720224 0.87099999 4294967295
0.26712629 0.095711097 0.87099999 4294770682
0.26811835 0.095482185 0.86900002 4294638580
0.26972374 0.095473014 0.86900002 4294638580
0.27257803 0.095903203 0.87300003 4294507246
0.27419066 0.09589389 0.87300003 4294507246
0.27580333 0.095884532 0.87300003 4294375660
0.27805141 0.096094795 0.875 4294112488
0.27966762 0.09608534 0.875 4293848287
0.28128377 0.096075848 0.875 4294045409
0.2828998 0.096066318 0.875 4294110689
0.2845158 0.096056744 0.875 4293847517
0.2861318 0.096047126 0.875 4293847769
0.28774771 0.096037485 0.875 4293387218
