# .PCD v0.7 - Point Cloud Data file format
VERSION 0.7
FIELDS x y z rgba
SIZE 4 4 4 4
TYPE F F F U
COUNT 1 1 1 1
WIDTH 1033
HEIGHT 1
VIEWPOINT 0 0 0 1 0 0 0
POINTS 1033
DATA ascii
-0.054705702 -6.9753005e-05 0.77999997 4292398520
-0.053249869 -6.8240603e-05 0.77999997 4292661949
-0.051794078 -6.6768946e-05 0.77999997 4292989117
-0.050338332 -6.533807e-05 0.77999997 4292989117
-0.048882622 -6.3947933e-05 0.77999997 4293121731
-0.047426954 -6.259857e-05 0.77999997 4293121731
-0.046030261 -6.1368533e-05 0.78100002 4292727746
-0.044572804 -6.0099046e-05 0.78100002 4293056454
-0.043225795 -5.902112e-05 0.78299999 4293451210
-0.041764688 -5.783021e-05 0.78299999 4293385417
-0.040406562 -5.6824989e-05 0.78500003 4292859843
-0.038941808 -5.571307e-05 0.78500003 4292991172
-0.037381604 -5.4502951e-05 0.78299999 4292794048
-0.035920661 -5.3475695e-05 0.78299999 4293057220
-0.034547772 -5.2623418e-05 0.78500003 4293124811
-0.03316747 -5.180723e-05 0.787 4293322191
-0.031699196 -5.0898088e-05 0.787 4293454294
-0.030230958 -5.003007e-05 0.787 4293520088
-0.028762769 -4.9203176e-05 0.787 4293650138
-0.027294612 -4.8417394e-05 0.787 4293650138
-0.025892144 -4.7793896e-05 0.78899997 4293716701
-0.024451302 -4.7148256e-05 0.79000002 4293716701
-0.023094034 -4.6718684e-05 0.79400003 4293912795
-0.021667445 -4.6207973e-05 0.796 4293978588
-0.020182736 -4.5621175e-05 0.796 4293715665
-0.018745048 -4.5189219e-05 0.79799998 4293847251
-0.01729995 -4.4796336e-05 0.80000001 4294176988
-0.015807917 -4.4331988e-05 0.80000001 4294045146
-0.014351724 -4.401922e-05 0.80199999 4294111195
-0.012856057 -4.3637527e-05 0.80199999 4294176988
-0.011374604 -4.3351727e-05 0.80299997 4294438623
-0.0099017704 -4.3160708e-05 0.80500001 4294241244
-0.0084423982 -4.3116961e-05 0.80900002 4293781197
-0.006951015 -4.3007083e-05 0.81099999 4294570713
-0.0054388125 -4.2832984e-05 0.81099999 4293783535
-0.0039363438 -4.2806576e-05 0.81300002 4289901747
-0.002420513 -4.2717009e-05 0.81300002 4285627551
-0.10933693 0.0013435001 0.80699998 4286479205
-0.10782952 0.0013465309 0.80699998 4288579451
-0.10632215 0.0013495195 0.80699998 4289961104
-0.10481481 0.0013524659 0.80699998 4289897107
-0.10266744 0.0013469722 0.80199999 4289962900
-0.10091721 0.0013464503 0.80000001 4289569941
-0.099174485 0.0013458723 0.79799998 4289635990
-0.097439252 0.0013452386 0.796 4289570204
-0.095952615 0.0013479366 0.796 4289504411
-0.094466016 0.0013505927 0.796 4289569952
-0.092745833 0.0013498071 0.79400003 4289636002
-0.091033146 0.0013489668 0.792 4290028959
-0.089327961 0.0013480724 0.79000002 4290028959
-0.087741479 0.0013488334 0.78899997 4290094500
-0.086268112 0.0013512596 0.78899997 4291081651
-0.084794782 0.0013536445 0.78899997 4290819745
-0.083110258 0.0013525509 0.787 4290688158
-0.081640743 0.0013548472 0.787 4291082149
-0.080171235 0.0013571025 0.787 4291542700
-0.078501761 0.001355862 0.78500003 4291148455
-0.076839797 0.0013545692 0.78299999 4290490525
-0.075377859 0.0013566901 0.78299999 4290819497
-0.073915966 0.0013587697 0.78299999 4291280048
-0.072269045 0.0013573326 0.78100002 4291149741
-0.070810951 0.0013593254 0.78100002 4291215534
-0.069264092 0.0013595338 0.77999997 4291150256
-0.067807928 0.0013614421 0.77999997 4291478965
-0.066351816 0.0013633096 0.77999997 4291610544
-0.064978942 0.0013668865 0.78100002 4291610544
-0.063521028 0.0013686746 0.78100002 4291610294
-0.062063146 0.0013704218 0.78100002 4291610294
-0.060605302 0.001372128 0.78100002 4291807416
-0.059147503 0.0013737933 0.78100002 4292399553
-0.057689745 0.0013754178 0.78100002 4292137392
-0.056232005 0.0013770014 0.78100002 4292334514
-0.054774322 0.001378544 0.78100002 4292333762
-0.053316664 0.0013800457 0.78100002 4292399555
-0.051859051 0.0013815066 0.78100002 4292399040
-0.050401479 0.0013829265 0.78100002 4292399040
-0.048943937 0.0013843055 0.78100002 4292661949
-0.047486443 0.0013856435 0.78100002 4293188293
-0.046028987 0.0013869407 0.78100002 4292531396
-0.044571567 0.0013881969 0.78100002 4292531396
-0.043224599 0.0013929702 0.78299999 4292992456
-0.041763529 0.0013941479 0.78299999 4292992456
-0.040405445 0.0013988483 0.78500003 4292663497
-0.038940728 0.0013999464 0.78500003 4292663497
-0.037476052 0.0014010036 0.78500003 4292663497
-0.03601142 0.0014020195 0.78500003 4292795084
-0.034634836 0.0014065689 0.787 4292664781
-0.033166558 0.001407505 0.787 4292861903
-0.031698316 0.0014083999 0.787 4293124298
-0.030306946 0.0014128349 0.78899997 4292926663
-0.02883506 0.0014136492 0.78899997 4293386703
-0.027363222 0.0014144224 0.78899997 4293781460
-0.025891427 0.0014151542 0.78899997 4293715413
-0.024512528 0.0014212281 0.792 4293715413
-0.023093399 0.0014254705 0.79400003 4293847769
-0.021666849 0.0014296741 0.796 4293847769
-0.020232886 0.0014338392 0.79799998 4293847251
-0.018744534 0.0014343704 0.79799998 4293649872
-0.017299477 0.0014384559 0.80000001 4294241746
-0.015807485 0.0014389046 0.80000001 4294307539
-0.014351332 0.0014429096 0.80199999 4293979092
-0.012871736 0.0014450748 0.80299997 4293518541
-0.011402624 0.0014489989 0.80500001 4293715154
-0.0099507021 0.001456483 0.80900002 4293583312
-0.0084630419 0.0014603263 0.81099999 4293846990
-0.0069508292 0.001460526 0.81099999 4294967273
-0.0054386687 0.0014606834 0.81099999 4294967295
-0.0039362418 0.0014644008 0.81300002 4294967295
-0.0024204536 0.0014644734 0.81300002 4294967295
-0.10960488 0.0028474133 0.80900002 4284244821
-0.10809378 0.002850442 0.80900002 4287131223
-0.1065827 0.002853428 0.80900002 4289039220
-0.10507166 0.0028563717 0.80900002 4289962123
-0.10266458 0.0028345326 0.80199999 4290027916
-0.1011667 0.0028373667 0.80199999 4289504411
-0.099420287 0.0028330761 0.80000001 4289504411
-0.097436555 0.0028216401 0.796 4289569945
-0.09594997 0.0028243277 0.796 4289635738
-0.094463401 0.0028269733 0.796 4289569954
-0.092743263 0.0028224678 0.79400003 4289438368
-0.09103062 0.0028179076 0.792 4289569439
-0.089325495 0.0028132936 0.79000002 4289569439
-0.08773905 0.0028121895 0.78899997 4289767070
-0.08626572 0.0028146047 0.78899997 4290293414
-0.084792435 0.0028169788 0.78899997 4290359457
-0.083319172 0.0028193116 0.78899997 4290425250
-0.081845939 0.0028216029 0.78899997 4290620576
-0.080169015 0.0028166946 0.787 4290818211
-0.078699589 0.0028188976 0.787 4291147176
-0.077033944 0.0028138906 0.78500003 4290752418
-0.075568303 0.0028160051 0.78500003 4290884517
-0.073913924 0.0028108987 0.78299999 4291016104
-0.072452106 0.0028129262 0.78299999 4290950824
-0.070990324 0.0028149127 0.78299999 4291148459
-0.06935098 0.0028096626 0.78100002 4290821804
-0.067806058 0.0028079618 0.77999997 4291085233
-0.066349983 0.0028098172 0.77999997 4291217331
-0.065143541 0.0028224464 0.78299999 4291283380
-0.06368193 0.0028242271 0.78299999 4291019440
-0.062220361 0.0028259663 0.78299999 4291282355
-0.060758837 0.0028276651 0.78299999 4291610553
-0.059145872 0.0028220958 0.78100002 4291610553
-0.057688143 0.0028237079 0.78100002 4291610544
-0.056230463 0.0028252788 0.78100002 4291807666
-0.054913078 0.0028340479 0.78299999 4291939006
-0.053451732 0.002835541 0.78299999 4291675835
-0.051857628 0.0028297463 0.78100002 4291412406
-0.050400089 0.0028311531 0.78100002 4291872957
-0.048942596 0.0028325194 0.78100002 4291873463
-0.047485139 0.0028338446 0.78100002 4292005050
-0.046027724 0.0028351287 0.78100002 4292334531
-0.044684485 0.0028436349 0.78299999 4292466116
-0.043223415 0.0028448403 0.78299999 4292138948
-0.041762386 0.002846004 0.78299999 4292073155
-0.040404338 0.0028543994 0.78500003 4292204491
-0.03903887 0.0028627589 0.787 4292336077
-0.037570503 0.0028638048 0.787 4292664527
-0.036102179 0.0028648095 0.787 4292401354
-0.034721907 0.0028730554 0.78899997 4292531909
-0.033249937 0.0028739797 0.78899997 4292992460
-0.031778008 0.0028748626 0.78899997 4293190093
-0.030306121 0.0028757039 0.78899997 4293058251
-0.028834281 0.0028765041 0.78899997 4293386191
-0.027362483 0.0028772624 0.78899997 4293254349
-0.025989171 0.0028889226 0.792 4293188045
-0.024573768 0.0028968977 0.79400003 4293779925
-0.023092777 0.0028975359 0.79400003 4293585112
-0.021720706 0.0029127325 0.79799998 4293519063
-0.020232348 0.0029132902 0.79799998 4293847769
-0.018744033 0.0029138059 0.79799998 4293387218
-0.017299017 0.0029215838 0.80000001 4293385158
-0.015846586 0.0029293213 0.80199999 4293779660
-0.014350954 0.0029297136 0.80199999 4293386189
-0.0128714 0.0029337164 0.80299997 4293320396
-0.01140233 0.0029413323 0.80500001 4293453009
-0.0099750469 0.0029635236 0.81099999 4292992458
-0.0084628286 0.0029637497 0.81099999 4292203457
-0.0069678007 0.0029712424 0.81300002 4294572005
-0.005451954 0.0029713835 0.81300002 4294967295
-0.0039361571 0.0029714815 0.81300002 4294967295
-0.002420411 0.0029715374 0.81300002 4294967295
-0.10278977 0.0043273568 0.80299997 4290158971
-0.10129005 0.0043301843 0.80299997 4289897372
-0.099666089 0.0043275743 0.80199999 4289634201
-0.09792348 0.0043195146 0.80000001 4289306255
-0.096429467 0.0043222061 0.80000001 4288779911
-0.094698131 0.0043140422 0.79799998 4289635496
-0.092974313 0.0043058232 0.796 4289569702
-0.091257975 0.0042975503 0.79400003 4289569952
-0.089323029 0.0042783911 0.79000002 4289504159
-0.087736629 0.0042754216 0.78899997 4289832863
-0.086263351 0.0042778268 0.78899997 4290227621
-0.084790096 0.00428019 0.78899997 4290293664
-0.083316877 0.0042825122 0.78899997 4290425250
-0.081843697 0.0042847926 0.78899997 4290357923
-0.080370538 0.004287031 0.78899997 4290357923
-0.078697421 0.0042783562 0.787 4290752164
-0.077228084 0.0042805066 0.787 4290752164
-0.075758763 0.0042826161 0.787 4290819497
-0.074289478 0.0042846836 0.787 4290950826
-0.072820231 0.0042867092 0.787 4290885801
-0.071169697 0.004277796 0.78500003 4290951594
-0.069526672 0.0042688302 0.78299999 4290952361
-0.067891136 0.004259814 0.78100002 4290952361
-0.066433229 0.0042616604 0.78100002 4291150508
-0.065141752 0.0042743837 0.78299999 4291347887
-0.063680179 0.0042761527 0.78299999 4291216047
-0.062377583 0.004288807 0.78500003 4291150254
-0.060912367 0.0042904983 0.78500003 4291084979
-0.059447173 0.0042921472 0.78500003 4291084979
-0.057982024 0.0042937552 0.78500003 4291478965
-0.056516912 0.0042953221 0.78500003 4291478965
-0.055051841 0.0042968476 0.78500003 4291610303
-0.053586803 0.0042983312 0.78500003 4291742145
-0.051989004 0.0042888182 0.78299999 4291478463
-0.050527781 0.0042902166 0.78299999 4291807685
-0.049066596 0.0042915735 0.78299999 4291939256
-0.047605444 0.0042928886 0.78299999 4291939256
-0.046144336 0.0042941631 0.78299999 4292400059
-0.044797406 0.0043063681 0.78500003 4292597439
-0.043332648 0.004307563 0.78500003 4291939770
-0.04186793 0.0043087159 0.78500003 4291808440
-0.04050618 0.0043208082 0.787 4291808452
-0.039037816 0.004321882 0.787 4292137160
-0.037664969 0.0043339003 0.78899997 4292466114
-0.036192946 0.0043348931 0.78899997 4292071356
-0.034720976 0.0043358444 0.78899997 4292202942
-0.033291187 0.0043422519 0.79000002 4292531907
-0.031817436 0.0043431208 0.79000002 4293188808
-0.030343723 0.0043439493 0.79000002 4293254601
-0.028870057 0.0043447358 0.79000002 4293188558
-0.027465791 0.0043564811 0.792 4293056716
-0.026054116 0.0043681897 0.79400003 4293122261
-0.024635015 0.0043798592 0.796 4293517019
-0.023150336 0.0043804841 0.796 4293124048
-0.021720137 0.0043920744 0.79799998 4292926413
-0.020282527 0.0044036261 0.80000001 4293057999
-0.018790526 0.0044041276 0.80000001 4293386964
-0.017341819 0.0044155978 0.80199999 4293385419
-0.015846182 0.0044160159 0.80199999 4293648592
-0.014368487 0.0044218991 0.80299997 4292992208
-0.012903138 0.0044332473 0.80500001 4292795086
-0.011430379 0.0044445549 0.80699998 4292335550
-0.0099748103 0.0044668373 0.81099999 4288979850
-0.0084835039 0.0044780634 0.81300002 4284574075
-0.0069847889 0.0044892468 0.815 4281810769
-0.0054652547 0.0044893711 0.815 4281616992
-0.0039457716 0.004489453 0.815 4288459208
-0.10278694 0.0058165216 0.80299997 4288776818
-0.10128727 0.0058193393 0.80299997 4289764756
-0.09966334 0.0058148638 0.80199999 4289567376
-0.097920798 0.0058030854 0.80000001 4289240460
-0.096426807 0.0058057657 0.80000001 4289372047
-0.094932862 0.0058084046 0.80000001 4289766564
-0.093205348 0.0057964735 0.79799998 4289635234
-0.091485344 0.0057844874 0.796 4289569952
-0.089546695 0.0057579065 0.792 4289569952
-0.088067822 0.0057603512 0.792 4289767840
-0.08746361 0.0058209645 0.80000001 4290030755
-0.084787779 0.0057432787 0.78899997 4289570454
-0.08331459 0.0057455897 0.78899997 4289636504
-0.081841454 0.0057478589 0.78899997 4290554271
-0.08036834 0.0057500871 0.78899997 4290751651
-0.078895263 0.0057522734 0.78899997 4290817696
-0.077225968 0.0057398314 0.787 4290817696
-0.075756691 0.0057419292 0.787 4290885801
-0.074287452 0.0057439855 0.787 4290820008
-0.072818249 0.0057460004 0.787 4290885803
-0.071349069 0.0057479735 0.787 4290688167
-0.069702365 0.0057352935 0.78500003 4290884515
-0.068236984 0.005737179 0.78500003 4290950565
-0.066941783 0.0057536447 0.787 4291082662
-0.065306365 0.0057408251 0.78500003 4291148455
-0.063841105 0.0057425871 0.78500003 4291216301
-0.062375892 0.0057443068 0.78500003 4291150508
-0.060910705 0.0057459855 0.78500003 4290953906
-0.059445553 0.0057476219 0.78500003 4291085492
-0.057980452 0.0057492182 0.78500003 4291348149
-0.056515373 0.0057507721 0.78500003 4291348149
-0.055050354 0.005752285 0.78500003 4291478965
-0.053585347 0.005753756 0.78500003 4291676600
-0.052120399 0.0057551865 0.78500003 4291347385
-0.050655484 0.0057565751 0.78500003 4291676350
-0.049190596 0.0057579218 0.78500003 4291939256
-0.047725763 0.0057592276 0.78500003 4292005050
-0.04626096 0.0057604914 0.78500003 4292596419
-0.04491033 0.0057763937 0.787 4292135868
-0.04344188 0.0057775783 0.787 4292003505
-0.041973475 0.0057787215 0.787 4292332214
-0.040505104 0.0057798228 0.787 4291939256
-0.039135981 0.0057955734 0.78899997 4292465601
-0.037711702 0.0058039413 0.79000002 4292466114
-0.036237858 0.0058049215 0.79000002 4292334785
-0.034764066 0.0058058603 0.79000002 4292661949
-0.033374589 0.0058214581 0.792 4292727742
-0.031977691 0.0058370181 0.79400003 4292727492
-0.030496566 0.0058378358 0.79400003 4292924614
-0.029015478 0.0058386116 0.79400003 4292464063
-0.027534436 0.0058393455 0.79400003 4292924614
-0.026119063 0.0058547482 0.796 4292859595
-0.02463438 0.0058553996 0.796 4293122511
-0.023149742 0.0058560087 0.796 4293057738
-0.021774022 0.0058860066 0.80000001 4292991945
-0.020282015 0.0058865352 0.80000001 4292991947
-0.018790057 0.0058870213 0.80000001 4293057740
-0.017341388 0.0059021832 0.80199999 4293188558
-0.015865553 0.0059099463 0.80299997 4293122765
-0.014368141 0.0059103067 0.80299997 4292794563
-0.012902834 0.0059253462 0.80500001 4292334012
-0.011458445 0.005955067 0.80900002 4291217081
-0.0099991877 0.0059847473 0.81300002 4286874742
-0.0084833251 0.005984941 0.81300002 4284704589
-0.0069846516 0.0059998147 0.815 4282730799
-0.10304014 0.0073237563 0.80500001 4284964193
-0.10128448 0.0073083681 0.80299997 4285621373
-0.099660613 0.0073020281 0.80199999 4288384679
-0.098162904 0.0073047476 0.80199999 4288516742
-0.096665241 0.0073074237 0.80199999 4289372051
-0.094930269 0.0072918297 0.80000001 4289438355
-0.0932028 0.0072761788 0.79799998 4289438355
-0.091482833 0.0072604739 0.796 4289438366
-0.089770384 0.0072447141 0.79400003 4289569952
-0.088287815 0.0072471551 0.79400003 4289832861
-0.087023914 0.0072678146 0.796 4290424998
-0.08532276 0.0072519104 0.79400003 4289635998
-0.083840288 0.0072542252 0.79400003 4289504411
-0.082357846 0.0072564981 0.79400003 4290030492
-0.080468014 0.0072221612 0.79000002 4290556836
-0.078993104 0.0072243391 0.79000002 4290490525
-0.077420108 0.0072173271 0.78899997 4290293402
-0.075947143 0.0072194189 0.78899997 4290426017
-0.074474216 0.0072214692 0.78899997 4290426017
-0.07300131 0.0072234776 0.78899997 4290754215
-0.07152845 0.0072254445 0.78899997 4290754215
-0.069878049 0.0072090495 0.787 4290884515
-0.068408981 0.0072109275 0.787 4290884515
-0.067110084 0.0072310944 0.78899997 4290688421
-0.065637365 0.0072328947 0.78899997 4290820008
-0.06400203 0.0072163139 0.787 4291150508
-0.062533125 0.0072180252 0.787 4291216301
-0.061064243 0.0072196964 0.787 4291019951
-0.059595402 0.0072213253 0.787 4291217331
-0.058126602 0.0072229127 0.787 4291348139
-0.05665784 0.0072244583 0.787 4290689953
-0.055189114 0.0072259619 0.787 4291347619
-0.053720437 0.0072274255 0.787 4291676841
-0.052251786 0.0072288453 0.787 4291347383
-0.050654121 0.0072118505 0.78500003 4291281590
-0.049189284 0.0072131851 0.78500003 4291610542
-0.047846079 0.0072328579 0.787 4292005300
-0.046377592 0.0072341124 0.787 4292070591
-0.045023266 0.0072537116 0.78899997 4291478453
-0.043440737 0.0072364965 0.787 4291676087
-0.041972365 0.0072376244 0.787 4292005052
-0.040504035 0.0072387131 0.787 4291873965
-0.039134949 0.0072581563 0.78899997 4292531896
-0.037901651 0.0073051671 0.79400003 4292531644
-0.036420394 0.0073061381 0.79400003 4292531644
-0.034939174 0.0073070675 0.79400003 4292661949
-0.033457998 0.0073079551 0.79400003 4292727742
-0.032057408 0.0073272102 0.796 4293056970
-0.030572593 0.0073280144 0.796 4293056970
-0.029087819 0.0073287785 0.796 4292530121
-0.027603086 0.0073294993 0.796 4292793550
-0.026184026 0.0073485957 0.79799998 4292924868
-0.024695655 0.0073492341 0.79799998 4292727746
-0.023207329 0.0073498292 0.79799998 4293057220
-0.021773482 0.0073688054 0.80000001 4293123013
-0.020281522 0.0073693185 0.80000001 4292926665
-0.018836576 0.0073882132 0.80199999 4292531907
-0.017362598 0.0073978552 0.80299997 4292400587
-0.015865183 0.0073982426 0.80299997 4292663758
-0.014403597 0.0074170153 0.80500001 4292401339
-0.01296666 0.0074541741 0.80900002 4286874983
-0.011486525 0.0074728644 0.81099999 4283261803
-0.0099989818 0.0074915136 0.81300002 4281353550
-0.10303732 0.0088163782 0.80500001 4283915329
-0.10153398 0.0088191824 0.80500001 4284572239
-0.099782154 0.008800027 0.80299997 4287993476
-0.098282628 0.008802739 0.80299997 4288450456
-0.096783124 0.0088054081 0.80299997 4289305765
-0.095164992 0.0087970663 0.80199999 4289569173
-0.09343385 0.008777705 0.80000001 4289240208
-0.091710195 0.0087582879 0.79799998 4289239949
-0.089994043 0.0087388149 0.796 4289700500
-0.088507786 0.0087412521 0.796 4289569941
-0.087021552 0.0087436438 0.796 4289964699
-0.085320443 0.0087240217 0.79400003 4289637533
-0.083838008 0.0087263258 0.79400003 4289505947
-0.083289117 0.0088275261 0.80299997 4289441437
-0.081789941 0.0088297715 0.80299997 4289441437
-0.07919094 0.0087109869 0.792 4289768603
-0.077712379 0.0087131178 0.792 4289834396
-0.076233849 0.0087152058 0.792 4290294945
-0.074755363 0.0087172529 0.792 4290229152
-0.0732769 0.0087192561 0.792 4290688417
-0.071798488 0.0087212203 0.792 4290820260
-0.070053741 0.0086900983 0.78899997 4290884515
-0.068580985 0.0086919703 0.78899997 4290884515
-0.067193337 0.0087048179 0.79000002 4290754213
-0.0657188 0.0087066088 0.79000002 4290688419
-0.064162955 0.0086973328 0.78899997 4290953897
-0.062690355 0.0086990381 0.78899997 4291085483
-0.061217781 0.0087007005 0.78899997 4290822838
-0.059745252 0.008702321 0.78899997 4290822838
-0.058272768 0.0087038996 0.78899997 4291150254
-0.056800313 0.0087054372 0.78899997 4291150254
-0.055327892 0.008706932 0.78899997 4291412899
-0.05385552 0.0087083858 0.78899997 4291412899
-0.052383177 0.0087097967 0.78899997 4290492842
-0.050910883 0.0087111676 0.78899997 4290953393
-0.049438629 0.0087124957 0.78899997 4291412395
-0.047966406 0.0087137809 0.78899997 4292070324
-0.046494223 0.0087150242 0.78899997 4291808448
-0.045022085 0.0087162275 0.78899997 4291545532
-0.043549988 0.0087173879 0.78899997 4291676861
-0.042077929 0.0087185064 0.78899997 4291742654
-0.04060591 0.008719583 0.78899997 4291939508
-0.03913394 0.0087206187 0.78899997 4291939508
-0.037996139 0.0087989895 0.796 4291939506
-0.03651119 0.0087999487 0.796 4292071093
-0.035026282 0.008800867 0.796 4292530360
-0.033625692 0.0088238567 0.79799998 4292662203
-0.032137141 0.0088246921 0.79799998 4293122763
-0.030648632 0.0088254837 0.79799998 4292859591
-0.029160172 0.0088262344 0.79799998 4292267967
-0.027741104 0.0088490658 0.80000001 4292597189
-0.026249001 0.0088497326 0.80000001 4292794050
-0.024756942 0.0088503584 0.80000001 4292728257
-0.023264928 0.0088509405 0.80000001 4292728005
-0.02182739 0.008873608 0.80199999 4292793798
-0.020331742 0.0088741072 0.80199999 4292597963
-0.018906593 0.0089077605 0.80500001 4292268999
-0.017405443 0.0089081749 0.80500001 4292203459
-0.015943853 0.0089306803 0.80699998 4292466632
-0.014439066 0.008931011 0.80699998 4292075470
-0.096780494 0.010294154 0.80299997 4290161844
-0.095281065 0.010296771 0.80299997 4289307287
-0.093664892 0.010286519 0.80199999 4288320392
-0.091707706 0.010237731 0.79799998 4288912263
-0.090217724 0.010240206 0.79799998 4289570193
-0.088727765 0.010242636 0.79799998 4289504402
-0.087784439 0.010309217 0.80299997 4289438353
-0.086285211 0.010311579 0.80299997 4289833363
-0.08478602 0.010313899 0.80299997 4290293914
-0.083286867 0.010316174 0.80299997 4289965462
-0.081685886 0.010305559 0.80199999 4289570960
-0.079388782 0.010204927 0.79400003 4289636763
-0.077906534 0.010207051 0.79400003 4289636763
-0.076616809 0.01023485 0.796 4289835161
-0.074942134 0.010211174 0.79400003 4289835161
-0.073459975 0.010213173 0.79400003 4289900439
-0.071977869 0.010215129 0.79400003 4289966232
-0.070318222 0.010191306 0.792 4290096539
-0.068839908 0.010193173 0.792 4290096539
-0.067361638 0.010194997 0.792 4290293662
-0.065883406 0.01019678 0.792 4290096539
-0.064405203 0.01019852 0.792 4290821014
-0.062768146 0.010174462 0.79000002 4291610273
-0.061293744 0.010176114 0.79000002 4291150004
-0.059819389 0.010177725 0.79000002 4290163109
-0.058345079 0.010179292 0.79000002 4290688688
-0.0568708 0.01018082 0.79000002 4291346617
-0.055396561 0.010182303 0.79000002 4291477920
-0.053922363 0.010183747 0.79000002 4291477920
-0.052448194 0.010185147 0.79000002 4290886835
-0.050909549 0.01017361 0.78899997 4291018164
-0.049437329 0.010174925 0.78899997 4291412395
-0.04796515 0.010176199 0.78899997 4291609773
-0.046551939 0.010190328 0.79000002 4291478453
-0.04507798 0.01019152 0.79000002 4291478453
-0.043604057 0.010192668 0.79000002 4291149239
-0.042236827 0.01021958 0.792 4291017653
-0.040759258 0.010220649 0.792 4291478453
-0.039380927 0.010247485 0.79400003 4291873211
-0.037995175 0.010274285 0.796 4291939508
-0.036601998 0.010301048 0.79799998 4292005302
-0.035113398 0.010301953 0.79799998 4292332214
-0.03362485 0.010302816 0.79799998 4292332214
-0.032216884 0.010329462 0.80000001 4292398261
-0.030801494 0.010356066 0.80199999 4292398261
-0.029305616 0.010356806 0.80199999 4292267958
-0.027844453 0.010370418 0.80299997 4292794302
-0.026346793 0.010371071 0.80299997 4292925116
-0.024849184 0.010371684 0.80299997 4292662200
-0.02340978 0.010398087 0.80500001 4292136638
-0.021908529 0.010398614 0.80500001 4291807416
-0.02045803 0.010424935 0.80699998 4291545280
-0.018953139 0.010425379 0.80699998 4291413694
-0.017448302 0.01042578 0.80699998 4291085994
-0.09750101 0.011870815 0.80900002 4290690498
-0.095990412 0.01187344 0.80900002 4288782749
-0.093779147 0.011787944 0.80299997 4287861647
-0.091935068 0.011746417 0.80000001 4288781706
-0.090441398 0.011748887 0.80000001 4288979341
-0.089503668 0.01182476 0.80500001 4289044110
-0.088000715 0.011827159 0.80500001 4288978317
-0.086497806 0.011829515 0.80500001 4289305994
-0.084994905 0.011831828 0.80500001 4289897874
-0.083284631 0.011804698 0.80299997 4289897874
-0.081683703 0.011792217 0.80199999 4289766545
-0.079586618 0.011706156 0.796 4289636765
-0.078100681 0.011708276 0.796 4289636765
-0.07661476 0.011710351 0.796 4289636761
-0.075128891 0.011712385 0.796 4289834396
-0.073458023 0.011684945 0.79400003 4289638298
-0.071975939 0.011686889 0.79400003 4289309333
-0.070493922 0.01168879 0.79400003 4289373843
-0.069011919 0.011690649 0.79400003 4289702808
-0.067529961 0.011692467 0.79400003 4290293402
-0.066048034 0.011694243 0.79400003 4290227353
-0.064566135 0.011695976 0.79400003 4290096791
-0.062925391 0.011668202 0.792 4290359707
-0.0614473 0.011669845 0.792 4290951078
-0.059969258 0.011671447 0.792 4290687906
-0.058491256 0.011673007 0.792 4290687391
-0.057013281 0.011674524 0.792 4291082149
-0.055535354 0.011676001 0.792 4291017893
-0.054057457 0.011677433 0.792 4291017893
-0.052579604 0.011678824 0.792 4291017651
-0.050972752 0.011650678 0.79000002 4291083444
-0.049498707 0.011651982 0.79000002 4291346606
-0.048024703 0.011653243 0.79000002 4291148970
-0.046550747 0.011654464 0.79000002 4291147942
-0.045190942 0.011685147 0.792 4291279527
-0.043713327 0.011686285 0.792 4291411116
-0.042342417 0.011716895 0.79400003 4291411116
-0.040964074 0.011747466 0.796 4291740078
-0.039479122 0.011748482 0.796 4292069044
-0.038089681 0.011778978 0.79799998 4292005052
-0.036601085 0.011779912 0.79799998 4291939002
-0.035200533 0.011810328 0.80000001 4292199862
-0.033792559 0.011840707 0.80199999 4292331704
-0.032296631 0.011841518 0.80199999 4292199862
-0.03080075 0.011842285 0.80199999 4292002483
-0.029341446 0.011857775 0.80299997 4292070576
-0.027982486 0.011917529 0.80699998 4292267956
-0.02647741 0.011918172 0.80699998 4292071347
-0.024910495 0.011889235 0.80500001 4291807918
-0.023409242 0.01188979 0.80500001 4291085494
-0.022016892 0.011949385 0.80900002 4290953908
-0.020508271 0.011949856 0.80900002 4290887609
-0.018999701 0.011950286 0.80900002 4290690487
-0.098462515 0.013502644 0.81699997 4291083457
-0.096937023 0.013505287 0.81699997 4288123290
-0.094710886 0.013408684 0.81099999 4286807430
-0.093196675 0.013411219 0.81099999 4287202701
-0.091230303 0.013347553 0.80699998 4288255389
-0.089501269 0.013316904 0.80500001 4289108622
-0.087998353 0.013319293 0.80500001 4289372051
-0.086495474 0.013321638 0.80500001 4289633417
-0.08499264 0.013323943 0.80500001 4289765260
-0.083282404 0.013293092 0.80299997 4289437069
-0.08168152 0.013278746 0.80199999 4289305740
-0.079984419 0.013247793 0.80000001 4289307285
-0.078294821 0.013216785 0.79799998 4289307285
-0.076805227 0.013218855 0.79799998 4289438866
-0.075126901 0.013187748 0.796 4289504915
-0.073456079 0.013156589 0.79400003 4289241746
-0.071974039 0.013158523 0.79400003 4289109903
-0.070492059 0.013160412 0.79400003 4289307285
-0.069010101 0.013162261 0.79400003 4289767836
-0.067528181 0.013164066 0.79400003 4290031255
-0.066046298 0.013165828 0.79400003 4290031255
-0.064564444 0.01316755 0.79400003 4289899421
-0.063082643 0.013169227 0.79400003 4289702043
-0.061600864 0.013170863 0.79400003 4290556318
-0.060119126 0.013172457 0.79400003 4291016869
-0.058637433 0.013174009 0.79400003 4290556570
-0.057155773 0.013175516 0.79400003 4290490777
-0.055674158 0.013176984 0.79400003 4290359457
-0.05405606 0.013145213 0.792 4290359457
-0.052578256 0.01314659 0.792 4290228398
-0.051229522 0.013181128 0.79400003 4290228398
-0.049748063 0.013182425 0.79400003 4290557351
-0.048266638 0.01318368 0.79400003 4290886316
-0.046785258 0.01318489 0.79400003 4291082916
-0.045418024 0.013219276 0.796 4290753951
-0.043932993 0.013220404 0.796 4291214504
-0.042554654 0.013254713 0.79799998 4291543213
-0.041065972 0.013255761 0.79799998 4291477422
-0.039577335 0.013256766 0.79799998 4291477422
-0.038184199 0.013290956 0.80000001 4291346865
-0.036691915 0.013291878 0.80000001 4291346865
-0.035287667 0.013325986 0.80199999 4291674549
-0.033791739 0.013326827 0.80199999 4291674549
-0.032336123 0.01334424 0.80299997 4291806642
-0.030838413 0.013344993 0.80299997 4291477420
-0.02955999 0.013445424 0.80900002 4291873702
-0.028051183 0.013446094 0.80900002 4292070824
-0.026542418 0.013446726 0.80900002 4291939747
-0.025033705 0.013447313 0.80900002 4290031750
-0.023525035 0.013447854 0.80900002 4286941330
-0.022070838 0.0134816 0.81099999 4286546572
-0.020558532 0.013482057 0.81099999 4283981174
-0.019046271 0.013482472 0.81099999 4283718003
-0.098459862 0.01501696 0.81699997 4290558398
-0.09693443 0.015019591 0.81699997 4288057999
-0.095409021 0.015022179 0.81699997 4287136897
-0.093194179 0.014914382 0.81099999 4287725952
-0.091227867 0.014843293 0.80699998 4288252552
-0.08949887 0.014808925 0.80500001 4289106825
-0.087996006 0.014811303 0.80500001 4289369998
-0.086493172 0.014813636 0.80500001 4289500805
-0.084990382 0.014815929 0.80500001 4289698183
-0.083280183 0.014781361 0.80299997 4289502601
-0.081781194 0.014783562 0.80299997 4289568394
-0.080182262 0.014767305 0.80199999 4289438357
-0.078488968 0.014732586 0.80000001 4289306515
-0.076995678 0.014734651 0.80000001 4289174667
-0.075313665 0.014699828 0.79799998 4289306253
-0.073639162 0.014664955 0.796 4289437323
-0.071972147 0.014630031 0.79400003 4289503116
-0.070490204 0.014631909 0.79400003 4289568912
-0.069008276 0.014633745 0.79400003 4290029463
-0.067526408 0.01463554 0.79400003 4289768601
-0.066044562 0.01463729 0.79400003 4289702808
-0.064725384 0.014675871 0.796 4289768088
-0.063080989 0.014640665 0.79400003 4289899417
-0.061599266 0.01464229 0.79400003 4290096791
-0.060117569 0.014643869 0.79400003 4290228120
-0.05863592 0.014645409 0.79400003 4290359707
-0.057154305 0.014646905 0.79400003 4290293914
-0.05567272 0.014648358 0.79400003 4290097052
-0.054191183 0.014649769 0.79400003 4290228639
-0.052842449 0.014688044 0.796 4290098084
-0.051357262 0.014689373 0.796 4289966498
-0.049997412 0.01472757 0.79799998 4290098338
-0.048508566 0.014728817 0.79799998 4290558889
-0.047019761 0.014730021 0.79799998 4290952357
-0.045530997 0.014731184 0.79799998 4290689442
-0.044042278 0.014732304 0.79799998 4291148968
-0.042660251 0.014770306 0.80000001 4291148968
-0.041167881 0.014771341 0.80000001 4291082916
-0.039675556 0.014772336 0.80000001 4291214502
-0.038278725 0.014810219 0.80199999 4291280296
-0.036782753 0.014811128 0.80199999 4291214502
-0.035286821 0.014811997 0.80199999 4291017639
-0.033790935 0.014812821 0.80199999 4291412397
-0.032335363 0.014832071 0.80299997 4291676089
-0.031068118 0.014943643 0.80900002 4291478453
-0.029559303 0.014944342 0.80900002 4291216560
-0.02805054 0.014945 0.80900002 4290821802
-0.026541822 0.014945615 0.80900002 4290756263
-0.02503315 0.014946188 0.80900002 4289243281
-0.023524525 0.014946714 0.80900002 4286482042
-0.022124797 0.015021103 0.81300002 4284442716
-0.020608807 0.015021546 0.81300002 4283914323
-0.019233767 0.015132808 0.81900001 4283387979
-0.098457232 0.016531143 0.81699997 4289702828
-0.096931837 0.016533764 0.81699997 4287861138
-0.09540648 0.016536342 0.81699997 4287795344
-0.093421519 0.016457902 0.81300002 4287399303
-0.091451526 0.016379394 0.80900002 4287333254
-0.089718841 0.016341316 0.80699998 4288515458
-0.088212281 0.016343687 0.80699998 4288581251
-0.086705767 0.016346015 0.80699998 4289107073
-0.085199267 0.016348302 0.80699998 4289238915
-0.083692819 0.016350547 0.80699998 4289437058
-0.081982717 0.016312219 0.80500001 4289700230
-0.080280103 0.016273836 0.80299997 4289569171
-0.078683116 0.016255671 0.80199999 4289306255
-0.077186137 0.016257728 0.80199999 4289306507
-0.075500444 0.016219197 0.80000001 4289306507
-0.074007265 0.016221164 0.80000001 4289502863
-0.072514117 0.016223084 0.80000001 4289568912
-0.070843466 0.016184403 0.79799998 4289568912
-0.069354117 0.016186237 0.79799998 4289568912
-0.067864828 0.016188027 0.79799998 4289635470
-0.06654191 0.01623035 0.80000001 4289174919
-0.065048955 0.016232062 0.80000001 4289372300
-0.063238256 0.016152559 0.796 4289569423
-0.06175283 0.016154174 0.796 4289570956
-0.060267448 0.016155746 0.796 4289899921
-0.058782108 0.016157277 0.796 4289965716
-0.057296798 0.016158761 0.796 4289899923
-0.055811536 0.016160209 0.796 4290031255
-0.054326307 0.016161611 0.796 4290294684
-0.052841108 0.016162969 0.796 4290229141
-0.051484998 0.016204899 0.79799998 4289768590
-0.050121456 0.016246794 0.80000001 4290162848
-0.048628923 0.016248031 0.80000001 4290294434
-0.047254272 0.016289847 0.80199999 4290556820
-0.045758087 0.016291 0.80199999 4290359698
-0.044261955 0.016292112 0.80199999 4290556320
-0.042765856 0.016293181 0.80199999 4290687906
-0.041269798 0.016294206 0.80199999 4290687895
-0.039773777 0.016295187 0.80199999 4290819224
-0.038325533 0.016316446 0.80299997 4291017369
-0.036827736 0.016317343 0.80299997 4291083418
-0.035329986 0.016318196 0.80299997 4291083416
-0.033916544 0.016359651 0.80500001 4290557072
-0.032415148 0.016360423 0.80500001 4290096798
-0.031144211 0.016483095 0.81099999 4289768090
-0.029704791 0.016524432 0.81300002 4287270291
-0.02811926 0.016484428 0.81099999 4286481031
-0.026606854 0.016485028 0.81099999 4284046186
-0.025218267 0.016566893 0.815 4284046186
-0.023698496 0.016567413 0.815 4283652430
-0.022287622 0.016649198 0.81900001 4283323721
-0.020760486 0.016649628 0.81900001 4283586385
-0.09845461 0.018045198 0.81699997 4289045927
-0.09692926 0.01804781 0.81699997 4287402129
-0.095403947 0.018050374 0.81699997 4287073421
-0.093878657 0.018052896 0.81699997 4286675583
-0.092353411 0.018055374 0.81699997 4287464842
-0.090605855 0.018013606 0.815 4287858305
-0.089084402 0.01801599 0.815 4287726719
-0.087562986 0.018018331 0.815 4287398267
-0.092692673 0.019413635 0.87800002 4287858818
-0.091053732 0.019416064 0.87800002 4288582266
-0.08218424 0.01784816 0.80699998 4289174404
-0.080278002 0.017761825 0.80299997 4289174413
-0.078779161 0.017763916 0.80299997 4289240462
-0.077184111 0.017743841 0.80199999 4289438094
-0.075687222 0.017745845 0.80199999 4289372300
-0.074190348 0.017747805 0.80199999 4289305742
-0.072693504 0.017749721 0.80199999 4289634451
-0.07119672 0.017751595 0.80199999 4289569173
-0.069699951 0.017753424 0.80199999 4289569173
-0.068203241 0.017755214 0.80199999 4289766804
-0.066706546 0.017756956 0.80199999 4289306253
-0.065209895 0.01775866 0.80199999 4289372300
-0.063713282 0.017760316 0.80199999 4289569423
-0.062061559 0.017717639 0.80000001 4289307789
-0.060417328 0.017674908 0.79799998 4289768340
-0.058928303 0.01767643 0.79799998 4289834394
-0.057439309 0.017677909 0.79799998 4289702808
-0.055950355 0.017679343 0.79799998 4289702545
-0.054461423 0.017680736 0.79799998 4289768338
-0.053238083 0.017770717 0.80199999 4289768603
-0.051741771 0.01777203 0.80199999 4289702810
-0.050245516 0.0177733 0.80199999 4289899419
-0.048810076 0.01779669 0.80299997 4290294434
-0.047312036 0.017797876 0.80299997 4290557342
-0.045814026 0.017799016 0.80299997 4290228120
-0.044316065 0.017800115 0.80299997 4290095254
-0.042818144 0.017801171 0.80299997 4290818976
-0.041320261 0.017802183 0.80299997 4290557855
-0.039822422 0.017803151 0.80299997 4290491806
-0.038324632 0.017804081 0.80299997 4290295460
-0.029850276 0.018119214 0.81699997 4285958278
-0.028326679 0.018119847 0.81699997 4284181868
-0.02680313 0.018120438 0.81699997 4283389011
-0.025279624 0.018120984 0.81699997 4283389011
-0.023756167 0.018121487 0.81699997 4283390291
-0.022287181 0.018166305 0.81900001 4283456084
-0.020760089 0.018166721 0.81900001 4283717977
-0.10688732 0.021234937 0.88700002 4289110687
-0.1052313 0.021237759 0.88700002 4287532688
-0.10357536 0.021240531 0.88700002 4287203723
-0.093876176 0.019566789 0.81699997 4287530891
-0.092350982 0.019569257 0.81699997 4287596685
-0.090825796 0.019571679 0.81699997 4287465346
-0.089300662 0.019574059 0.81699997 4287465346
-0.094329186 0.021038037 0.87800002 4287201673
-0.092373535 0.020968605 0.875 4286609535
-0.090740241 0.020971013 0.875 4287397221
-0.089106977 0.020973375 0.875 4287397221
-0.080275908 0.019249689 0.80299997 4287266684
-0.078777112 0.019251769 0.80299997 4288253835
-0.077278346 0.019253803 0.80299997 4288714368
-0.075685255 0.019231819 0.80199999 4288911747
-0.074188426 0.019233767 0.80199999 4288911500
-0.072691634 0.019235672 0.80199999 4288977293
-0.071283653 0.01926152 0.80299997 4289109655
-0.069698155 0.019239351 0.80199999 4289109655
-0.068201482 0.019241126 0.80199999 4289044112
-0.063711666 0.019246195 0.80199999 4289306764
-0.057797749 0.019276351 0.80299997 4288650636
-0.056299508 0.019277781 0.80299997 4288716161
-0.054801296 0.019279171 0.80299997 4289176712
-0.053303141 0.019280516 0.80299997 4289307798
-0.051805012 0.019281818 0.80299997 4289373847
-0.050306935 0.019283075 0.80299997 4289175185
-0.04880888 0.019284291 0.80299997 4289175185
-0.047310881 0.019285465 0.80299997 4290160529
-0.04581292 0.01928659 0.80299997 4290226322
-0.044314999 0.019287676 0.80299997 4289963917
-0.04281712 0.019288717 0.80299997 4289701002
-0.041319281 0.019289715 0.80299997 4289242761
-0.039821487 0.019290673 0.80299997 4288848003
-0.036826026 0.019292451 0.80299997 4286679178
-0.10688449 0.022878431 0.88700002 4288650136
-0.10522854 0.02288124 0.88700002 4287466380
-0.10357263 0.022884006 0.88700002 4287663502
-0.10191675 0.022886718 0.88700002 4287990157
-0.10003484 0.022837771 0.88499999 4287924364
-0.098049283 0.022762962 0.88200003 4287465346
-0.095965639 0.022662273 0.87800002 4287333760
-0.094326727 0.022664772 0.87800002 4287531139
-0.092371128 0.022589771 0.875 4287465346
-0.090737872 0.022592168 0.875 4287726447
-0.08910466 0.022594515 0.875 4287463018
-0.087771378 0.022674292 0.87800002 4287135602
-0.086132646 0.022676555 0.87800002 4287596153
-0.08420524 0.022601278 0.875 4287661944
-0.082572177 0.022603435 0.875 4287661944
-0.080939151 0.02260555 0.875 4287596403
-0.07930617 0.022607617 0.875 4287925368
-0.0716369 0.020852542 0.80699998 4288189837
-0.069783293 0.020750992 0.80299997 4288518802
-0.06828478 0.020752756 0.80299997 4288716431
-0.066786312 0.020754481 0.80299997 4288453258
-0.058084209 0.020867335 0.80699998 4288388234
-0.056438331 0.02081704 0.80500001 4287993980
-0.054936443 0.02081842 0.80500001 4288783239
-0.053434581 0.020819755 0.80500001 4289175953
-0.051803745 0.020769317 0.80299997 4288781195
-0.050305702 0.020770561 0.80299997 4289369998
-0.048807703 0.02077176 0.80299997 4289501583
-0.047309741 0.020772923 0.80299997 4289502099
-0.045811821 0.020774035 0.80299997 4289699478
-0.044313949 0.02077511 0.80299997 4289175185
-0.042816114 0.020776134 0.80299997 4288714634
-0.041318316 0.020777121 0.80299997 4287731598
-0.038322855 0.02077896 0.80299997 4286679937
-0.10963889 0.024767719 0.89600003 4290557867
-0.10772516 0.024715304 0.89399999 4288320905
-0.10522576 0.024524583 0.88700002 4287466643
-0.10356992 0.024527334 0.88700002 4288321696
-0.10191408 0.024530036 0.88700002 4287992205
-0.10003223 0.024477376 0.88499999 4287794827
-0.098380208 0.024479976 0.88499999 4288123783
-0.096400328 0.024399539 0.88200003 4288123783
-0.094324268 0.024291368 0.87800002 4288123783
-0.092685424 0.024293808 0.87800002 4288123783
-0.090735525 0.024213182 0.875 4288319356
-0.08910235 0.024215518 0.875 4287924854
-0.087769121 0.024300842 0.87800002 4287597186
-0.086130425 0.02430309 0.87800002 4287531137
-0.084491767 0.024305291 0.87800002 4287531137
-0.082570061 0.024224387 0.875 4287202429
-0.08093708 0.02422649 0.875 4287005797
-0.079304144 0.024228543 0.875 4287071590
-0.077671245 0.024230549 0.875 4286940283
-0.076038383 0.024232507 0.875 4287335041
-0.074660674 0.024317507 0.87800002 4287860352
-0.073770821 0.024568662 0.88700002 4287860352
-0.058082778 0.022362167 0.80699998 4291215016
-0.056577157 0.022363581 0.80699998 4291610292
-0.055071581 0.022364948 0.80699998 4291873463
-0.05343328 0.022310844 0.80500001 4291217566
-0.051802486 0.022256687 0.80299997 4286809436
-0.050304499 0.022257922 0.80299997 4285429634
-0.049049661 0.022369988 0.80699998 4285693062
-0.047662113 0.022426585 0.80900002 4285952385
-0.046153046 0.022427691 0.80900002 4286018178
-0.04464402 0.022428755 0.80900002 4285492849
-0.043135032 0.022429777 0.80900002 4284637540
-0.10963601 0.026427617 0.89600003 4289571499
-0.10772232 0.026371481 0.89399999 4287992724
-0.10569752 0.026285786 0.89099997 4287270545
-0.10380071 0.026229525 0.889 4287599767
-0.10214121 0.026232224 0.889 4287926931
-0.10025568 0.026175853 0.88700002 4287861138
-0.098377645 0.026119422 0.88499999 4288320401
-0.096397832 0.026033415 0.88200003 4288320401
-0.094321817 0.025917824 0.87800002 4288123790
-0.092683017 0.02592025 0.87800002 4288057997
-0.090733185 0.025834056 0.875 4288057733
-0.089100055 0.025836378 0.875 4287663232
-0.087766863 0.025927246 0.87800002 4287596932
-0.08612822 0.025929483 0.87800002 4287596932
-0.084200926 0.025843065 0.875 4287597182
-0.082567953 0.0258452 0.875 4287399803
-0.080935024 0.025847286 0.875 4287005810
-0.07930214 0.025849327 0.875 4287005810
-0.077669285 0.025851319 0.875 4286611575
-0.076297171 0.025941903 0.87800002 4287466628
-0.074658804 0.025943808 0.87800002 4288450174
-0.073768973 0.026211621 0.88700002 4288713603
-0.072113894 0.02621345 0.88700002 4288714114
-0.058225304 0.023915995 0.80900002 4292793798
-0.056715995 0.023917397 0.80900002 4292728786
-0.055206727 0.023918759 0.80900002 4292662993
-0.053564746 0.023860937 0.80699998 4291152847
-0.052059293 0.023862204 0.80699998 4286613131
-0.05067917 0.023922572 0.80900002 4282673509
-0.049170058 0.023923753 0.80900002 4282476131
-0.047660995 0.023924896 0.80900002 4281683787
-0.046266064 0.023985138 0.81099999 4283657320
-0.044753354 0.023986194 0.81099999 4284313456
-0.10963316 0.028087366 0.89600003 4289241494
-0.10796051 0.028090212 0.89600003 4288188805
-0.10569476 0.02793625 0.89099997 4287860886
-0.10403154 0.027938984 0.89099997 4287860886
-0.10213856 0.027878961 0.889 4287925908
-0.10025308 0.027818868 0.88700002 4287925908
-0.098597422 0.027821455 0.88700002 4288320401
-0.096723206 0.027761253 0.88499999 4288320401
-0.094749093 0.027669622 0.88200003 4288057747
-0.092680641 0.027546549 0.87800002 4288057747
-0.09104193 0.027548915 0.87800002 4287991690
-0.089403257 0.027551236 0.87800002 4287596932
-0.087764621 0.027553506 0.87800002 4287531405
-0.086126022 0.02755573 0.87800002 4287925906
-0.084198795 0.027463747 0.875 4287861637
-0.082565866 0.027465869 0.875 4287795844
-0.080932975 0.027467946 0.875 4287466893
-0.079300135 0.027469967 0.875 4287401100
-0.077667333 0.027471948 0.875 4288256145
-0.076295264 0.027568074 0.87800002 4289243040
-0.075422227 0.027852576 0.88700002 4289635988
-0.073767133 0.027854437 0.88700002 4290293662
-0.055341873 0.02547984 0.81099999 4294967295
-0.053828966 0.025481148 0.81099999 4294967295
-0.052316096 0.025482405 0.81099999 4287862673
-0.050803255 0.025483625 0.81099999 4282217601
-0.049290463 0.025484798 0.81099999 4281493622
-0.10604789 0.029686192 0.89399999 4288450454
-0.10402884 0.029589297 0.89099997 4288384661
-0.10236569 0.029591979 0.89099997 4287465348
-0.10047654 0.029528182 0.889 4287991692
-0.098594874 0.029464321 0.88700002 4288320405
-0.096720733 0.029400403 0.88499999 4288320405
-0.094746672 0.029303202 0.88200003 4287991700
-0.092889376 0.029239161 0.88 4288452251
-0.091039613 0.029175067 0.87800002 4288321684
-0.089400984 0.029177375 0.87800002 4287861133
-0.087762386 0.029179633 0.87800002 4287795090
-0.086123854 0.029181844 0.87800002 4288255641
-0.08448533 0.02918401 0.87800002 4287798424
-0.08256378 0.0290864 0.875 4287732631
-0.080930948 0.02908846 0.875 4287995034
-0.079298154 0.029090472 0.875 4288521378
-0.077665403 0.02909244 0.875 4288849046
-0.076901622 0.029426863 0.88499999 4289046681
-0.07525029 0.029428756 0.88499999 4289504663
-0.073765323 0.029497113 0.88700002 4290031007
-0.072110333 0.029498911 0.88700002 4290095517
-0.070455395 0.029500665 0.88700002 4291148205
-0.068800487 0.029502369 0.88700002 4291084209
-0.067145631 0.029504022 0.88700002 4291347637
-0.10604515 0.031341925 0.89399999 4288123027
-0.10402616 0.031239469 0.89099997 4288123027
-0.10236306 0.031242134 0.89099997 4287992203
-0.10047396 0.031174619 0.889 4288057997
-0.098592348 0.031107044 0.88700002 4288124055
-0.096718259 0.031039407 0.88499999 4288584606
-0.09474425 0.030936645 0.88200003 4288452255
-0.092887014 0.030868882 0.88 4288912806
-0.091037303 0.030801069 0.87800002 4288977813
-0.089398712 0.030803366 0.87800002 4288649104
-0.087760173 0.030805612 0.87800002 4288517535
-0.086121678 0.030807814 0.87800002 4288978086
-0.084483206 0.030809963 0.87800002 4288650399
-0.082844786 0.030812066 0.87800002 4288453277
-0.081206404 0.030814119 0.87800002 4288848546
-0.079568058 0.030816128 0.87800002 4289506476
-0.078284778 0.030958489 0.88200003 4289638046
-0.076899722 0.031065717 0.88499999 4290756784
-0.075248443 0.031067597 0.88499999 4290756278
-0.073763512 0.03113964 0.88700002 4290690485
-0.072108582 0.031141428 0.88700002 4291084983
-0.070453681 0.031143162 0.88700002 4291347899
-0.068798825 0.031144854 0.88700002 4291479737
-0.067144006 0.031146493 0.88700002 4291742908
-0.065489255 0.031148089 0.88700002 4292007378
-0.10236043 0.032892138 0.89099997 4287992201
-0.10069741 0.032894742 0.89099997 4287926408
-0.098812133 0.032823462 0.889 4287926931
-0.096934363 0.032752119 0.88700002 4288124053
-0.095278919 0.032754567 0.88700002 4288189585
-0.093412422 0.032683112 0.88499999 4288847258
-0.091242373 0.0325008 0.88 4289174683
-0.089600094 0.032503083 0.88 4289108890
-0.087957874 0.032505326 0.88 4289304988
-0.086315684 0.032507516 0.88 4289568160
-0.084673539 0.032509658 0.88 4289306013
-0.083031431 0.032511756 0.88 4289306013
-0.081389368 0.032513805 0.88 4289373593
-0.079928577 0.032589704 0.88200003 4289702558
-0.078549124 0.032702509 0.88499999 4289507230
-0.076897837 0.032704424 0.88499999 4290823090
-0.075416654 0.0327802 0.88700002 4290626742
-0.073761724 0.032782026 0.88700002 4290692535
-0.072106831 0.032783799 0.88700002 4290954436
-0.070451982 0.032785524 0.88700002 4291546829
-0.068797179 0.032787196 0.88700002 4291743938
-0.067142405 0.032788828 0.88700002 4291743938
-0.065487698 0.032790404 0.88700002 4292927712
-0.10235782 0.034542006 0.89099997 4288847247
-0.10069485 0.034544602 0.89099997 4288781454
-0.099031925 0.034547146 0.89099997 4288714386
-0.096931905 0.03439454 0.88700002 4288648337
-0.095276527 0.034396976 0.88700002 4288648071
-0.09341006 0.034321804 0.88499999 4289306001
-0.09175849 0.034324139 0.88499999 4289437855
-0.090106934 0.03432643 0.88499999 4289766564
-0.088455424 0.034328669 0.88499999 4289765537
-0.086803958 0.03433086 0.88499999 4290094502
-0.08467143 0.03413903 0.88 4290687391
-0.083029382 0.034141112 0.88 4290621598
-0.081387356 0.03414315 0.88 4290097566
-0.079926617 0.034222741 0.88200003 4290360994
-0.078547202 0.034341089 0.88499999 4290756530
-0.076895975 0.034342989 0.88499999 4291480252
-0.075414829 0.034422457 0.88700002 4291413942
-0.073759936 0.034424264 0.88700002 4291348149
-0.072105095 0.034426026 0.88700002 4291348682
-0.070450306 0.034427736 0.88700002 4292335577
-0.068795547 0.034429397 0.88700002 4292336844
-0.067140818 0.034431007 0.88700002 4292665553
-0.1006923 0.036194302 0.89099997 4289174417
-0.099029429 0.036196839 0.89099997 4289304720
-0.097148009 0.036118068 0.889 4289370513
-0.095488936 0.0361205 0.889 4289304718
-0.09361881 0.036041621 0.88700002 4289568147
-0.091963544 0.036043949 0.88700002 4289372060
-0.090104692 0.035964955 0.88499999 4289437853
-0.088453226 0.035967182 0.88499999 4289699994
-0.086801805 0.035969354 0.88499999 4290621096
-0.085150428 0.035971485 0.88499999 4290950826
-0.083499089 0.035973571 0.88499999 4290687654
-0.081847779 0.035975605 0.88499999 4290097330
-0.080196515 0.035977587 0.88499999 4291215810
-0.078545287 0.035979521 0.88499999 4291282878
-0.076894112 0.035981409 0.88499999 4291611586
-0.075413011 0.036064565 0.88700002 4291807153
-0.073758177 0.036066361 0.88700002 4291872946
-0.072103381 0.036068104 0.88700002 4291348932
-0.070448637 0.036069803 0.88700002 4292270034
-0.068949029 0.03615278 0.889 4292074188
-0.067290626 0.036154386 0.889 4292995290
-0.09714558 0.037763905 0.889 4289897893
-0.095486552 0.037766326 0.889 4289766818
-0.093616478 0.037683725 0.88700002 4290029990
-0.091961265 0.037686046 0.88700002 4289964447
-0.090306081 0.037688315 0.88700002 4289964447
-0.088650934 0.037690531 0.88700002 4289964197
-0.086799666 0.037607711 0.88499999 4290424748
-0.085148335 0.03760983 0.88499999 4290491558
