# .PCD v0.7 - Point Cloud Data file format
VERSION 0.7
FIELDS x y z rgba
SIZE 4 4 4 4
TYPE F F F U
COUNT 1 1 1 1
WIDTH 1092
HEIGHT 1
VIEWPOINT 0 0 0 1 0 0 0
POINTS 1092
DATA ascii
0.25219846 0.051082905 0.61199999 4294967295
0.25332797 0.051075149 0.61199999 4294967295
0.25725749 0.051393289 0.616 4294967295
0.25839436 0.051385403 0.616 4294967295
0.25784597 0.051043876 0.61199999 4294967295
0.25897545 0.051035997 0.61199999 4294967295
0.26010495 0.051028088 0.61199999 4294967295
0.2612344 0.051020164 0.61199999 4294967295
0.2619352 0.050928853 0.611 4294967295
0.26306286 0.050920893 0.611 4294967295
0.26419052 0.050912902 0.611 4294967295
0.26531813 0.050904892 0.611 4294967295
0.26557365 0.050730258 0.60900003 4294967295
0.26582175 0.050555646 0.60699999 4294967295
0.26650229 0.050464347 0.60600001 4294967295
0.26673752 0.05028978 0.60399997 4294967295
0.26740879 0.050198492 0.60299999 4294967295
0.26852173 0.050190449 0.60299999 4294967295
0.27097616 0.050432045 0.60600001 4294967295
0.27209467 0.05042392 0.60600001 4294967295
0.273664 0.050498955 0.60699999 4294967295
0.27478442 0.050490759 0.60699999 4294967295
0.27590477 0.050482549 0.60699999 4294967295
0.27702522 0.050474316 0.60699999 4294967295
0.27814561 0.050466057 0.60699999 4294967295
0.27926609 0.050457776 0.60699999 4294967295
0.29142898 0.050539758 0.60900003 4294835709
0.29255342 0.050531209 0.60900003 4294967295
0.29367787 0.050522648 0.60900003 4294704127
0.2948024 0.050514054 0.60900003 4294704127
0.29592693 0.050505448 0.60900003 4294572285
0.29705155 0.050496817 0.60900003 4294638078
0.29817617 0.050488167 0.60900003 4294638845
0.29979232 0.050562389 0.61000001 4294375674
0.29993224 0.05038793 0.60799998 4294113018
0.30105513 0.050379235 0.60799998 4293586674
0.30217808 0.050370526 0.60799998 4293455600
0.30330113 0.050361786 0.60799998 4293324271
0.30492491 0.050435849 0.60900003 4293061613
0.30554733 0.050344255 0.60799998 4293061613
0.30667049 0.050335459 0.60799998 4292535269
0.30779371 0.050326645 0.60799998 4292535269
0.30891699 0.050317809 0.60799998 4292732393
0.22654563 0.056508463 0.65899998 4294967295
0.22741708 0.05641542 0.65799999 4294967295
0.22689492 0.055979453 0.653 4294967295
0.22810084 0.055972151 0.653 4294967295
0.22895558 0.055879116 0.65200001 4294967295
0.23015955 0.055871766 0.65200001 4294967295
0.23065381 0.055693015 0.64999998 4294967295
0.23185401 0.055685628 0.64999998 4294967295
0.23197863 0.055421241 0.64700001 4294967295
0.23281287 0.055328179 0.64600003 4294967295
0.2340056 0.055320751 0.64600003 4294967295
0.23655859 0.054777212 0.63999999 4294967295
0.23774011 0.054769706 0.63999999 4294967295
0.23892164 0.054762177 0.63999999 4294967295
0.23907907 0.053705551 0.62800002 4294967295
0.24023832 0.053698026 0.62800002 4294967295
0.24139754 0.053690474 0.62800002 4294967295
0.24255675 0.053682894 0.62800002 4294967295
0.24332781 0.053589817 0.62699997 4294967295
0.24448515 0.053582195 0.62699997 4294967295
0.24564247 0.053574547 0.62699997 4294967295
0.24679974 0.053566869 0.62699997 4294967295
0.25507534 0.052806225 0.61900002 4294967295
0.25724965 0.052526757 0.616 4294967295
0.25838649 0.052518867 0.616 4294967295
0.25952333 0.052510951 0.616 4294967295
0.26066017 0.052503005 0.616 4294967295
0.26094705 0.052324604 0.61400002 4294967295
0.26208019 0.05231664 0.61400002 4294967295
0.26235598 0.052138258 0.61199999 4294967295
0.26305494 0.052045088 0.611 4294967295
0.26418257 0.05203709 0.611 4294967295
0.26531017 0.05202907 0.611 4294967295
0.26600173 0.051935885 0.61000001 4294967295
0.26712754 0.051927831 0.61000001 4294967295
0.2664943 0.051579289 0.60600001 4294967295
0.2667295 0.051401038 0.60399997 4294967295
0.2674008 0.051307902 0.60299999 4294967295
0.26851371 0.051299855 0.60299999 4294967295
0.2714152 0.051632017 0.60699999 4294967295
0.27253553 0.051623862 0.60699999 4294967295
0.27365589 0.051615685 0.60699999 4294967295
0.27477622 0.051607486 0.60699999 4294967295
0.27589658 0.051599275 0.60699999 4294967295
0.277017 0.051591024 0.60699999 4294967295
0.27813736 0.051582761 0.60699999 4294967295
0.2792578 0.051574469 0.60699999 4294967295
0.28037822 0.051566165 0.60699999 4294967295
0.29142049 0.051660076 0.60900003 4294967295
0.2925449 0.051651523 0.60900003 4294967295
0.29366934 0.051642947 0.60900003 4294704127
0.29527792 0.05171914 0.61000001 4294704127
0.29591838 0.051625747 0.60900003 4294638078
0.297043 0.051617116 0.60900003 4294506492
0.29816756 0.051608454 0.60900003 4294178043
0.30266643 0.051573645 0.60900003 4293520880
0.30379128 0.051564895 0.60900003 4293323501
0.30491617 0.051556125 0.60900003 4293061613
0.30553854 0.051462688 0.60799998 4293061613
0.3066617 0.051453896 0.60799998 4292798186
0.30778489 0.051445074 0.60799998 4292732393
0.30890813 0.051436242 0.60799998 4292666087
0.2292994 0.057166815 0.653 4294967295
0.2301522 0.057071902 0.65200001 4294967295
0.23135616 0.057064511 0.65200001 4294967295
0.23256005 0.057057079 0.65200001 4294967295
0.23197126 0.056612123 0.64700001 4294967295
0.23280546 0.05651721 0.64600003 4294967295
0.23399818 0.056509763 0.64600003 4294967295
0.2351909 0.05650229 0.64600003 4294967295
0.23945227 0.054948635 0.62900001 4294967295
0.24061333 0.054941081 0.62900001 4294967295
0.24177438 0.054933503 0.62900001 4294967295
0.24254921 0.054838579 0.62800002 4294967295
0.24370836 0.054830957 0.62800002 4294967295
0.24486749 0.054823309 0.62800002 4294967295
0.24602661 0.054815635 0.62800002 4294967295
0.24718571 0.054807935 0.62800002 4294967295
0.2550675 0.053945154 0.61900002 4294967295
0.25735223 0.053929396 0.61900002 4294967295
0.25807697 0.053834353 0.61799997 4294967295
0.2592175 0.053826425 0.61799997 4294967295
0.25951546 0.053644311 0.616 4294967295
0.26065227 0.053636346 0.616 4294967295
0.26093912 0.053454254 0.61400002 4294967295
0.26207227 0.053446278 0.61400002 4294967295
0.2627767 0.053351238 0.61299998 4294967295
0.26347747 0.05325621 0.61199999 4294967295
0.26460695 0.053248193 0.61199999 4294967295
0.26530218 0.053153154 0.611 4294967295
0.26599374 0.053058114 0.61000001 4294967295
0.26711953 0.053050052 0.61000001 4294967295
0.26648629 0.052694149 0.60600001 4294967295
0.26760471 0.052686088 0.60600001 4294967295
0.26739278 0.052417219 0.60299999 4294967295
0.26850566 0.052409157 0.60299999 4294967295
0.27140716 0.052748676 0.60699999 4294967295
0.27252743 0.052740514 0.60699999 4294967295
0.27364773 0.052732326 0.60699999 4294967295
0.27476805 0.052724119 0.60699999 4294967295
0.27588838 0.052715894 0.60699999 4294967295
0.27700877 0.052707639 0.60699999 4294967295
0.27812913 0.052699365 0.60699999 4294967295
0.27878949 0.052604273 0.60600001 4294967295
0.27990809 0.052595962 0.60600001 4294967295
0.30315471 0.052780356 0.61000001 4293652467
0.30428138 0.052771583 0.61000001 4293455087
0.30540809 0.052762795 0.61000001 4293784052
0.30603236 0.052667506 0.60900003 4293586674
0.30715737 0.052658699 0.60900003 4292995820
0.30828235 0.052649863 0.60900003 4292995820
0.3094075 0.052641015 0.60900003 4292600292
0.23196387 0.057802908 0.64700001 4294967295
0.23279807 0.05770614 0.64600003 4294967295
0.23399076 0.057698678 0.64600003 4294967295
0.23518343 0.057691187 0.64600003 4294967295
0.23564427 0.057505079 0.64399999 4294967295
0.23609768 0.057318993 0.64200002 4294967295
0.23728289 0.05731146 0.64200002 4294967295
0.24058682 0.056373704 0.63200003 4294967295
0.24098833 0.056187727 0.63 4294967295
0.2421512 0.056180123 0.63 4294967295
0.24292782 0.056083329 0.62900001 4294967295
0.24408881 0.056075677 0.62900001 4294967295
0.24524976 0.056068003 0.62900001 4294967295
0.24601898 0.055971179 0.62800002 4294967295
0.24717803 0.05596346 0.62800002 4294967295
0.25505966 0.055083998 0.61900002 4294967295
0.25620204 0.055076119 0.61900002 4294967295
0.25734437 0.05506821 0.61900002 4294967295
0.2580691 0.05497133 0.61799997 4294967295
0.2592096 0.054963384 0.61799997 4294967295
0.26035008 0.054955412 0.61799997 4294967295
0.26064435 0.054769602 0.616 4294967295
0.26093119 0.054583814 0.61400002 4294967295
0.26163748 0.054486938 0.61299998 4294967295
0.26276875 0.05447894 0.61299998 4294967295
0.26346952 0.054382063 0.61199999 4294967295
0.26459894 0.054374028 0.61199999 4294967295
0.26572838 0.054365981 0.61199999 4294967295
0.2659857 0.054180253 0.61000001 4294967295
0.26711148 0.054172181 0.61000001 4294967295
0.266918 0.053897701 0.60699999 4294967295
0.26759669 0.053800844 0.60600001 4294967295
0.26871505 0.053792749 0.60600001 4294967295
0.270724 0.053962149 0.60799998 4294967295
0.27139899 0.053865243 0.60699999 4294967295
0.27251929 0.053857073 0.60699999 4294967295
0.27363959 0.053848881 0.60699999 4294967295
0.27475986 0.053840663 0.60699999 4294967295
0.2754257 0.053743742 0.60600001 4294967295
0.27654421 0.053735498 0.60600001 4294967295
0.27766269 0.053727232 0.60600001 4294967295
0.27878129 0.053718947 0.60600001 4294967295
0.27989984 0.053710632 0.60600001 4294967295
0.30427265 0.053893518 0.61000001 4293585903
0.30539936 0.053884722 0.61000001 4293783535
0.3060236 0.0537876 0.60900003 4293849584
0.30714855 0.053778782 0.60900003 4293389292
0.30776739 0.053681657 0.60799998 4293389292
0.30889061 0.053672824 0.60799998 4292730594
0.23279068 0.058894958 0.64600003 4294967295
0.23398332 0.058887482 0.64600003 4294967295
0.23517598 0.058879972 0.64600003 4294967295
0.23563679 0.058690164 0.64399999 4294967295
0.2360902 0.058500383 0.64200002 4294967295
0.23727536 0.058492839 0.64200002 4294967295
0.23883194 0.058576368 0.64300001 4294967295
0.23927234 0.058386579 0.64099997 4294967295
0.24045558 0.058378961 0.64099997 4294967295
0.24136329 0.057437949 0.63099998 4294967295
0.24214362 0.057339303 0.63 4294967295
0.24330641 0.057331651 0.63 4294967295
0.24446924 0.057323977 0.63 4294967295
0.24640304 0.057217587 0.62900001 4294967295
0.24756391 0.057209849 0.62900001 4294967295
0.2561942 0.056214843 0.61900002 4294967295
0.2573365 0.056206927 0.61900002 4294967295
0.2580612 0.056108192 0.61799997 4294967295
0.25920171 0.056100231 0.61799997 4294967295
0.26034215 0.056092255 0.61799997 4294967295
0.26063642 0.055902753 0.616 4294967295
0.26092327 0.055713285 0.61400002 4294967295
0.26162955 0.055614553 0.61299998 4294967295
0.26276079 0.055606548 0.61299998 4294967295
0.26389202 0.055598512 0.61299998 4294967295
0.26502326 0.055590458 0.61299998 4294967295
0.26658872 0.055673055 0.61400002 4294967295
0.26597768 0.0553023 0.61000001 4294967295
0.2671034 0.055294216 0.61000001 4294967295
0.26690999 0.055014212 0.60699999 4294967295
0.2680302 0.055006117 0.60699999 4294967295
0.26915041 0.054998007 0.60699999 4294967295
0.27027065 0.054989871 0.60699999 4294967295
0.27139089 0.054981716 0.60699999 4294967295
0.27251115 0.054973535 0.60699999 4294967295
0.27363142 0.054965332 0.60699999 4294967295
0.27475169 0.05495711 0.60699999 4294967295
0.27541751 0.054858342 0.60600001 4294967295
0.27653599 0.05485009 0.60600001 4294967295
0.2776545 0.05484182 0.60600001 4294967295
0.27923304 0.054924004 0.60699999 4294967295
0.28035343 0.054915674 0.60699999 4294967295
0.28193751 0.054997783 0.60799998 4294967295
0.28718144 0.055334218 0.61199999 4294967295
0.28831112 0.055325713 0.61199999 4294967295
0.28896797 0.055226803 0.611 4294967295
0.29009596 0.055218272 0.611 4294967295
0.29122391 0.055209719 0.611 4294967295
0.29235196 0.05520115 0.611 4294309881
0.30426395 0.055015363 0.61000001 4293585903
0.3053906 0.055006567 0.61000001 4293453802
0.30601481 0.054907601 0.60900003 4293519595
0.30713981 0.054898784 0.60900003 4293454572
0.30775857 0.054799818 0.60799998 4293388779
0.30888179 0.054790977 0.60799998 4292664801
0.23314357 0.060176689 0.64700001 4294967295
0.23397587 0.060076188 0.64600003 4294967295
0.23516849 0.060068663 0.64600003 4294967295
0.23636106 0.060061116 0.64600003 4294967295
0.23681815 0.059867606 0.64399999 4294967295
0.23800698 0.059860021 0.64399999 4294967295
0.23882438 0.059759475 0.64300001 4294967295
0.23926479 0.059565987 0.64099997 4294967295
0.24044798 0.059558358 0.64099997 4294967295
0.2509436 0.05777147 0.62300003 4294967295
0.25209332 0.057763644 0.62300003 4294967295
0.25324303 0.057755791 0.62300003 4294967295
0.25439271 0.0577479 0.62300003 4294967295
0.2551322 0.05764731 0.62199998 4294967295
0.25586802 0.05754672 0.62099999 4294967295
0.25618631 0.057353482 0.61900002 4294967295
0.2573286 0.057345554 0.61900002 4294967295
0.25847089 0.057337597 0.61900002 4294967295
0.25919378 0.057236999 0.61799997 4294967295
0.26033416 0.057229005 0.61799997 4294967295
0.26147464 0.057220992 0.61799997 4294967295
0.26176521 0.057027809 0.616 4294967295
0.26204836 0.056834642 0.61400002 4294967295
0.26318145 0.056826614 0.61400002 4294967295
0.26431453 0.056818552 0.61400002 4294967295
0.26544759 0.05681048 0.61400002 4294967295
0.26658067 0.056802377 0.61400002 4294967295
0.26771373 0.056794252 0.61400002 4294967295
0.26884681 0.056786101 0.61400002 4294967295
0.27305785 0.057425238 0.62099999 4294967295
0.27420387 0.057416957 0.62099999 4294967295
0.26914236 0.056114409 0.60699999 4294967295
0.27026254 0.056106266 0.60699999 4294967295
0.27138278 0.0560981 0.60699999 4294967295
0.27250299 0.056089912 0.60699999 4294967295
0.27362326 0.056081709 0.60699999 4294967295
0.2747435 0.056073476 0.60699999 4294967295
0.27586377 0.056065217 0.60699999 4294967295
0.27698407 0.056056947 0.60699999 4294967295
0.27810439 0.05604865 0.60699999 4294967295
0.27922475 0.056040335 0.60699999 4294967295
0.28034511 0.056031998 0.60699999 4294967295
0.28192917 0.056115933 0.60799998 4294967295
0.28305143 0.056107543 0.60799998 4294967295
0.28604329 0.056468204 0.61199999 4294967295
0.28717297 0.056459714 0.61199999 4294967295
0.28830266 0.056451201 0.61199999 4294967295
0.2889595 0.056350451 0.611 4294901759
0.29008743 0.056341913 0.611 4294967295
0.29121539 0.056333352 0.611 4294967295
0.29234341 0.056324776 0.611 4294573567
0.29395172 0.056408349 0.61199999 4294967295
0.30425519 0.056137118 0.61000001 4293389294
0.30538183 0.056128323 0.61000001 4293388779
0.30650854 0.056119509 0.61000001 4293257193
0.30763534 0.05611068 0.61000001 4292994023
0.30876216 0.056101833 0.61000001 4292994023
0.31039703 0.056184918 0.611 4292862437
0.2331361 0.06136715 0.64700001 4294967295
0.23433053 0.061359625 0.64700001 4294967295
0.23552501 0.06135207 0.64700001 4294967295
0.23635353 0.061249681 0.64600003 4294967295
0.23754607 0.061242085 0.64600003 4294967295
0.23799942 0.061044876 0.64399999 4294967295
0.2388168 0.060942471 0.64300001 4294967295
0.24000372 0.060934827 0.64300001 4294967295
0.25093579 0.05891744 0.62300003 4294967295
0.25087163 0.058625918 0.62 4294967295
0.25201577 0.058618095 0.62 4294967295
0.2535682 0.05870476 0.62099999 4294967295
0.25512436 0.058791384 0.62199998 4294967295
0.25586018 0.05868895 0.62099999 4294967295
0.2565923 0.058586512 0.62 4294967295
0.25732067 0.058484074 0.61900002 4294967295
0.25846297 0.058476117 0.61900002 4294967295
0.25960523 0.058468118 0.61900002 4294967295
0.26032624 0.058365662 0.61799997 4294967295
0.26146668 0.058357637 0.61799997 4294967295
0.26175722 0.05816076 0.616 4294967295
0.26289394 0.058152717 0.616 4294967295
0.26531655 0.058427814 0.61900002 4294967295
0.26645881 0.05841969 0.61900002 4294967295
0.26760107 0.058411527 0.61900002 4294967295
0.2687434 0.058403358 0.61900002 4294967295
0.26988566 0.058395155 0.61900002 4294967295
0.27190363 0.058575578 0.62099999 4294967295
0.27137461 0.057214387 0.60699999 4294967295
0.27249482 0.057206191 0.60699999 4294967295
0.27361509 0.057197973 0.60699999 4294967295
0.2747353 0.057189733 0.60699999 4294967295
0.27585554 0.057181474 0.60699999 4294967295
0.27697584 0.057173189 0.60699999 4294967295
0.27809611 0.057164893 0.60699999 4294967295
0.27967647 0.057250731 0.60799998 4294967295
0.28079864 0.057242375 0.60799998 4294967295
0.28192079 0.057233993 0.60799998 4294967295
0.28304309 0.0572256 0.60799998 4294967295
0.28416535 0.057217177 0.60799998 4294967295
0.28716451 0.057585113 0.61199999 4294967295
0.2882942 0.0575766 0.61199999 4294770687
0.28895101 0.057473995 0.611 4294967295
0.29007894 0.05746546 0.611 4294967295
0.29120687 0.057456892 0.611 4294967295
0.29233485 0.057448316 0.611 4294441982
0.29394317 0.057533719 0.61199999 4294507775
0.30424646 0.057258777 0.61000001 4293455087
0.30537307 0.057249986 0.61000001 4294111988
0.30649978 0.057241168 0.61000001 4293717230
0.30762658 0.057232343 0.61000001 4292731619
0.30875337 0.057223491 0.61000001 4292928741
0.31038821 0.057308417 0.611 4292862437
0.23432307 0.062549971 0.64700001 4294967295
0.23551747 0.062542409 0.64700001 4294967295
0.23634601 0.062438156 0.64600003 4294967295
0.23753847 0.062430542 0.64600003 4294967295
0.23873095 0.062422901 0.64600003 4294967295
0.2399234 0.062415235 0.64600003 4294967295
0.24111582 0.062407538 0.64600003 4294967295
0.24971968 0.05977409 0.62 4294967295
0.25086382 0.059766263 0.62 4294967295
0.25200793 0.059758414 0.62 4294967295
0.25356036 0.059846923 0.62099999 4294967295
0.25470632 0.05983901 0.62099999 4294967295
0.25585225 0.059831087 0.62099999 4294967295
0.25658438 0.059726797 0.62 4294967295
0.25772846 0.059718832 0.62 4294967295
0.25887257 0.059710842 0.62 4294967295
0.25959727 0.059606537 0.61900002 4294967295
0.26073951 0.059598509 0.61900002 4294967295
0.26188177 0.059590466 0.61900002 4294967295
0.263024 0.05958239 0.61900002 4294967295
0.26416624 0.059574295 0.61900002 4294967295
0.2653085 0.059566174 0.61900002 4294967295
0.26645073 0.059558038 0.61900002 4294967295
0.267593 0.059549872 0.61900002 4294967295
0.26873523 0.059541684 0.61900002 4294967295
0.27074945 0.059725821 0.62099999 4294967295
0.27189541 0.059717566 0.62099999 4294967295
0.27260169 0.059613135 0.62 4294967295
0.27136648 0.058330588 0.60699999 4294967295
0.27248666 0.058322381 0.60699999 4294967295
0.2736069 0.05831416 0.60699999 4294967295
0.27472711 0.058305915 0.60699999 4294967295
0.27584735 0.058297645 0.60699999 4294967295
0.27696759 0.058289357 0.60699999 4294967295
0.27808788 0.058281053 0.60699999 4294967295
0.27966815 0.05836872 0.60799998 4294967295
0.2807903 0.058360357 0.60799998 4294967295
0.28191248 0.058351971 0.60799998 4294967295
0.28303471 0.058343567 0.60799998 4294967295
0.28415695 0.058335137 0.60799998 4294967295
0.28715605 0.05871043 0.61199999 4294967295
0.2882857 0.058701903 0.61199999 4294967295
0.28941545 0.058693364 0.61199999 4294967295
0.29054517 0.058684804 0.61199999 4294967295
0.29167494 0.05867622 0.61199999 4294967295
0.29280475 0.058667623 0.61199999 4294507775
0.29441488 0.058754854 0.61299998 4294376189
0.30423769 0.058380358 0.61000001 4293388779
0.30536437 0.058371555 0.61000001 4293914607
0.30699348 0.058458425 0.611 4293914607
0.30812201 0.058449578 0.611 4293125091
0.30925065 0.058440708 0.611 4293190884
0.31088737 0.058527458 0.61199999 4292730596
0.23384176 0.063944809 0.64899999 4294967295
0.23467769 0.06383872 0.648 4294967295
0.23587395 0.063831128 0.648 4294967295
0.23670428 0.06372501 0.64700001 4294967295
0.2378986 0.063717365 0.64700001 4294967295
0.23909289 0.063709706 0.64700001 4294967295
0.23991573 0.063603543 0.64600003 4294967295
0.24036168 0.063398942 0.64399999 4294967295
0.24155034 0.063391231 0.64399999 4294967295
0.25021711 0.061617848 0.62699997 4294967295
0.25137419 0.06160998 0.62699997 4294967295
0.25253123 0.061602086 0.62699997 4294967295
0.25368825 0.061594162 0.62699997 4294967295
0.25240657 0.060996875 0.62099999 4294967295
0.2535525 0.060988981 0.62099999 4294967295
0.25469846 0.060981065 0.62099999 4294967295
0.2554324 0.060874943 0.62 4294967295
0.25657648 0.060866982 0.62 4294967295
0.25772053 0.060859006 0.62 4294967295
0.25886458 0.060851 0.62 4294967295
0.25958928 0.060744848 0.61900002 4294967295
0.26073152 0.060736809 0.61900002 4294967295
0.26187375 0.060728751 0.61900002 4294967295
0.26301593 0.060720675 0.61900002 4294967295
0.26415816 0.060712561 0.61900002 4294967295
0.26530036 0.060704436 0.61900002 4294967295
0.2664426 0.060696285 0.61900002 4294967295
0.26758483 0.060688108 0.61900002 4294967295
0.26872706 0.060679913 0.61900002 4294967295
0.2698693 0.060671698 0.61900002 4294967295
0.27144939 0.060761448 0.62 4294967295
0.27259347 0.060753182 0.62 4294967295
0.27285454 0.060548924 0.61799997 4294967295
0.27310824 0.060344707 0.616 4294967295
0.27379981 0.060238469 0.61500001 4294967295
0.27225244 0.059642561 0.60900003 4294967295
0.27337629 0.05963432 0.60900003 4294967295
0.27450022 0.059626065 0.60900003 4294967295
0.2756241 0.059617791 0.60900003 4294967295
0.27629352 0.059511594 0.60799998 4294967295
0.27741563 0.059503287 0.60799998 4294967295
0.27853769 0.059494965 0.60799998 4294967295
0.28011981 0.059584457 0.60900003 4294967295
0.28124383 0.059576076 0.60900003 4294967295
0.28190413 0.059469853 0.60799998 4294967295
0.28302634 0.059461437 0.60799998 4294967295
0.28555059 0.059746362 0.611 4294967295
0.28714758 0.059835643 0.61199999 4294967295
0.28827724 0.059827112 0.61199999 4294967295
0.28893405 0.059720829 0.611 4294967295
0.29006192 0.059712276 0.611 4294967295
0.29166639 0.059801418 0.61199999 4294967295
0.29279619 0.059792813 0.61199999 4294967295
0.3047277 0.059599385 0.611 4293651437
0.30585617 0.059590571 0.611 4293782253
0.3074871 0.059679259 0.61199999 4293782253
0.30811325 0.059572894 0.611 4293256677
0.30924186 0.059564028 0.611 4293059298
0.31087855 0.059652619 0.61199999 4292599780
0.23383424 0.065138645 0.64899999 4294967295
0.23503228 0.065131053 0.64899999 4294967295
0.23586634 0.06502308 0.648 4294967295
0.23669666 0.064915106 0.64700001 4294967295
0.23789097 0.064907454 0.64700001 4294967295
0.23871571 0.064799465 0.64600003 4294967295
0.2399081 0.064791769 0.64600003 4294967295
0.240354 0.064583465 0.64399999 4294967295
0.24154267 0.064575747 0.64399999 4294967295
0.2502093 0.062770911 0.62699997 4294967295
0.25136632 0.062763028 0.62699997 4294967295
0.25252336 0.062755123 0.62699997 4294967295
0.25368035 0.062747188 0.62699997 4294967295
0.25280517 0.062238917 0.62199998 4294967295
0.25395289 0.062230993 0.62199998 4294967295
0.25510067 0.062223054 0.62199998 4294967295
0.25542447 0.062015042 0.62 4294967295
0.25656855 0.062007077 0.62 4294967295
0.25771257 0.061999083 0.62 4294967295
0.25885662 0.061991077 0.62 4294967295
0.26000065 0.061983034 0.62 4294967295
0.2607235 0.061875019 0.61900002 4294967295
0.26186571 0.061866954 0.61900002 4294967295
0.26300791 0.061858859 0.61900002 4294967295
0.26415008 0.061850749 0.61900002 4294967295
0.26529232 0.061842613 0.61900002 4294967295
0.26643449 0.061834443 0.61900002 4294967295
0.26757669 0.061826259 0.61900002 4294967295
0.26871887 0.061818048 0.61900002 4294967295
0.2698611 0.061809827 0.61900002 4294967295
0.27100334 0.061801575 0.61900002 4294967295
0.27214557 0.061793301 0.61900002 4294967295
0.27284628 0.061685186 0.61799997 4294967295
0.27310002 0.061477285 0.616 4294967295
0.27379155 0.061369207 0.61500001 4294967295
0.27403235 0.061161347 0.61299998 4294967295
0.27336809 0.060754012 0.60900003 4294967295
0.27449197 0.060745746 0.60900003 4294967295
0.27652097 0.06093692 0.611 4294967295
0.27719411 0.060828865 0.61000001 4294967295
0.27740735 0.060621113 0.60799998 4294967295
0.27852941 0.060612772 0.60799998 4294967295
0.28103137 0.060903456 0.611 4294967295
0.28169724 0.060795374 0.61000001 4294967295
0.28282309 0.060786944 0.61000001 4294967295
0.28394896 0.060778499 0.61000001 4294967295
0.28554219 0.060869664 0.611 4294967295
0.28713912 0.060960773 0.61199999 4294967295
0.28826874 0.060952242 0.61199999 4294967295
0.28892553 0.060844108 0.611 4294967295
0.2900534 0.060835548 0.611 4294967295
0.29165784 0.060926534 0.61199999 4294967295
0.30054599 0.061064787 0.61400002 4294243576
0.30167973 0.061056022 0.61400002 4294177783
0.3028135 0.061047237 0.61400002 4294111734
0.30394733 0.061038431 0.61400002 4294440699
0.30508119 0.061029613 0.61400002 4294111734
0.3057164 0.060921386 0.61299998 4293651183
0.30684853 0.060912546 0.61299998 4293585390
0.30747831 0.060804337 0.61199999 4293585390
0.3081044 0.060696132 0.611 4293256679
0.30923304 0.060687266 0.611 4292927458
0.31086963 0.060777694 0.61199999 4292599780
0.23418696 0.066434577 0.64999998 4294967295
0.23502472 0.066324756 0.64899999 4294967295
0.23585875 0.066214934 0.648 4294967295
0.23668906 0.066105112 0.64700001 4294967295
0.23788334 0.066097438 0.64700001 4294967295
0.23870806 0.065987594 0.64600003 4294967295
0.23990044 0.065979883 0.64600003 4294967295
0.24146597 0.06607426 0.64700001 4294967295
0.24266011 0.066066474 0.64700001 4294967295
0.25020149 0.063923873 0.62699997 4294967295
0.25135848 0.063915968 0.62699997 4294967295
0.25251544 0.063908055 0.62699997 4294967295
0.25407705 0.064002022 0.62800002 4294967295
0.25279728 0.063382633 0.62199998 4294967295
0.25394502 0.063374698 0.62199998 4294967295
0.25509277 0.063366741 0.62199998 4294967295
0.25624049 0.063358769 0.62199998 4294967295
0.25656059 0.063147068 0.62 4294967295
0.25770462 0.063139066 0.62 4294967295
0.26010114 0.063436516 0.62300003 4294967295
0.26041201 0.063224807 0.62099999 4294967295
0.26113668 0.063114926 0.62 4294967295
0.2622807 0.063106835 0.62 4294967295
0.26342469 0.063098714 0.62 4294967295
0.26414198 0.062988825 0.61900002 4294967295
0.26528418 0.062980674 0.61900002 4294967295
0.26642635 0.062972501 0.61900002 4294967295
0.26756853 0.062964305 0.61900002 4294967295
0.2687107 0.062956095 0.61900002 4294967295
0.26985291 0.062947854 0.61900002 4294967295
0.27099511 0.062939599 0.61900002 4294967295
0.27213731 0.062931314 0.61900002 4294967295
0.27195507 0.062618054 0.616 4294967295
0.27309176 0.062609769 0.616 4294967295
0.2737833 0.06249984 0.61500001 4294967295
0.27402413 0.062288295 0.61299998 4294967295
0.27470648 0.062178396 0.61199999 4294967295
0.27538517 0.0620685 0.611 4294967295
0.27651268 0.06206017 0.611 4294967295
0.27718583 0.061950266 0.61000001 4294967295
0.27831158 0.061941922 0.61000001 4294967295
0.2794373 0.061933551 0.61000001 4294967295
0.28102306 0.062026676 0.611 4294967295
0.28215066 0.062018257 0.611 4294967295
0.28327832 0.062009808 0.611 4294967295
0.28440601 0.062001344 0.611 4294967295
0.28553373 0.061992858 0.611 4294967295
0.28713062 0.062085804 0.61199999 4294967295
0.28826028 0.062077269 0.61199999 4294967295
0.28938991 0.062068716 0.61199999 4294967295
0.29051957 0.06206014 0.61199999 4294967295
0.29164928 0.06205155 0.61199999 4294967295
0.29277903 0.062042933 0.61199999 4294901759
0.29390883 0.062034301 0.61199999 4294901759
0.29989123 0.06230351 0.61500001 4294770686
0.30053729 0.062193453 0.61400002 4294506492
0.301671 0.062184684 0.61400002 4294177783
0.30280477 0.062175896 0.61400002 4293980148
0.30393857 0.062167097 0.61400002 4294111734
0.30507243 0.062158275 0.61400002 4294045941
0.30620635 0.062149435 0.61400002 4293585390
0.3068397 0.062039364 0.61299998 4293585903
0.30797186 0.062030509 0.61299998 4293717746
0.30859989 0.061920457 0.61199999 4293388779
0.30973026 0.061911572 0.61199999 4292994021
0.3113687 0.062003817 0.61299998 4292599526
0.23417941 0.06763003 0.64999998 4294967295
0.23501712 0.067518353 0.64899999 4294967295
0.2362151 0.067510709 0.64899999 4294967295
0.23704726 0.067399018 0.648 4294967295
0.23824334 0.067391314 0.648 4294967295
0.23906989 0.067279607 0.64700001 4294967295
0.24026409 0.067271866 0.64700001 4294967295
0.24145825 0.067264095 0.64700001 4294967295
0.24265237 0.067256302 0.64700001 4294967295
0.24384649 0.067248479 0.64700001 4294967295
0.2412871 0.065881863 0.634 4294967295
0.24245718 0.065874122 0.634 4294967295
0.24362719 0.065866351 0.634 4294967295
0.24479723 0.06585855 0.634 4294967295
0.24596722 0.065850742 0.634 4294967295
0.24713717 0.065842889 0.634 4294967295
0.24830715 0.065835014 0.634 4294967295
0.25019363 0.065076731 0.62699997 4294967295
0.25135061 0.065068826 0.62699997 4294967295
0.25291032 0.06516467 0.62800002 4294967295
0.25406912 0.065156698 0.62800002 4294967295
0.25482148 0.065044954 0.62699997 4294967295
0.25434539 0.064622045 0.62300003 4294967295
0.25549498 0.064614065 0.62300003 4294967295
0.25623253 0.064502358 0.62199998 4294967295
0.25738025 0.064494349 0.62199998 4294967295
0.25894359 0.064589985 0.62300003 4294967295
0.26009312 0.064581916 0.62300003 4294967295
0.26082328 0.064470164 0.62199998 4294967295
0.2615498 0.064358421 0.62099999 4294967295
0.26269564 0.064350307 0.62099999 4294967295
0.26341662 0.064238556 0.62 4294967295
0.2641339 0.064126819 0.61900002 4294967295
0.26527604 0.064118654 0.61900002 4294967295
0.26641822 0.06411048 0.61900002 4294967295
0.26756036 0.06410227 0.61900002 4294967295
0.26826841 0.063990496 0.61799997 4294967295
0.26940873 0.063982263 0.61799997 4294967295
0.27098688 0.064077534 0.61900002 4294967295
0.27168944 0.06396573 0.61799997 4294967295
0.27194685 0.063750453 0.616 4294967295
0.27308354 0.063742161 0.616 4294967295
0.27377504 0.063630387 0.61500001 4294967295
0.27490988 0.063622065 0.61500001 4294967295
0.27514705 0.06340684 0.61299998 4294967295
0.27627826 0.06339851 0.61299998 4294967295
0.2765044 0.063183337 0.611 4294967295
0.27763191 0.063174993 0.611 4294967295
0.27830327 0.063063242 0.61000001 4294967295
0.27942896 0.06305486 0.61000001 4294967295
0.28101465 0.06314981 0.611 4294967295
0.28214228 0.063141383 0.611 4294967295
0.28326988 0.063132934 0.611 4294967295
0.2843976 0.06312447 0.611 4294967295
0.28599262 0.063219287 0.61199999 4294967295
0.28712216 0.063210756 0.61199999 4294967295
0.28825176 0.06320221 0.61199999 4294967295
0.28938138 0.063193649 0.61199999 4294967295
0.29003635 0.063081831 0.611 4294967295
0.29116422 0.063073255 0.611 4294967295
0.29277048 0.063167863 0.61199999 4294967295
0.29390022 0.06315922 0.61199999 4294967295
0.29988253 0.063433938 0.61500001 4294704639
0.30101803 0.063425168 0.61500001 4294375676
0.30215359 0.063416384 0.61500001 4294178040
0.30328915 0.063407585 0.61500001 4294177783
0.30442479 0.063398764 0.61500001 4294045941
0.30556047 0.06338992 0.61500001 4293717492
0.30869102 0.063793294 0.61900002 4293322734
0.30833256 0.063475236 0.616 4293455087
0.30846545 0.06326028 0.61400002 4293455087
0.30959952 0.063251384 0.61400002 4293322988
0.31073362 0.06324248 0.61400002 4293454574
0.3118678 0.063233547 0.61400002 4293454574
0.23657145 0.068810053 0.64999998 4294967295
0.23703963 0.068590656 0.648 4294967295
0.23823568 0.06858293 0.648 4294967295
0.23943168 0.068575196 0.648 4294967295
0.24062769 0.068567425 0.648 4294967295
0.24145052 0.068453833 0.64700001 4294967295
0.24264461 0.068446025 0.64700001 4294967295
0.2434618 0.068332411 0.64600003 4294967295
0.24465403 0.068324558 0.64600003 4294967295
0.24127939 0.067047633 0.634 4294967295
0.24244945 0.067039877 0.634 4294967295
0.24361946 0.067032099 0.634 4294967295
0.24478945 0.067024283 0.634 4294967295
0.24595942 0.067016453 0.634 4294967295
0.24712938 0.067008592 0.634 4294967295
0.24829933 0.067000709 0.634 4294967295
0.24946924 0.066992797 0.634 4294967295
0.24945317 0.066667899 0.63099998 4294967295
0.2506175 0.066659972 0.63099998 4294967295
0.2509838 0.066440769 0.62900001 4294967295
0.25174358 0.066327207 0.62800002 4294967295
0.25290242 0.066319257 0.62800002 4294967295
0.25406119 0.06631127 0.62800002 4294967295
0.25481352 0.066197678 0.62699997 4294967295
0.25597042 0.066189654 0.62699997 4294967295
0.2558971 0.065864965 0.62400001 4294967295
0.25663653 0.065751396 0.62300003 4294967295
0.25778604 0.065743357 0.62300003 4294967295
0.25893557 0.065735303 0.62300003 4294967295
0.26050252 0.065832719 0.62400001 4294967295
0.26123458 0.065719113 0.62300003 4294967295
0.26154172 0.065500028 0.62099999 4294967295
0.26268756 0.0654919 0.62099999 4294967295
0.26340851 0.065378301 0.62 4294967295
0.26412579 0.065264709 0.61900002 4294967295
0.26526791 0.065256536 0.61900002 4294967295
0.26641005 0.065248348 0.61900002 4294967295
0.26755223 0.065240145 0.61900002 4294967295
0.26826024 0.065126516 0.61799997 4294967295
0.26940051 0.065118276 0.61799997 4294967295
0.27141643 0.065320723 0.62 4294967295
0.27168119 0.065101728 0.61799997 4294967295
0.27193865 0.06488277 0.616 4294967295
0.27263197 0.064769149 0.61500001 4294967295
0.27376679 0.064760834 0.61500001 4294967295
0.27445459 0.06464722 0.61400002 4294967295
0.27558759 0.06463889 0.61400002 4294967295
0.27672064 0.064630531 0.61400002 4294967295
0.2769486 0.064411648 0.61199999 4294967295
0.27807796 0.064403281 0.61199999 4294967295
0.27875111 0.064289667 0.611 4294967295
0.27987868 0.064281277 0.611 4294967295
0.28100628 0.064272866 0.611 4294967295
0.28259563 0.064369611 0.61199999 4294967295
0.28372508 0.06436114 0.61199999 4294967295
0.28485462 0.064352654 0.61199999 4294967295
0.2864514 0.064449273 0.61299998 4294967295
0.28758281 0.064440735 0.61299998 4294967295
0.28824323 0.064327061 0.61199999 4294967295
0.28937286 0.0643185 0.61199999 4294967295
0.29002783 0.064204834 0.611 4294967295
0.29115567 0.064196244 0.611 4294967295
0.29324025 0.064397752 0.61299998 4294967295
0.30133659 0.064879224 0.61799997 4294310396
0.3024776 0.064870402 0.61799997 4294047227
0.3036187 0.064861573 0.61799997 4294047227
0.30377352 0.064642847 0.616 4294244090
0.30491102 0.06463401 0.616 4293783539
0.30704212 0.064834975 0.61799997 4293455089
0.30868214 0.064930975 0.61900002 4293191918
0.30832374 0.064607397 0.616 4293455087
0.30946139 0.064598493 0.616 4293191916
0.31211177 0.064904138 0.61900002 4292402147
0.23703195 0.069782175 0.648 4294967295
0.23822798 0.069774441 0.648 4294967295
0.23942398 0.069766685 0.648 4294967295
0.24061994 0.069758907 0.648 4294967295
0.24144273 0.069643453 0.64700001 4294967295
0.24226181 0.069527999 0.64600003 4294967295
0.24232343 0.069197312 0.64300001 4294967295
0.24275264 0.068974271 0.64099997 4294967295
0.24355502 0.068858854 0.63999999 4294967295
0.24282409 0.068313107 0.63499999 4294967295
0.24399593 0.068305306 0.63499999 4294967295
0.24516776 0.068297461 0.63499999 4294967295
0.24633954 0.068289608 0.63499999 4294967295
0.24751131 0.068281718 0.63499999 4294967295
0.24868308 0.068273805 0.63499999 4294967295
0.24985482 0.06826587 0.63499999 4294967295
0.25063124 0.068150423 0.634 4294967295
0.25060961 0.067820005 0.63099998 4294967295
0.25097591 0.067597114 0.62900001 4294967295
0.25213656 0.067589156 0.62900001 4294967295
0.25410253 0.067796052 0.63099998 4294967295
0.25486228 0.06768059 0.63 4294967295
0.25521195 0.067457713 0.62800002 4294967295
0.25596243 0.067342266 0.62699997 4294967295
0.2562992 0.067119434 0.625 4294967295
0.25745237 0.067111388 0.625 4294967295
0.25860554 0.067103311 0.625 4294967295
0.25975877 0.067095213 0.625 4294967295
0.26091191 0.067087092 0.625 4294967295
0.26164579 0.066971622 0.62400001 4294967295
0.26195481 0.066748835 0.62199998 4294967295
0.26310244 0.066740692 0.62199998 4294967295
0.26382524 0.06662523 0.62099999 4294967295
0.26454437 0.066509783 0.62 4294967295
0.2652598 0.066394329 0.61900002 4294967295
0.26640189 0.066386126 0.61900002 4294967295
0.26754403 0.066377901 0.61900002 4294967295
0.26868612 0.06636966 0.61900002 4294967295
0.26982826 0.066361405 0.61900002 4294967295
0.27097043 0.066353112 0.61900002 4294967295
0.27079377 0.066023268 0.616 4294967295
0.27193037 0.066014975 0.616 4294967295
0.27262369 0.065899514 0.61500001 4294967295
0.27375847 0.065891199 0.61500001 4294967295
0.27444634 0.065775737 0.61400002 4294967295
0.2755793 0.065767385 0.61400002 4294967295
0.2767123 0.065759026 0.61400002 4294967295
0.27784535 0.065750644 0.61400002 4294967295
0.27852398 0.06563516 0.61299998 4294967295
0.279199 0.065519698 0.61199999 4294967295
0.28032839 0.065511279 0.61199999 4294967295
0.28145781 0.065502845 0.61199999 4294967295
0.28258723 0.065494381 0.61199999 4294967295
0.28371665 0.065485917 0.61199999 4294967295
0.28531158 0.065584406 0.61299998 4294967295
0.28644294 0.065575883 0.61299998 4294967295
0.28757432 0.06556733 0.61299998 4294967295
0.28823474 0.065451823 0.61199999 4294967295
0.28936434 0.065443255 0.61199999 4294967295
0.29049397 0.065434664 0.61199999 4294967295
0.2921001 0.06553296 0.61299998 4294967295
0.29323167 0.065524325 0.61299998 4294901759
0.30018684 0.066023767 0.61799997 4294376189
0.30246884 0.066006154 0.61799997 4294046202
0.30360991 0.065997325 0.61799997 4293914873
0.30475098 0.065988474 0.61799997 4294111988
0.30589211 0.065979607 0.61799997 4293980146
0.3070333 0.065970719 0.61799997 4293717494
0.30867323 0.06606856 0.61900002 4293256943
0.30831483 0.065739468 0.616 4293126125
0.3094525 0.065730564 0.616 4293323247
0.31210285 0.066041715 0.61900002 4292862187
0.31324613 0.066032737 0.61900002 4292927980
0.23775581 0.071192652 0.64999998 4294967295
0.23858789 0.071075372 0.64899999 4294967295
0.23941623 0.070958093 0.648 4294967295
0.24061219 0.070950285 0.648 4294967295
0.24143495 0.07083299 0.64700001 4294967295
0.24150398 0.070496745 0.64399999 4294967295
0.24193878 0.070270002 0.64200002 4294967295
0.24274486 0.07015273 0.64099997 4294967295
0.24354723 0.070035458 0.63999999 4294967295
0.24358115 0.06969934 0.63700002 4294967295
0.24437237 0.06958209 0.63599998 4294967295
0.24554601 0.069574222 0.63599998 4294967295
0.24671963 0.069566347 0.63599998 4294967295
0.24750343 0.06944906 0.63499999 4294967295
0.24867523 0.069441147 0.63499999 4294967295
0.24984689 0.06943319 0.63499999 4294967295
0.25062329 0.069315888 0.634 4294967295
0.25099888 0.069089271 0.63200003 4294967295
0.25216502 0.069081292 0.63200003 4294967295
0.25293031 0.068963982 0.63099998 4294967295
0.25409457 0.06895595 0.63099998 4294967295
0.25485429 0.068838641 0.63 4294967295
0.25520399 0.068612084 0.62800002 4294967295
0.25595444 0.068494774 0.62699997 4294967295
0.25629121 0.068268262 0.625 4294967295
0.25744432 0.0682602 0.625 4294967295
0.25859752 0.068252116 0.625 4294967295
0.25975066 0.068244003 0.625 4294967295
0.26090381 0.068235874 0.625 4294967295
0.26205698 0.068227716 0.625 4294967295
0.26236787 0.068001248 0.62300003 4294967295
0.26309431 0.067883931 0.62199998 4294967295
0.26424193 0.067875743 0.62199998 4294967295
0.26496288 0.067758426 0.62099999 4294967295
0.26610866 0.067750223 0.62099999 4294967295
0.26639375 0.067523815 0.61900002 4294967295
0.26753581 0.067515582 0.61900002 4294967295
0.26867792 0.067507334 0.61900002 4294967295
0.26982003 0.067499064 0.61900002 4294967295
0.27052441 0.067381732 0.61799997 4294967295
0.27078551 0.067155391 0.616 4294967295
0.27148068 0.067038089 0.61500001 4294967295
0.27261546 0.067029797 0.61500001 4294967295
0.27375022 0.067021467 0.61500001 4294967295
0.274885 0.067013122 0.61500001 4294967295
0.27557102 0.066895805 0.61400002 4294967295
0.27670401 0.066887438 0.61400002 4294967295
0.27783698 0.066879049 0.61400002 4294967295
0.27851564 0.066761725 0.61299998 4294967295
0.27964681 0.066753298 0.61299998 4294967295
0.28123608 0.066853762 0.61400002 4294967295
0.28236917 0.066845283 0.61400002 4294967295
0.28350228 0.066836797 0.61400002 4294967295
0.28417179 0.066719443 0.61299998 4294967295
0.28530309 0.066710934 0.61299998 4294967295
0.28643441 0.066702403 0.61299998 4294967295
0.2875658 0.066693842 0.61299998 4294967295
0.28822622 0.066576496 0.61199999 4294967295
0.28935581 0.066567928 0.61199999 4294967295
0.29048541 0.06655933 0.61199999 4294967295
0.29161504 0.066550724 0.61199999 4294967295
0.29723576 0.067294449 0.61900002 4294836223
0.29903722 0.067168221 0.61799997 4294967295
0.30017814 0.067159444 0.61799997 4294507005
0.30131906 0.067150645 0.61799997 4294309883
0.30246007 0.067141823 0.61799997 4294111736
0.30360112 0.067132987 0.61799997 4294177529
0.30474219 0.067124136 0.61799997 4294243576
0.30588329 0.06711527 0.61799997 4294374906
0.30702448 0.067106389 0.61799997 4294045941
0.30716842 0.066880338 0.616 4293717232
0.30830598 0.066871449 0.616 4293125873
0.30944362 0.066862546 0.616 4293389044
0.31158972 0.067070685 0.61799997 4293717232
0.31323719 0.06717024 0.61900002 4293519597
0.31438059 0.06716124 0.61900002 4293125352
0.23968299 0.07260257 0.65200001 4294967295
0.24088632 0.072594747 0.65200001 4294967295
0.24208961 0.072586887 0.65200001 4294967295
0.24142717 0.072022408 0.64700001 4294967295
0.24149622 0.071680643 0.64399999 4294967295
0.24193102 0.071450211 0.64200002 4294967295
0.24273705 0.071331076 0.64099997 4294967295
0.24391995 0.071323216 0.64099997 4294967295
0.24472046 0.071204081 0.63999999 4294967295
0.2447488 0.07086245 0.63700002 4294967295
0.24592425 0.070854567 0.63700002 4294967295
0.24671178 0.070735432 0.63599998 4294967295
0.24788532 0.070727505 0.63599998 4294967295
0.24905889 0.070719555 0.63599998 4294967295
0.25023243 0.070711583 0.63599998 4294967295
0.25101066 0.070592418 0.63499999 4294967295
0.25178519 0.070473254 0.634 4294967295
0.25215706 0.070242956 0.63200003 4294967295
0.25332314 0.070234917 0.63200003 4294967295
0.25408655 0.070115753 0.63099998 4294967295
0.2548463 0.069996595 0.63 4294967295
0.25560236 0.069877438 0.62900001 4294967295
0.25635463 0.069758281 0.62800002 4294967295
0.25710326 0.069639117 0.62699997 4294967295
0.2582601 0.06963101 0.62699997 4294967295
0.25941694 0.069622897 0.62699997 4294967295
0.26057374 0.069614753 0.62699997 4294967295
0.26173058 0.06960658 0.62699997 4294967295
0.26204884 0.069376394 0.625 4294967295
0.26320195 0.069368199 0.625 4294967295
0.26393217 0.069249019 0.62400001 4294967295
0.2646586 0.069129847 0.62300003 4294967295
0.2653814 0.06901066 0.62199998 4294967295
0.2661005 0.068891488 0.62099999 4294967295
0.2668159 0.068772323 0.62 4294967295
0.2679598 0.068764076 0.62 4294967295
0.26866972 0.068644904 0.61900002 4294967295
0.26981181 0.068636626 0.61900002 4294967295
0.27051613 0.068517439 0.61799997 4294967295
0.27077726 0.068287425 0.616 4294967295
0.27147245 0.068168275 0.61500001 4294967295
0.27260718 0.068159968 0.61500001 4294967295
0.27374193 0.068151638 0.61500001 4294967295
0.27487671 0.068143286 0.61500001 4294967295
0.2755627 0.068024136 0.61400002 4294967295
0.27669567 0.068015754 0.61400002 4294967295
0.27782863 0.06800735 0.61400002 4294967295
0.27896163 0.067998938 0.61400002 4294967295
0.28055081 0.068101235 0.61500001 4294967295
0.28122765 0.06798204 0.61400002 4294967295
0.28236073 0.067973576 0.61400002 4294967295
0.28349382 0.067965075 0.61400002 4294967295
0.2846269 0.067956559 0.61400002 4294967295
0.28576007 0.067948028 0.61400002 4294967295
0.28642592 0.067828827 0.61299998 4294967295
0.28755727 0.067820266 0.61299998 4294967295
0.28868863 0.06781169 0.61299998 4294967295
0.28982005 0.0678031 0.61299998 4294967295
0.29095149 0.067794494 0.61299998 4294967295
0.29722703 0.068431877 0.61900002 4294967295
0.29836971 0.068423115 0.61900002 4294901759
0.29951239 0.06841433 0.61900002 4294901759
0.30016938 0.068295017 0.61799997 4294638591
0.30131033 0.068286218 0.61799997 4294704639
0.30245131 0.068277396 0.61799997 4294440699
0.30457482 0.068489492 0.62 4294506492
0.30473337 0.068259709 0.61799997 4294178043
0.3058745 0.068250835 0.61799997 4294112249
0.3070156 0.068241946 0.61799997 4293783537
0.30715957 0.06801223 0.616 4293783537
0.30829719 0.068003342 0.616 4293388538
0.3094348 0.067994446 0.616 4293322745
0.31158081 0.068206251 0.61799997 4293453802
0.31322828 0.068307646 0.61900002 4293453802
0.31437162 0.068298645 0.61900002 4293454054
0.2422384 0.073090725 0.64600003 4294967295
0.24267687 0.072856575 0.64399999 4294967295
0.24348661 0.072735578 0.64300001 4294967295
0.24429265 0.072614565 0.64200002 4294967295
0.24509497 0.072493561 0.64099997 4294967295
0.24512517 0.072146393 0.63800001 4294967295
0.24591641 0.072025418 0.63700002 4294967295
0.24709183 0.072017491 0.63700002 4294967295
0.2478774 0.071896493 0.63599998 4294967295
0.24905096 0.071888529 0.63599998 4294967295
0.25022447 0.071880542 0.63599998 4294967295
0.25139797 0.071872532 0.63599998 4294967295
0.25217435 0.071751498 0.63499999 4294967295
0.252947 0.071630478 0.634 4294967295
0.2541168 0.071622416 0.634 4294967295
0.25407857 0.071275465 0.63099998 4294967295
0.25483829 0.071154453 0.63 4294967295
0.25559428 0.071033441 0.62900001 4294967295
0.25634661 0.070912436 0.62800002 4294967295
0.2575053 0.070904337 0.62800002 4294967295
0.25866392 0.070896216 0.62800002 4294967295
0.25982261 0.070888065 0.62800002 4294967295
0.26098123 0.070879899 0.62800002 4294967295
0.26172245 0.070758857 0.62699997 4294967295
0.26287925 0.070750654 0.62699997 4294967295
0.26403603 0.070742428 0.62699997 4294967295
0.26434693 0.070508562 0.625 4294967295
0.26550004 0.070500314 0.625 4294967295
0.26665312 0.070492059 0.625 4294967295
0.26652077 0.070145451 0.62199998 4294967295
0.26723802 0.070024423 0.62099999 4294967295
0.26795161 0.069903404 0.62 4294967295
0.26909551 0.069895118 0.62 4294967295
0.27067527 0.069999531 0.62099999 4294967295
0.27182105 0.069991194 0.62099999 4294967295
0.27252728 0.069870152 0.62 4294967295
0.2719056 0.069411054 0.616 4294967295
0.27304211 0.069402725 0.616 4294967295
0.27373365 0.06928172 0.61500001 4294967295
0.2748684 0.06927336 0.61500001 4294967295
0.27600318 0.069264986 0.61500001 4294967295
0.27713796 0.069256589 0.61500001 4294967295
0.27827275 0.06924817 0.61500001 4294967295
0.27940753 0.069239728 0.61500001 4294967295
0.28054243 0.069231279 0.61500001 4294967295
0.28167728 0.0692228 0.61500001 4294967295
0.28281215 0.069214307 0.61500001 4294967295
0.28394705 0.069205798 0.61500001 4294967295
0.28508198 0.06919726 0.61500001 4294967295
0.28621691 0.069188714 0.61500001 4294967295
0.28781918 0.069292627 0.616 4294967295
0.28895605 0.069284029 0.616 4294967295
0.29103476 0.06950032 0.61799997 4294967295
0.29217535 0.069491662 0.61799997 4294967295
0.29540965 0.069699109 0.62 4294967295
0.29655403 0.069690362 0.62 4294967295
0.29721832 0.069569215 0.61900002 4294967295
0.29836097 0.069560446 0.61900002 4294836223
0.29950365 0.069551662 0.61900002 4294901759
0.30064636 0.069542862 0.61900002 4294309883
0.30178913 0.069534048 0.61900002 4294375676
0.30293193 0.069525212 0.61900002 4294244090
0.304566 0.069628656 0.62 4294309883
0.30521765 0.069507487 0.61900002 4293784570
0.3063606 0.069498606 0.61900002 4293587191
0.30750358 0.069489703 0.61900002 4293192942
0.30864665 0.069480792 0.61900002 4293324784
0.30928922 0.069359615 0.61799997 4293060081
0.3104305 0.069350682 0.61799997 4293125875
0.3115719 0.069341734 0.61799997 4293256681
0.31321934 0.069444962 0.61900002 4293453804
0.3143627 0.069435969 0.61900002 4293586155
0.24260551 0.074393064 0.64700001 4294967295
0.24342267 0.074270196 0.64600003 4294967295
0.24461475 0.074262269 0.64600003 4294967295
0.24580681 0.074254327 0.64600003 4294967295
0.24546947 0.073786616 0.64200002 4294967295
0.24626988 0.073663741 0.64099997 4294967295
0.24629456 0.073311061 0.63800001 4294967295
0.2470839 0.073188215 0.63700002 4294967295
0.24825926 0.073180251 0.63700002 4294967295
0.24943464 0.073172271 0.63700002 4294967295
0.25060993 0.073164254 0.63700002 4294967295
0.25139001 0.073041372 0.63599998 4294967295
0.25256345 0.073033325 0.63599998 4294967295
0.25373691 0.073025256 0.63599998 4294967295
0.25450957 0.072902359 0.63499999 4294967295
0.25568113 0.072894238 0.63499999 4294967295
0.25523475 0.07242699 0.63099998 4294967295
0.25599259 0.072304115 0.63 4294967295
0.25674677 0.072181247 0.62900001 4294967295
0.25749722 0.07205838 0.62800002 4294967295
0.25865582 0.072050251 0.62800002 4294967295
0.25981447 0.0720421 0.62800002 4294967295
0.26097307 0.072033919 0.62800002 4294967295
0.26213172 0.072025716 0.62800002 4294967295
0.26329035 0.072017491 0.62800002 4294967295
0.26444897 0.072009243 0.62800002 4294967295
0.26560757 0.07200098 0.62800002 4294967295
0.26676622 0.071992688 0.62800002 4294967295
0.26792482 0.071984373 0.62800002 4294967295
0.26865494 0.071861424 0.62699997 4294967295
0.26809046 0.071394697 0.62300003 4294967295
0.26880768 0.0712718 0.62199998 4294967295
0.26995528 0.071263485 0.62199998 4294967295
0.27110285 0.07125514 0.62199998 4294967295
0.27225041 0.071246773 0.62199998 4294967295
0.27295849 0.071123868 0.62099999 4294967295
0.27410424 0.071115486 0.62099999 4294967295
0.27525002 0.071107075 0.62099999 4294967295
