# .PCD v0.7 - Point Cloud Data file format
VERSION 0.7
FIELDS x y z rgba
SIZE 4 4 4 4
TYPE F F F U
COUNT 1 1 1 1
WIDTH 1052
HEIGHT 1
VIEWPOINT 0 0 0 1 0 0 0
POINTS 1052
DATA ascii
0.078668378 -0.031756099 0.77600002 4294967295
0.080112793 -0.031757843 0.77600002 4294967295
0.081557147 -0.031759623 0.77600002 4294967295
0.08300145 -0.031761445 0.77600002 4294967295
0.084445663 -0.0317633 0.77600002 4294967295
0.085889816 -0.0317652 0.77600002 4294967295
0.087333903 -0.031767134 0.77600002 4294967295
0.088777922 -0.031769112 0.77600002 4294967295
0.090221889 -0.031771127 0.77600002 4294967295
0.091665775 -0.031773176 0.77600002 4294967295
0.093349561 -0.031857163 0.778 4294967295
0.09479703 -0.031859297 0.778 4294967295
0.096491858 -0.031943373 0.77999997 4294967295
0.097942919 -0.031945594 0.77999997 4294967295
0.099521339 -0.031988811 0.78100002 4294967295
0.10123268 -0.032073032 0.78299999 4294967295
0.10268912 -0.032075379 0.78299999 4294967295
0.10494354 -0.032323569 0.78899997 4294967295
0.10641099 -0.032326009 0.78899997 4294967295
0.10801511 -0.032369465 0.79000002 4294967295
0.10976145 -0.032453943 0.792 4294967295
0.11123428 -0.032456513 0.792 4294967295
0.11270703 -0.032459121 0.792 4294967295
0.11475637 -0.03262572 0.796 4294967295
0.11623641 -0.032628421 0.796 4294967295
0.11771639 -0.032631166 0.796 4294967295
0.11949576 -0.032715943 0.79799998 4294967295
0.12097932 -0.03271877 0.79799998 4294967295
0.12276971 -0.032803651 0.80000001 4294967295
0.024529252 -0.031291954 0.80199999 4294967295
0.025894606 -0.031136194 0.79799998 4294967295
0.02731362 -0.031058511 0.796 4294967295
0.028725117 -0.030980863 0.79400003 4294967295
0.030205188 -0.030981287 0.79400003 4294967295
0.031605385 -0.030903718 0.792 4294967295
0.033081606 -0.030904217 0.792 4294967295
0.034470513 -0.030826721 0.79000002 4294967295
0.035897393 -0.03078828 0.78899997 4294967295
0.037273131 -0.030710852 0.787 4294967295
0.03864136 -0.030633463 0.78500003 4294967295
0.040104248 -0.030634159 0.78500003 4294967295
0.041567072 -0.030634888 0.78500003 4294967295
0.043029841 -0.030635664 0.78500003 4294967295
0.044379197 -0.030558417 0.78299999 4294967295
0.045838121 -0.030559264 0.78299999 4294967295
0.047176175 -0.030482091 0.78100002 4294967295
0.048631255 -0.030483017 0.78100002 4294967295
0.050086264 -0.030483972 0.78100002 4294967295
0.051541228 -0.030484976 0.78100002 4294967295
0.052996125 -0.030486012 0.78100002 4294967295
0.054241799 -0.03036998 0.778 4294967295
0.055690978 -0.030371094 0.778 4294967295
0.056993224 -0.030294165 0.77600002 4294967295
0.058438554 -0.030295353 0.77600002 4294967295
0.059883829 -0.030296575 0.77600002 4294967295
0.061170984 -0.030219752 0.77399999 4294967295
0.062612399 -0.030221047 0.77399999 4294967295
0.064053766 -0.030222386 0.77399999 4294967295
0.065495066 -0.030223759 0.77399999 4294967295
0.066936299 -0.030225171 0.77399999 4294967295
0.06837748 -0.030226624 0.77399999 4294967295
0.069818586 -0.030228116 0.77399999 4294967295
0.071443774 -0.030307757 0.77600002 4294967295
0.072888471 -0.030309329 0.77600002 4294967295
0.074333116 -0.030310936 0.77600002 4294967295
0.075777695 -0.030312588 0.77600002 4294967295
0.077222206 -0.030314272 0.77600002 4294967295
0.078666657 -0.030315999 0.77600002 4294967295
0.080111034 -0.030317763 0.77600002 4294967295
0.081555352 -0.030319566 0.77600002 4294967295
0.082999602 -0.03032141 0.77600002 4294967295
0.084443778 -0.030323293 0.77600002 4294967295
0.085887901 -0.030325212 0.77600002 4294967295
0.087331958 -0.030327169 0.77600002 4294967295
0.088775933 -0.030329166 0.77600002 4294967295
0.090219848 -0.030331198 0.77600002 4294967295
0.091663703 -0.030333275 0.77600002 4294967295
0.093107484 -0.030335391 0.77600002 4294967295
0.094794884 -0.030415732 0.778 4294967295
0.096242249 -0.030417927 0.778 4294967295
0.097940676 -0.030498365 0.77999997 4294967295
0.099519067 -0.030539751 0.78100002 4294967295
0.10123037 -0.030620284 0.78299999 4294967295
0.10268677 -0.03062265 0.78299999 4294967295
0.10467511 -0.030781506 0.787 4294967295
0.10640851 -0.030862195 0.78899997 4294967295
0.10801261 -0.03090382 0.79000002 4294967295
0.10975891 -0.030984612 0.792 4294967295
0.11123169 -0.030987209 0.792 4294967295
0.1127044 -0.030989841 0.792 4294967295
0.11446536 -0.031070778 0.79400003 4294967295
0.1156496 -0.030995226 0.792 4294967295
0.11712209 -0.03099798 0.792 4294967295
0.11889401 -0.031079058 0.79400003 4294967295
0.12037008 -0.031081898 0.79400003 4294967295
0.12215299 -0.031163076 0.796 4294967295
0.015654087 -0.029987577 0.80699998 4294967295
0.017158857 -0.029987672 0.80699998 4294967295
0.018663574 -0.029987808 0.80699998 4294967295
0.024528952 -0.029802933 0.80199999 4294967295
0.025894271 -0.029654622 0.79799998 4294967295
0.027244614 -0.029506344 0.79400003 4294967295
0.028652348 -0.029432427 0.792 4294967295
0.03012865 -0.029432869 0.792 4294967295
0.031525083 -0.029359028 0.79000002 4294967295
0.032997541 -0.029359555 0.79000002 4294967295
0.03446994 -0.029360114 0.79000002 4294967295
0.035896786 -0.029323544 0.78899997 4294967295
0.037272491 -0.029249853 0.787 4294967295
0.038640674 -0.029176194 0.78500003 4294967295
0.040103529 -0.029176909 0.78500003 4294967295
0.04146041 -0.029103322 0.78299999 4294967295
0.042919412 -0.02910411 0.78299999 4294967295
0.044378363 -0.029104939 0.78299999 4294967295
0.045720171 -0.029031461 0.78100002 4294967295
0.04717527 -0.029032368 0.78100002 4294967295
0.048568036 -0.02899613 0.77999997 4294967295
0.05002116 -0.028997114 0.77999997 4294967295
0.051474202 -0.028998131 0.77999997 4294967295
0.052791491 -0.02892483 0.778 4294967295
0.054101277 -0.028851571 0.77600002 4294967295
0.055546682 -0.028852696 0.77600002 4294967295
0.056992054 -0.028853863 0.77600002 4294967295
0.058286738 -0.028780699 0.77399999 4294967295
0.059728246 -0.028781941 0.77399999 4294967295
0.061169699 -0.028783221 0.77399999 4294967295
0.062611081 -0.02878454 0.77399999 4294967295
0.06405241 -0.028785897 0.77399999 4294967295
0.065409057 -0.028750099 0.773 4294967295
0.066848397 -0.028751532 0.773 4294967295
0.068287663 -0.028753005 0.773 4294967295
0.069726877 -0.028754514 0.773 4294967295
0.07125809 -0.028793264 0.77399999 4294967295
0.072699018 -0.028794849 0.77399999 4294967295
0.074139915 -0.028796479 0.77399999 4294967295
0.075580731 -0.028798146 0.77399999 4294967295
0.07702148 -0.028799849 0.77399999 4294967295
0.078462169 -0.02880159 0.77399999 4294967295
0.079902783 -0.028803373 0.77399999 4294967295
0.081343338 -0.028805193 0.77399999 4294967295
0.082783826 -0.028807051 0.77399999 4294967295
0.084224246 -0.028808953 0.77399999 4294967295
0.085664608 -0.028810887 0.77399999 4294967295
0.087104887 -0.028812859 0.77399999 4294967295
0.088773921 -0.028889336 0.77600002 4294967295
0.090217799 -0.028891394 0.77600002 4294967295
0.09166161 -0.028893489 0.77600002 4294967295
0.093105353 -0.02889563 0.77600002 4294967295
0.094549023 -0.0288978 0.77600002 4294967295
0.096240029 -0.028974496 0.778 4294967295
0.097687289 -0.028976755 0.778 4294967295
0.099134482 -0.028979054 0.778 4294967295
0.10084017 -0.029055895 0.77999997 4294967295
0.10229094 -0.029058272 0.77999997 4294967295
0.10387467 -0.029097954 0.78100002 4294967295
0.10586661 -0.029249463 0.78500003 4294967295
0.10759992 -0.029326502 0.787 4294967295
0.10947917 -0.029440865 0.79000002 4294967295
0.11094819 -0.029443476 0.79000002 4294967295
0.11270175 -0.029520674 0.792 4294967295
0.11417433 -0.029523373 0.792 4294967295
0.11535484 -0.029451549 0.79000002 4294967295
0.11682357 -0.029454321 0.79000002 4294967295
0.11859172 -0.029531702 0.792 4294967295
0.12006403 -0.029534558 0.792 4294967295
0.12184317 -0.029612049 0.79400003 4294967295
0.12331906 -0.029614992 0.79400003 4294967295
0.014114155 -0.028418606 0.80500001 4294967295
0.015615209 -0.028418675 0.80500001 4294967295
0.017116211 -0.028418789 0.80500001 4294967295
0.018617159 -0.028418943 0.80500001 4294967295
0.020118048 -0.028419131 0.80500001 4294967295
0.021565175 -0.028348757 0.80299997 4294967295
0.023062224 -0.028349027 0.80299997 4294967295
0.024406293 -0.028172817 0.79799998 4294967295
0.025829015 -0.028102553 0.796 4294967295
0.027175598 -0.027961724 0.792 4294967295
0.028651914 -0.027962144 0.792 4294967295
0.030052096 -0.027891995 0.79000002 4294967295
0.031484671 -0.02785719 0.78899997 4294967295
0.032955222 -0.027857728 0.78899997 4294967295
0.034425721 -0.027858313 0.78899997 4294967295
0.035805169 -0.027788313 0.787 4294967295
0.037177108 -0.02771835 0.78500003 4294967295
0.038541529 -0.027648419 0.78299999 4294967295
0.040000614 -0.027649151 0.78299999 4294967295
0.041459639 -0.02764992 0.78299999 4294967295
0.042808976 -0.027580105 0.78100002 4294967295
0.044264164 -0.027580949 0.78100002 4294967295
0.045719281 -0.027581835 0.78100002 4294967295
0.047113936 -0.02754744 0.77999997 4294967295
0.048442546 -0.027477765 0.778 4294967295
0.049891893 -0.027478758 0.778 4294967295
0.0512092 -0.027409153 0.77600002 4294967295
0.052654713 -0.027410228 0.77600002 4294967295
0.053960726 -0.02734069 0.77399999 4294967295
0.055402372 -0.027341837 0.77399999 4294967295
0.056843974 -0.027343022 0.77399999 4294967295
0.058285508 -0.027344242 0.77399999 4294967295
0.059726983 -0.027345506 0.77399999 4294967295
0.061168395 -0.027346807 0.77399999 4294967295
0.06260974 -0.027348146 0.77399999 4294967295
0.063968278 -0.027314188 0.773 4294967295
0.065407634 -0.027315604 0.773 4294967295
0.066673987 -0.02724638 0.77100003 4294967295
0.068109505 -0.027247868 0.77100003 4294967295
0.069544949 -0.027249396 0.77100003 4294967295
0.071164452 -0.02732165 0.773 4294967295
0.072697423 -0.027358603 0.77399999 4294967295
0.074138261 -0.027360253 0.77399999 4294967295
0.075579032 -0.027361939 0.77399999 4294967295
0.076920241 -0.027328314 0.773 4294967295
0.07835903 -0.027330073 0.773 4294967295
0.079900973 -0.027367236 0.77399999 4294967295
0.08134149 -0.027369078 0.77399999 4294967295
0.082781948 -0.02737096 0.77399999 4294967295
0.084222332 -0.027372878 0.77399999 4294967295
0.085662648 -0.027374838 0.77399999 4294967295
0.087102897 -0.027376834 0.77399999 4294967295
0.08877188 -0.027449619 0.77600002 4294967295
0.09021572 -0.0274517 0.77600002 4294967295
0.091659486 -0.027453821 0.77600002 4294967295
0.0931032 -0.027455978 0.77600002 4294967295
0.094546825 -0.027458176 0.77600002 4294967295
0.096237801 -0.027531188 0.778 4294967295
0.097685017 -0.027533466 0.778 4294967295
0.099132173 -0.027535789 0.778 4294967295
0.1008378 -0.027608937 0.77999997 4294967295
0.10228857 -0.027611345 0.77999997 4294967295
0.10387222 -0.02764919 0.78100002 4294967295
0.10559438 -0.027722491 0.78299999 4294967295
0.10732394 -0.02779584 0.78500003 4294967295
0.10906085 -0.027869243 0.787 4294967295
0.11080512 -0.027942697 0.78899997 4294967295
0.11241448 -0.027980791 0.79000002 4294967295
0.11417162 -0.028054344 0.792 4294967295
0.11535209 -0.027986256 0.79000002 4294967295
0.11682079 -0.027989052 0.79000002 4294967295
0.11828941 -0.027991889 0.79000002 4294967295
0.12006116 -0.028065637 0.792 4294967295
0.12153336 -0.028068557 0.792 4294967295
0.12300548 -0.028071517 0.792 4294967295
0.1247919 -0.028145418 0.79400003 4294967295
0.012581683 -0.026857181 0.80299997 4294442495
0.014079026 -0.026857233 0.80299997 4294967295
0.015615108 -0.026924212 0.80500001 4294967295
0.017073546 -0.026857451 0.80299997 4294967295
0.018570725 -0.026857618 0.80299997 4294967295
0.020067846 -0.026857827 0.80299997 4294967295
0.02153806 -0.026824635 0.80199999 4294967295
0.022975767 -0.026758024 0.80000001 4294967295
0.024405958 -0.026691459 0.79799998 4294967295
0.025763746 -0.026558029 0.79400003 4294967295
0.027175186 -0.026491541 0.792 4294967295
0.028579112 -0.026425082 0.79000002 4294967295
0.030013569 -0.026392113 0.78899997 4294967295
0.031404335 -0.026325736 0.787 4294967295
0.032871123 -0.026326291 0.787 4294967295
0.034337852 -0.026326889 0.787 4294967295
0.035713539 -0.02626062 0.78500003 4294967295
0.037081711 -0.026194382 0.78299999 4294967295
0.038540814 -0.026195096 0.78299999 4294967295
0.039897691 -0.026128937 0.78100002 4294967295
0.041352946 -0.026129723 0.78100002 4294967295
0.042808145 -0.02613055 0.78100002 4294967295
0.044263288 -0.026131416 0.78100002 4294967295
0.045659833 -0.026098857 0.77999997 4294967295
0.046992186 -0.026032876 0.778 4294967295
0.048317034 -0.025966931 0.77600002 4294967295
0.049762629 -0.025967946 0.77600002 4294967295
0.051208142 -0.025969001 0.77600002 4294967295
0.052517906 -0.02590316 0.77399999 4294967295
0.053959593 -0.025904287 0.77399999 4294967295
0.055401213 -0.025905453 0.77399999 4294967295
0.056842763 -0.025906658 0.77399999 4294967295
0.058284257 -0.0259079 0.77399999 4294967295
0.059725702 -0.025909184 0.77399999 4294967295
0.06116708 -0.025910504 0.77399999 4294967295
0.062527493 -0.025878387 0.773 4294967295
0.063966885 -0.025879789 0.773 4294967295
0.065236978 -0.025814258 0.77100003 4294967295
0.066672511 -0.025815729 0.77100003 4294967295
0.068107985 -0.025817236 0.77100003 4294967295
0.069543399 -0.025818786 0.77100003 4294967295
0.070978753 -0.025820373 0.77100003 4294967295
0.072414026 -0.025821999 0.77100003 4294967295
0.074040808 -0.025890648 0.773 4294967295
0.075479694 -0.025892353 0.773 4294967295
0.076918498 -0.025894102 0.773 4294967295
0.078357249 -0.025895884 0.773 4294967295
0.079795927 -0.02589771 0.773 4294967295
0.081234552 -0.025899572 0.773 4294967295
0.082780048 -0.025934977 0.77399999 4294967295
0.084220394 -0.02593692 0.77399999 4294967295
0.085660674 -0.025938898 0.77399999 4294967295
0.087100878 -0.025940923 0.77399999 4294967295
0.088541023 -0.025942981 0.77399999 4294967295
0.090213619 -0.026012121 0.77600002 4294967295
0.091657355 -0.026014263 0.77600002 4294967295
0.093101025 -0.026016446 0.77600002 4294967295
0.094544612 -0.026018661 0.77600002 4294967295
0.096235536 -0.02608799 0.778 4294967295
0.097682714 -0.026090294 0.778 4294967295
0.099129833 -0.026092635 0.778 4294967295
0.10083542 -0.026162099 0.77999997 4294967295
0.10228614 -0.026164528 0.77999997 4294967295
0.10373675 -0.026166996 0.77999997 4294967295
0.10559189 -0.026270155 0.78299999 4294967295
0.10704795 -0.02627271 0.78299999 4294967295
0.1087811 -0.026342422 0.78500003 4294967295
0.11052161 -0.026412187 0.787 4294967295
0.1122695 -0.026482003 0.78899997 4294967295
0.11388057 -0.026518304 0.79000002 4294967295
0.11534932 -0.026521085 0.79000002 4294967295
0.11681798 -0.026523903 0.79000002 4294967295
0.11828657 -0.026526762 0.79000002 4294967295
0.1197551 -0.026529664 0.79000002 4294967295
0.12153041 -0.026599772 0.792 4294967295
0.1230025 -0.026602758 0.792 4294967295
0.12478885 -0.026672969 0.79400003 4294967295
0.12658256 -0.026743239 0.796 4294967295
0.012581646 -0.025366515 0.80299997 4294967295
0.014078948 -0.02536658 0.80299997 4294967295
0.015614993 -0.025429869 0.80500001 4294967295
0.017073387 -0.025366837 0.80299997 4294967295
0.018570527 -0.025367027 0.80299997 4294967295
0.02006761 -0.025367254 0.80299997 4294967295
0.021537783 -0.025335928 0.80199999 4294967295
0.022975452 -0.025273059 0.80000001 4294967295
0.024283273 -0.025083855 0.79400003 4294967295
0.025698461 -0.02502105 0.792 4294967295
0.027106129 -0.024958286 0.79000002 4294967295
0.028578646 -0.024958748 0.79000002 4294967295
0.03001306 -0.024927657 0.78899997 4294967295
0.031403791 -0.024865003 0.787 4294967295
0.032870539 -0.024865581 0.787 4294967295
0.034249973 -0.024803005 0.78500003 4294967295
0.035712875 -0.024803663 0.78500003 4294967295
0.037081011 -0.024741156 0.78299999 4294967295
0.038540076 -0.024741886 0.78299999 4294967295
0.039896913 -0.02467946 0.78100002 4294967295
0.04135213 -0.024680266 0.78100002 4294967295
0.042807296 -0.02468111 0.78100002 4294967295
0.044262402 -0.024681997 0.78100002 4294967295
0.045658905 -0.024651313 0.77999997 4294967295
0.046870425 -0.024525855 0.77600002 4294967295
0.048316032 -0.024526849 0.77600002 4294967295
0.049633332 -0.024464667 0.77399999 4294967295
0.05107509 -0.024465742 0.77399999 4294967295
0.052516796 -0.024466846 0.77399999 4294967295
0.053958442 -0.024467997 0.77399999 4294967295
0.055400018 -0.024469182 0.77399999 4294967295
0.056841545 -0.024470411 0.77399999 4294967295
0.058207694 -0.024440058 0.773 4294967295
0.059647232 -0.024441358 0.773 4294967295
0.061086707 -0.024442695 0.773 4294967295
0.062526107 -0.024444077 0.773 4294967295
0.063799962 -0.024382249 0.77100003 4294967295
0.065235525 -0.024383701 0.77100003 4294967295
0.066498078 -0.024321936 0.76899999 4294967295
0.067929789 -0.024323463 0.76899999 4294967295
0.069361426 -0.024325026 0.76899999 4294967295
0.070977136 -0.0243899 0.77100003 4294967295
0.072412379 -0.024391547 0.77100003 4294967295
0.073847562 -0.024393233 0.77100003 4294967295
0.075282678 -0.024394959 0.77100003 4294967295
0.076717727 -0.024396716 0.77100003 4294967295
0.078152716 -0.024398517 0.77100003 4294967295
0.079794087 -0.024463655 0.773 4294967295
0.08123266 -0.024465539 0.773 4294967295
0.082671173 -0.024467463 0.773 4294967295
0.084109619 -0.024469424 0.773 4294967295
0.085547999 -0.024471425 0.773 4294967295
0.086986303 -0.02447346 0.773 4294967295
0.088538952 -0.024507206 0.77399999 4294967295
0.089978993 -0.024509324 0.77399999 4294967295
0.091418959 -0.024511484 0.77399999 4294967295
0.093098827 -0.024577029 0.77600002 4294967295
0.094542377 -0.024579268 0.77600002 4294967295
0.095985867 -0.02458155 0.77600002 4294967295
0.097429276 -0.024583874 0.77600002 4294967295
0.098872647 -0.024586232 0.77600002 4294967295
0.10057447 -0.024652004 0.778 4294967295
0.10202143 -0.02465445 0.778 4294967295
0.1034683 -0.024656937 0.778 4294967295
0.10491508 -0.02465946 0.778 4294967295
0.10704537 -0.024820516 0.78299999 4294967295
0.10850133 -0.024823137 0.78299999 4294967295
0.11023808 -0.024889212 0.78500003 4294967295
0.11169763 -0.024891917 0.78500003 4294967295
0.11315708 -0.02489466 0.78500003 4294967295
0.1152005 -0.025024312 0.78899997 4294967295
0.11666728 -0.025027154 0.78899997 4294967295
0.11813395 -0.025030028 0.78899997 4294967295
0.11975218 -0.025064675 0.79000002 4294967295
0.12122057 -0.025067639 0.79000002 4294967295
0.12299949 -0.025134113 0.792 4294967295
0.12447149 -0.025137164 0.792 4294967295
0.12626143 -0.025203742 0.79400003 4294967295
0.12838051 -0.025333868 0.79799998 4294967295
0.13051432 -0.025464067 0.80199999 4294967295
0.012581589 -0.023875965 0.80299997 4294967295
0.014078854 -0.02387605 0.80299997 4294967295
0.015576061 -0.023876175 0.80299997 4294967295
0.017073214 -0.023876341 0.80299997 4294967295
0.018570311 -0.023876548 0.80299997 4294967295
0.020042364 -0.02384706 0.80199999 4294967295
0.021483777 -0.023787877 0.80000001 4294967295
0.022860242 -0.02366926 0.796 4294967295
0.024221735 -0.023550682 0.792 4294967295
0.025633154 -0.02349161 0.79000002 4294967295
0.027105685 -0.023492051 0.79000002 4294967295
0.028541978 -0.023462791 0.78899997 4294967295
0.029936461 -0.023403836 0.787 4294967295
0.031323422 -0.023344915 0.78500003 4294967295
0.032786407 -0.023345506 0.78500003 4294967295
0.034249332 -0.023346143 0.78500003 4294967295
0.035621211 -0.023287334 0.78299999 4294967295
0.037080295 -0.023288043 0.78299999 4294967295
0.03853932 -0.023288792 0.78299999 4294967295
0.039896123 -0.023230096 0.78100002 4294967295
0.041351303 -0.023230921 0.78100002 4294967295
0.042806424 -0.023231786 0.78100002 4294967295
0.043978125 -0.023083953 0.77600002 4294967295
0.045423817 -0.023084892 0.77600002 4294967295
0.046869442 -0.023085868 0.77600002 4294967295
0.048315015 -0.023086885 0.77600002 4294967295
0.049632277 -0.023028431 0.77399999 4294967295
0.051073998 -0.023029525 0.77399999 4294967295
0.052515663 -0.023030652 0.77399999 4294967295
0.053957269 -0.02303182 0.77399999 4294967295
0.055398807 -0.023033028 0.77399999 4294967295
0.056840301 -0.023034275 0.77399999 4294967295
0.058206417 -0.023005798 0.773 4294967295
0.059645906 -0.023007121 0.773 4294967295
0.061085347 -0.023008483 0.773 4294967295
0.062362947 -0.022950349 0.77100003 4294967295
0.06363304 -0.022892244 0.76899999 4294967295
0.065064818 -0.022893712 0.76899999 4294967295
0.066496573 -0.022895224 0.76899999 4294967295
0.067928247 -0.02289677 0.76899999 4294967295
0.069359846 -0.022898355 0.76899999 4294967295
0.070791394 -0.022899982 0.76899999 4294967295
0.072222866 -0.022901645 0.76899999 4294967295
0.073654294 -0.022903346 0.76899999 4294967295
0.075280935 -0.02296466 0.77100003 4294967295
0.076715946 -0.022966443 0.77100003 4294967295
0.078150898 -0.022968266 0.77100003 4294967295
0.079585768 -0.022970129 0.77100003 4294967295
0.08123076 -0.02303162 0.773 4294967295
0.082669243 -0.023033567 0.773 4294967295
0.084107645 -0.023035547 0.773 4294967295
0.085545972 -0.02303757 0.773 4294967295
0.086984254 -0.023039633 0.773 4294967295
0.08842247 -0.023041734 0.773 4294967295
0.089976855 -0.023073683 0.77399999 4294967295
0.091416791 -0.023075866 0.77399999 4294967295
0.092856653 -0.023078086 0.77399999 4294967295
0.094296455 -0.023080347 0.77399999 4294967295
0.095736183 -0.023082646 0.77399999 4294967295
0.097175837 -0.023084981 0.77399999 4294967295
0.098615453 -0.023087362 0.77399999 4294967295
0.10031352 -0.023149442 0.77600002 4294967295
0.10175669 -0.023151904 0.77600002 4294967295
0.1031998 -0.023154408 0.77600002 4294967295
0.10464285 -0.023156947 0.77600002 4294967295
0.10635924 -0.023219217 0.778 4294967295
0.10849871 -0.023371084 0.78299999 4294967295
0.11023542 -0.023433471 0.78500003 4294967295
0.1116949 -0.0234362 0.78500003 4294967295
0.11315431 -0.02343897 0.78500003 4294967295
0.11490568 -0.023501502 0.787 4294967295
0.11636869 -0.023504358 0.787 4294967295
0.11813107 -0.023566991 0.78899997 4294967295
0.11959764 -0.023569936 0.78899997 4294967295
0.12106414 -0.023572922 0.78899997 4294967295
0.12268589 -0.023605825 0.79000002 4294967295
0.12446843 -0.023668665 0.792 4294967295
0.1262583 -0.023731558 0.79400003 4294967295
0.12805557 -0.023794506 0.796 4294967295
0.13018565 -0.023917308 0.80000001 4294967295
0.13200134 -0.023980379 0.80199999 4294967295
0.011139452 -0.022496982 0.80699998 4294967295
0.012581517 -0.022385534 0.80299997 4294967295
0.014078739 -0.022385638 0.80299997 4294967295
0.015575907 -0.022385782 0.80299997 4294967295
0.01707302 -0.022385968 0.80299997 4294967295
0.018570077 -0.022386191 0.80299997 4294967295
0.02004209 -0.022358576 0.80199999 4294967295
0.021429757 -0.022247365 0.79799998 4294967295
0.022745017 -0.022080433 0.792 4294967295
0.024221346 -0.022080813 0.792 4294967295
0.025600282 -0.021997593 0.78899997 4294967295
0.027070906 -0.02199805 0.78899997 4294967295
0.028469125 -0.021942783 0.787 4294967295
0.029935915 -0.02194332 0.787 4294967295
0.031322844 -0.021888131 0.78500003 4294967295
0.032785784 -0.021888744 0.78500003 4294967295
0.034161411 -0.021833627 0.78299999 4294967295
0.035620514 -0.021834316 0.78299999 4294967295
0.037079558 -0.021835048 0.78299999 4294967295
0.038440112 -0.021780042 0.78100002 4294967295
0.039895311 -0.021780849 0.78100002 4294967295
0.041350454 -0.021781694 0.78100002 4294967295
0.042750724 -0.021754688 0.77999997 4294967295
0.043977205 -0.021644045 0.77600002 4294967295
0.045422856 -0.021645002 0.77600002 4294967295
0.046868443 -0.021645999 0.77600002 4294967295
0.04818945 -0.021591241 0.77399999 4294967295
0.049631204 -0.021592313 0.77399999 4294967295
0.051072888 -0.021593424 0.77399999 4294967295
0.052514512 -0.021594575 0.77399999 4294967295
0.053956077 -0.021595761 0.77399999 4294967295
0.055397578 -0.021596991 0.77399999 4294967295
0.056839019 -0.021598257 0.77399999 4294967295
0.058205105 -0.021571655 0.773 4294967295
0.059644565 -0.021572998 0.773 4294967295
0.061083965 -0.021574382 0.773 4294967295
0.062361524 -0.021519979 0.77100003 4294967295
0.063631579 -0.021465605 0.76899999 4294967295
0.065063335 -0.021467093 0.76899999 4294967295
0.066495031 -0.021468624 0.76899999 4294967295
0.067750007 -0.021414356 0.76700002 4294967295
0.069177851 -0.02141596 0.76700002 4294967295
0.070789747 -0.021473447 0.76899999 4294967295
0.072221197 -0.021475133 0.76899999 4294967295
0.07365258 -0.021476857 0.76899999 4294967295
0.075083889 -0.021478619 0.76899999 4294967295
0.076515131 -0.021480419 0.76899999 4294967295
0.078149043 -0.021538129 0.77100003 4294967295
0.079583891 -0.021540014 0.77100003 4294967295
0.081228837 -0.021597818 0.773 4294967295
0.082667269 -0.021599784 0.773 4294967295
0.084214434 -0.021629734 0.77399999 4294967295
0.085543938 -0.021603834 0.773 4294967295
0.086982168 -0.021605918 0.773 4294967295
0.088420339 -0.021608042 0.773 4294967295
0.08985845 -0.021610206 0.773 4294967295
0.091296479 -0.021612406 0.773 4294967295
0.092734449 -0.021614645 0.773 4294967295
0.094172344 -0.021616926 0.773 4294967295
0.095733866 -0.021647211 0.77399999 4294967295
0.09704794 -0.021621604 0.773 4294967295
0.098485649 -0.021624001 0.773 4294967295
0.10005252 -0.021654414 0.77399999 4294967295
0.10149197 -0.021656895 0.77399999 4294967295
0.10293132 -0.02165941 0.77399999 4294967295
0.10437059 -0.021661967 0.77399999 4294967295
0.10608323 -0.021720547 0.77600002 4294967295
0.10780321 -0.021779178 0.778 4294967295
0.10967102 -0.02186586 0.78100002 4294967295
0.11169217 -0.0219806 0.78500003 4294967295
0.11315154 -0.021983394 0.78500003 4294967295
0.11461086 -0.021986229 0.78500003 4294967295
0.11636581 -0.022045126 0.787 4294967295
0.11812816 -0.022104075 0.78899997 4294967295
0.11959468 -0.022107042 0.78899997 4294967295
0.12106113 -0.022110051 0.78899997 4294967295
0.12268284 -0.022141127 0.79000002 4294967295
0.12415102 -0.022144221 0.79000002 4294967295
0.12593715 -0.022203421 0.792 4294967295
0.12805238 -0.022318758 0.796 4294967295
0.1301824 -0.022434168 0.80000001 4294967295
0.13166888 -0.022437463 0.80000001 4294967295
0.0111394 -0.020999229 0.80699998 4294967295
0.01261276 -0.020947266 0.80500001 4294967295
0.014113671 -0.020947389 0.80500001 4294967295
0.015575735 -0.020895509 0.80299997 4294967295
0.017072808 -0.02089571 0.80299997 4294967295
0.0185467 -0.020869933 0.80199999 4294967295
0.019991821 -0.020818168 0.80000001 4294967295
0.021375719 -0.020714398 0.796 4294967295
0.022744648 -0.020610664 0.792 4294967295
0.024159774 -0.020559015 0.79000002 4294967295
0.025599835 -0.020533428 0.78899997 4294967295
0.027001802 -0.020481853 0.787 4294967295
0.028396256 -0.020430317 0.78500003 4294967295
0.029859278 -0.020430868 0.78500003 4294967295
0.031242438 -0.020379407 0.78299999 4294967295
0.032701615 -0.020380041 0.78299999 4294967295
0.034160737 -0.020380709 0.78299999 4294967295
0.035619799 -0.020381421 0.78299999 4294967295
0.036984097 -0.020330107 0.78100002 4294967295
0.038439315 -0.020330895 0.78100002 4294967295
0.039843395 -0.020305686 0.77999997 4294967295
0.041296635 -0.02030655 0.77999997 4294967295
0.042749815 -0.020307453 0.77999997 4294967295
0.043976262 -0.02020425 0.77600002 4294967295
0.045421872 -0.02020523 0.77600002 4294967295
0.046867426 -0.020206245 0.77600002 4294967295
0.048188396 -0.020155217 0.77399999 4294967295
0.049630109 -0.020156309 0.77399999 4294967295
0.051071752 -0.020157438 0.77399999 4294967295
0.052513339 -0.020158609 0.77399999 4294967295
0.053954866 -0.020159818 0.77399999 4294967295
0.05539633 -0.020161066 0.77399999 4294967295
0.056764301 -0.020136306 0.773 4294967295
0.058203772 -0.020137627 0.773 4294967295
0.059643202 -0.020138992 0.773 4294967295
0.060924519 -0.020088283 0.77100003 4294967295
0.062198315 -0.020037608 0.76899999 4294967295
0.063464619 -0.019986965 0.76700002 4294967295
0.064892612 -0.019988472 0.76700002 4294967295
0.066320546 -0.01999002 0.76700002 4294967295
0.067748427 -0.019991603 0.76700002 4294967295
0.069176234 -0.019993229 0.76700002 4294967295
0.070788085 -0.020047028 0.76899999 4294967295
0.072219484 -0.020048736 0.76899999 4294967295
0.073650829 -0.020050481 0.76899999 4294967295
0.075082108 -0.020052262 0.76899999 4294967295
0.076513313 -0.020054085 0.76899999 4294967295
0.077944465 -0.020055946 0.76899999 4294967295
0.07937555 -0.020057848 0.76899999 4294967295
0.081016727 -0.020111959 0.77100003 4294967295
0.082665287 -0.020166118 0.773 4294967295
0.084103614 -0.020168148 0.773 4294967295
0.085541874 -0.020170214 0.773 4294967295
0.086980075 -0.02017232 0.773 4294967295
0.088418216 -0.020174466 0.773 4294967295
0.089856267 -0.020176651 0.773 4294967295
0.091294259 -0.020178875 0.773 4294967295
0.092732191 -0.020181138 0.773 4294967295
0.094170056 -0.02018344 0.773 4294967295
0.095607847 -0.020185782 0.773 4294967295
0.097045556 -0.020188162 0.773 4294967295
0.098483227 -0.020190584 0.773 4294967295
0.10005008 -0.020219164 0.77399999 4294967295
0.10148946 -0.020221669 0.77399999 4294967295
0.10292878 -0.020224208 0.77399999 4294967295
0.10436802 -0.020226788 0.77399999 4294967295
0.1058072 -0.020229412 0.77399999 4294967295
0.10780054 -0.020336628 0.778 4294967295
0.10952786 -0.020391628 0.77999997 4294967295
0.11140483 -0.020472826 0.78299999 4294967295
0.11314873 -0.020527937 0.78500003 4294967295
0.114608 -0.020530796 0.78500003 4294967295
0.11606721 -0.02053369 0.78500003 4294967295
0.11752634 -0.020536631 0.78500003 4294967295
0.11928854 -0.020591937 0.787 4294967295
0.12105811 -0.0206473 0.78899997 4294967295
0.12252447 -0.02065037 0.78899997 4294967295
0.12414793 -0.020679664 0.79000002 4294967295
0.125934 -0.020735184 0.792 4294967295
0.12772745 -0.020790759 0.79400003 4294967295
0.13017914 -0.020951148 0.80000001 4294967295
0.13166557 -0.020954467 0.80000001 4294967295
0.011139331 -0.019501599 0.80699998 4294967295
0.012581315 -0.019405033 0.80299997 4294967295
0.014078458 -0.019405173 0.80299997 4294967295
0.015556148 -0.019381188 0.80199999 4294967295
0.017051315 -0.01938141 0.80199999 4294967295
0.018500181 -0.019333338 0.80000001 4294967295
0.019941531 -0.019285303 0.79799998 4294967295
0.021375371 -0.019237306 0.796 4294967295
0.02268683 -0.019092679 0.79000002 4294967295
0.024128769 -0.019068927 0.78899997 4294967295
0.025599374 -0.019069379 0.78899997 4294967295
0.026932683 -0.018973198 0.78500003 4294967295
0.02839572 -0.018973731 0.78500003 4294967295
0.029858703 -0.018974302 0.78500003 4294967295
0.031241819 -0.01892657 0.78299999 4294967295
0.03270096 -0.018927218 0.78299999 4294967295
0.03416004 -0.018927909 0.78299999 4294967295
0.035528082 -0.018880287 0.78100002 4294967295
0.036983326 -0.018881055 0.78100002 4294967295
0.038389284 -0.018857682 0.77999997 4294967295
0.039842542 -0.018858528 0.77999997 4294967295
0.04108398 -0.018762698 0.77600002 4294967295
0.042529665 -0.018763617 0.77600002 4294967295
0.043975297 -0.018764572 0.77600002 4294967295
0.04542087 -0.018765571 0.77600002 4294967295
0.046745591 -0.018718239 0.77399999 4294967295
0.048187319 -0.01871931 0.77399999 4294967295
0.049564872 -0.018696235 0.773 4294967295
0.051004615 -0.018697385 0.773 4294967295
0.052444302 -0.018698575 0.773 4294967295
0.053883929 -0.018699799 0.773 4294967295
0.055323489 -0.018701067 0.773 4294967295
0.056762993 -0.018702371 0.773 4294967295
0.058202438 -0.018703716 0.773 4294967295
0.059641812 -0.018705102 0.773 4294967295
0.060923103 -0.018658124 0.77100003 4294967295
0.062196862 -0.01861118 0.76899999 4294967295
0.063463129 -0.018564267 0.76700002 4294967295
0.064891085 -0.018565793 0.76700002 4294967295
0.066318981 -0.018567361 0.76700002 4294967295
0.067746818 -0.018568968 0.76700002 4294967295
0.069174588 -0.018570613 0.76700002 4294967295
0.070602298 -0.018572297 0.76700002 4294967295
0.072029941 -0.01857402 0.76700002 4294967295
0.073457524 -0.018575782 0.76700002 4294967295
0.074885041 -0.018577581 0.76700002 4294967295
0.076312482 -0.018579422 0.76700002 4294967295
0.077942587 -0.01862975 0.76899999 4294967295
0.07937362 -0.018631674 0.76899999 4294967295
0.080804609 -0.018633634 0.76899999 4294967295
0.082449406 -0.018684102 0.77100003 4294967295
0.084101565 -0.018734619 0.773 4294967295
0.085539795 -0.018736709 0.773 4294967295
0.086977944 -0.018738838 0.773 4294967295
0.08841604 -0.018741004 0.773 4294967295
0.089854062 -0.018743211 0.773 4294967295
0.091292016 -0.01874546 0.773 4294967295
0.092729911 -0.018747745 0.773 4294967295
0.094167732 -0.01875007 0.773 4294967295
0.095605485 -0.018752433 0.773 4294967295
0.097043157 -0.018754838 0.773 4294967295
0.098480798 -0.018757282 0.773 4294967295
0.1000476 -0.018784033 0.77399999 4294967295
0.10148696 -0.018786559 0.77399999 4294967295
0.10292622 -0.018789122 0.77399999 4294967295
0.10436542 -0.018791728 0.77399999 4294967295
0.10580456 -0.018794371 0.77399999 4294967295
0.10752074 -0.018845625 0.77600002 4294967295
0.10924429 -0.018896934 0.778 4294967295
0.1109752 -0.018948294 0.77999997 4294967295
0.11285762 -0.019024005 0.78299999 4294967295
0.11431314 -0.019026881 0.78299999 4294967295
0.1160643 -0.019078404 0.78500003 4294967295
0.11752339 -0.019081363 0.78500003 4294967295
0.11898243 -0.019084366 0.78500003 4294967295
0.12105508 -0.019184668 0.78899997 4294967295
0.12252138 -0.019187765 0.78899997 4294967295
0.12398764 -0.019190902 0.78899997 4294967295
0.12561281 -0.019218409 0.79000002 4294967295
0.12740248 -0.019270293 0.792 4294967295
0.12919952 -0.019322237 0.79400003 4294967295
0.13133308 -0.019422915 0.79799998 4294967295
0.13281569 -0.019426292 0.79799998 4294967295
0.13429821 -0.019429712 0.79799998 4294967295
0.0097062103 -0.018137868 0.81300002 4294967295
0.011139245 -0.018004088 0.80699998 4294967295
0.012581187 -0.017914962 0.80299997 4294967295
0.01407829 -0.017915122 0.80299997 4294967295
0.01555594 -0.017893007 0.80199999 4294967295
0.017051069 -0.017893245 0.80199999 4294967295
0.018453645 -0.017804282 0.79799998 4294967295
0.019891225 -0.017759975 0.796 4294967295
0.0213213 -0.017715709 0.79400003 4294967295
0.022686426 -0.017626856 0.79000002 4294967295
0.024128325 -0.017604977 0.78899997 4294967295
0.025469111 -0.017516198 0.78500003 4294967295
0.026932169 -0.01751671 0.78500003 4294967295
0.028322814 -0.01747263 0.78299999 4294967295
0.029782031 -0.017473219 0.78299999 4294967295
0.031241188 -0.017473847 0.78299999 4294967295
0.032700285 -0.017474515 0.78299999 4294967295
0.034072075 -0.017430587 0.78100002 4294967295
0.035527326 -0.017431334 0.78100002 4294967295
0.036982533 -0.01743212 0.78100002 4294967295
0.038388453 -0.017410621 0.77999997 4294967295
0.039739523 -0.017366841 0.778 4294967295
0.041083071 -0.017323095 0.77600002 4294967295
0.042528722 -0.017324032 0.77600002 4294967295
0.043860983 -0.017280357 0.77399999 4294967295
0.045302786 -0.01728137 0.77399999 4294967295
0.046744537 -0.017282423 0.77399999 4294967295
0.048123971 -0.017261187 0.773 4294967295
0.049563743 -0.017262317 0.773 4294967295
0.051003441 -0.017263485 0.773 4294967295
0.052443091 -0.017264694 0.773 4294967295
0.053882681 -0.017265942 0.773 4294967295
0.055322208 -0.017267229 0.773 4294967295
0.056761663 -0.017268553 0.773 4294967295
0.05820106 -0.017269919 0.773 4294967295
0.059486095 -0.017226638 0.77100003 4294967295
0.06076362 -0.017183388 0.76899999 4294967295
0.062033631 -0.017140167 0.76700002 4294967295
0.063461617 -0.017141679 0.76700002 4294967295
0.064889535 -0.017143227 0.76700002 4294967295
0.066317394 -0.017144814 0.76700002 4294967295
0.067745194 -0.017146442 0.76700002 4294967295
0.069172919 -0.017148109 0.76700002 4294967295
0.070600592 -0.017149813 0.76700002 4294967295
0.072028197 -0.017151559 0.76700002 4294967295
0.073455736 -0.017153341 0.76700002 4294967295
0.074883223 -0.017155165 0.76700002 4294967295
0.076310627 -0.017157026 0.76700002 4294967295
0.07794068 -0.017203668 0.76899999 4294967295
0.079371691 -0.017205613 0.76899999 4294967295
0.080802627 -0.017207593 0.76899999 4294967295
0.08244738 -0.017254377 0.77100003 4294967295
0.084099494 -0.017301207 0.773 4294967295
0.085537687 -0.01730332 0.773 4294967295
0.086750768 -0.017260695 0.77100003 4294967295
0.088185094 -0.01726288 0.77100003 4294967295
0.089619368 -0.017265102 0.77100003 4294967295
0.09105356 -0.017267367 0.77100003 4294967295
0.092487693 -0.017269669 0.77100003 4294967295
0.093921751 -0.01727201 0.77100003 4294967295
0.095355749 -0.017274395 0.77100003 4294967295
0.09704075 -0.017321629 0.773 4294967295
0.098478332 -0.017324096 0.773 4294967295
0.099915855 -0.017326603 0.773 4294967295
0.1013533 -0.017329147 0.773 4294967295
0.10292364 -0.017354151 0.77399999 4294967295
0.1043628 -0.017356778 0.77399999 4294967295
0.1058019 -0.017359445 0.77399999 4294967295
0.10751804 -0.017407017 0.77600002 4294967295
0.10924154 -0.017454639 0.778 4294967295
0.11068788 -0.01745744 0.778 4294967295
0.11242238 -0.017505163 0.77999997 4294967295
0.11401828 -0.017530497 0.78100002 4294967295
0.11576567 -0.01757833 0.78299999 4294967295
0.11752041 -0.017626215 0.78500003 4294967295
0.11897939 -0.01762924 0.78500003 4294967295
0.12043831 -0.017632307 0.78500003 4294967295
0.12220772 -0.017680343 0.787 4294967295
0.12398447 -0.017728437 0.78899997 4294967295
0.12560962 -0.017754117 0.79000002 4294967295
0.12707753 -0.017757362 0.79000002 4294967295
0.12919623 -0.017850578 0.79400003 4294967295
0.13132973 -0.017943867 0.79799998 4294967295
0.13281229 -0.01794727 0.79799998 4294967295
0.13429479 -0.017950715 0.79799998 4294967295
0.0096822679 -0.016588422 0.81099999 4294967295
0.01113914 -0.016506696 0.80699998 4294967295
0.012581041 -0.016425012 0.80299997 4294967295
0.014078105 -0.016425189 0.80299997 4294967295
0.015555715 -0.016404949 0.80199999 4294967295
0.01700828 -0.016364297 0.80000001 4294967295
0.018453337 -0.01632368 0.79799998 4294967295
0.019890882 -0.016283106 0.796 4294967295
0.021267211 -0.016201654 0.792 4294967295
0.022686005 -0.016161155 0.79000002 4294967295
0.024127867 -0.016141148 0.78899997 4294967295
0.025468614 -0.016059808 0.78500003 4294967295
0.026931627 -0.016060339 0.78500003 4294967295
0.02832224 -0.016019987 0.78299999 4294967295
0.029781414 -0.016020596 0.78299999 4294967295
0.03124053 -0.016021244 0.78299999 4294967295
0.032616068 -0.015981006 0.78100002 4294967295
0.034071345 -0.015981734 0.78100002 4294967295
0.035526559 -0.015982497 0.78100002 4294967295
0.036934368 -0.015962834 0.77999997 4294967295
0.038387608 -0.015963679 0.77999997 4294967295
0.039738633 -0.015923627 0.778 4294967295
0.041082148 -0.01588361 0.77600002 4294967295
0.042418156 -0.01584363 0.77399999 4294967295
0.043859985 -0.015844623 0.77399999 4294967295
0.04530175 -0.015845655 0.77399999 4294967295
0.046683069 -0.015826253 0.773 4294967295
0.048122857 -0.015827365 0.773 4294967295
0.049562585 -0.015828516 0.773 4294967295
0.051002253 -0.015829703 0.773 4294967295
0.052441861 -0.015830932 0.773 4294967295
0.053881407 -0.015832201 0.773 4294967295
0.055320892 -0.015833508 0.773 4294967295
0.056760319 -0.015834855 0.773 4294967295
0.058199685 -0.015836241 0.773 4294967295
0.059330374 -0.015755709 0.76899999 4294967295
0.060762163 -0.015757166 0.76899999 4294967295
0.062032141 -0.01571768 0.76700002 4294967295
0.063460089 -0.015719209 0.76700002 4294967295
0.064887963 -0.015720779 0.76700002 4294967295
0.066315793 -0.01572239 0.76700002 4294967295
0.067743555 -0.015724037 0.76700002 4294967295
0.069171228 -0.015725724 0.76700002 4294967295
0.070598863 -0.015727451 0.76700002 4294967295
0.072026432 -0.015729215 0.76700002 4294967295
0.073358163 -0.015710508 0.76599997 4294967295
0.074783742 -0.015712351 0.76599997 4294967295
0.07630875 -0.015734745 0.76700002 4294967295
0.07773605 -0.015736667 0.76700002 4294967295
0.079369716 -0.015779668 0.76899999 4294967295
0.080800623 -0.015781673 0.76899999 4294967295
0.082445331 -0.015824767 0.77100003 4294967295
0.083879821 -0.015826857 0.77100003 4294967295
0.085314244 -0.015828984 0.77100003 4294967295
0.086748607 -0.015831152 0.77100003 4294967295
0.087954141 -0.015792286 0.76899999 4294967295
0.089384645 -0.015794525 0.76899999 4294967295
0.090815082 -0.015796807 0.76899999 4294967295
0.09224546 -0.015799126 0.76899999 4294967295
0.093919396 -0.015842583 0.77100003 4294967295
0.09535335 -0.015844986 0.77100003 4294967295
0.097038299 -0.015888536 0.773 4294967295
0.098475844 -0.015891025 0.773 4294967295
0.099913321 -0.015893554 0.773 4294967295
0.10135073 -0.015896121 0.773 4294967295
0.10292105 -0.015919298 0.77399999 4294967295
0.10436016 -0.015921948 0.77399999 4294967295
0.10579921 -0.015924638 0.77399999 4294967295
0.1075153 -0.015968526 0.77600002 4294967295
0.10923877 -0.016012466 0.778 4294967295
0.11068504 -0.016015287 0.778 4294967295
0.11213127 -0.016018152 0.778 4294967295
0.11386937 -0.016062239 0.77999997 4294967295
0.11576272 -0.016126981 0.78299999 4294967295
0.117218 -0.016129984 0.78299999 4294967295
0.11897636 -0.016174234 0.78500003 4294967295
0.12043523 -0.016177326 0.78500003 4294967295
0.12220457 -0.01622168 0.787 4294967295
0.1239813 -0.016266091 0.78899997 4294967295
0.1256064 -0.016289938 0.79000002 4294967295
0.12707427 -0.016293213 0.79000002 4294967295
0.12886748 -0.01633778 0.792 4294967295
0.13132636 -0.016464939 0.79799998 4294967295
0.13280888 -0.016468367 0.79799998 4294967295
0.13429132 -0.016471839 0.79799998 4294967295
0.0081700869 -0.015083641 0.81099999 4294967295
0.0096821859 -0.015083713 0.81099999 4294967295
0.011139017 -0.015009427 0.80699998 4294967295
0.012580878 -0.014935183 0.80299997 4294967295
0.014077901 -0.014935378 0.80299997 4294967295
0.015516679 -0.014879814 0.80000001 4294967295
0.016965477 -0.014842887 0.79799998 4294967295
0.018406766 -0.014806001 0.796 4294967295
0.019790566 -0.014731951 0.792 4294967295
0.021213107 -0.014695141 0.79000002 4294967295
0.022656849 -0.014676969 0.78899997 4294967295
0.024066228 -0.014640234 0.787 4294967295
0.025468096 -0.014603538 0.78500003 4294967295
0.026931072 -0.014604086 0.78500003 4294967295
0.028321644 -0.014567465 0.78299999 4294967295
0.029780781 -0.01456809 0.78299999 4294967295
0.03123986 -0.014568757 0.78299999 4294967295
0.032615356 -0.014532249 0.78100002 4294967295
0.034070592 -0.014532994 0.78100002 4294967295
0.035525773 -0.014533778 0.78100002 4294967295
0.036933541 -0.01451599 0.77999997 4294967295
0.03838674 -0.014516854 0.77999997 4294967295
0.039737731 -0.014480531 0.778 4294967295
0.041081209 -0.014444243 0.77600002 4294967295
0.042417176 -0.01440799 0.77399999 4294967295
0.043858964 -0.014409003 0.77399999 4294967295
0.045125116 -0.014354203 0.77100003 4294967295
0.046561196 -0.014355292 0.77100003 4294967295
0.047997218 -0.014356419 0.77100003 4294967295
0.049433187 -0.014357585 0.77100003 4294967295
0.050869089 -0.014358793 0.77100003 4294967295
0.052304931 -0.014360039 0.77100003 4294967295
0.053740714 -0.014361324 0.77100003 4294967295
0.055176433 -0.014362647 0.77100003 4294967295
0.056465242 -0.014326749 0.76899999 4294967295
0.057897117 -0.014328148 0.76899999 4294967295
0.059328929 -0.014329585 0.76899999 4294967295
0.060760692 -0.014331063 0.76899999 4294967295
0.062030632 -0.014295305 0.76700002 4294967295
0.063375801 -0.014278214 0.76599997 4294967295
0.064801775 -0.014279803 0.76599997 4294967295
0.066314153 -0.014300078 0.76700002 4294967295
0.067741871 -0.014301747 0.76700002 4294967295
0.069169529 -0.014303455 0.76700002 4294967295
0.070597127 -0.014305202 0.76700002 4294967295
0.072024643 -0.014306989 0.76700002 4294967295
0.073356345 -0.014290158 0.76599997 4294967295
0.07478188 -0.014292019 0.76599997 4294967295
0.076306842 -0.014312583 0.76700002 4294967295
0.077734113 -0.014314526 0.76700002 4294967295
0.079367734 -0.014353838 0.76899999 4294967295
0.080798604 -0.014355866 0.76899999 4294967295
0.082229398 -0.014357932 0.76899999 4294967295
0.083877712 -0.014397386 0.77100003 4294967295
0.085090794 -0.014362183 0.76899999 4294967295
0.086521387 -0.014364369 0.76899999 4294967295
0.087951921 -0.01436659 0.76899999 4294967295
0.089382388 -0.014368855 0.76899999 4294967295
0.090812787 -0.014371157 0.76899999 4294967295
0.09224312 -0.014373497 0.76899999 4294967295
0.093673386 -0.014375879 0.76899999 4294967295
0.095103584 -0.0143783 0.76899999 4294967295
0.096784778 -0.014418161 0.77100003 4294967295
0.09847334 -0.014458073 0.773 4294967295
0.099910773 -0.014460624 0.773 4294967295
0.10134813 -0.014463216 0.773 4294967295
0.10278545 -0.014465847 0.773 4294967295
0.10422266 -0.014468516 0.773 4294967295
0.10579652 -0.01448995 0.77399999 4294967295
0.10723546 -0.014492702 0.77399999 4294967295
0.10895515 -0.014532951 0.77600002 4294967295
0.11039768 -0.014535792 0.77600002 4294967295
0.11212837 -0.014576142 0.778 4294967295
0.11386646 -0.014616547 0.77999997 4294967295
0.11575973 -0.01467575 0.78299999 4294967295
0.11721499 -0.014678778 0.78299999 4294967295
0.1189733 -0.014719347 0.78500003 4294967295
0.12043212 -0.014722461 0.78500003 4294967295
0.12220143 -0.014763133 0.787 4294967295
0.12397811 -0.014803864 0.78899997 4294967295
0.12544416 -0.014807116 0.78899997 4294967295
0.12707099 -0.014829182 0.79000002 4294967295
0.12853873 -0.014832519 0.79000002 4294967295
0.13066468 -0.014911017 0.79400003 4294967295
0.13247257 -0.014952019 0.796 4294967295
0.13428782 -0.014993081 0.79799998 4294967295
0.13577017 -0.014996619 0.79799998 4294967295
0.13880038 -0.01516937 0.80699998 4294967295
0.14029928 -0.015173029 0.80699998 4291348682
0.14179811 -0.015176731 0.80699998 4293054701
0.14329687 -0.015180472 0.80699998 4293449458
0.0066743363 -0.013612478 0.81300002 4294375423
0.0081700282 -0.013579039 0.81099999 4294967295
0.0096582081 -0.013545641 0.80900002 4294967295
0.011138876 -0.013512282 0.80699998 4294967295
0.012580696 -0.013445477 0.80299997 4294967295
0.01407768 -0.013445688 0.80299997 4294967295
0.015516417 -0.013395707 0.80000001 4294967295
0.016922658 -0.01332902 0.796 4294967295
0.018360179 -0.013295861 0.79400003 4294967295
0.019740215 -0.013229249 0.79000002 4294967295
0.021185834 -0.013212909 0.78899997 4294967295
0.02265639 -0.013213359 0.78899997 4294967295
0.024004573 -0.013146859 0.78500003 4294967295
0.025402678 -0.013113888 0.78299999 4294967295
0.026861884 -0.013114454 0.78299999 4294967295
0.02832103 -0.01311506 0.78299999 4294967295
0.029704062 -0.013082203 0.78100002 4294967295
0.031159371 -0.013082888 0.78100002 4294967295
0.032572865 -0.013066858 0.77999997 4294967295
0.034026194 -0.013067621 0.77999997 4294967295
0.035388503 -0.013034913 0.778 4294967295
0.036837995 -0.013035754 0.778 4294967295
0.038189009 -0.01300312 0.77600002 4294967295
0.03963466 -0.013004038 0.77600002 4294967295
0.040974367 -0.012971475 0.77399999 4294967295
0.042361375 -0.012955708 0.773 4294967295
0.043801263 -0.01295674 0.773 4294967295
0.045124043 -0.012924287 0.77100003 4294967295
0.046439301 -0.012891864 0.76899999 4294967295
0.047871564 -0.012893008 0.76899999 4294967295
0.049303759 -0.012894192 0.76899999 4294967295
0.050735898 -0.012895415 0.76899999 4294967295
0.052167982 -0.012896676 0.76899999 4294967295
0.053600006 -0.012897979 0.76899999 4294967295
0.055031955 -0.012899318 0.76899999 4294967295
0.05646386 -0.012900699 0.76899999 4294967295
0.05789569 -0.012902118 0.76899999 4294967295
0.059327476 -0.012903577 0.76899999 4294967295
0.060601171 -0.012871512 0.76700002 4294967295
0.062029101 -0.012873046 0.76700002 4294967295
0.063374229 -0.01285783 0.76599997 4294967295
0.064800166 -0.01285944 0.76599997 4294967295
0.066312499 -0.01287788 0.76700002 4294967295
0.067740194 -0.012879573 0.76700002 4294967295
0.0691678 -0.012881299 0.76700002 4294967295
0.070503309 -0.012866271 0.76599997 4294967295
0.071928933 -0.012868077 0.76599997 4294967295
0.073354498 -0.012869921 0.76599997 4294967295
0.074780002 -0.012871806 0.76599997 4294967295
0.07630492 -0.012890535 0.76700002 4294967295
0.077732153 -0.0128925 0.76700002 4294967295
0.079159319 -0.012894505 0.76700002 4294967295
0.080586419 -0.012896548 0.76700002 4294967295
0.082227305 -0.012932264 0.76899999 4294967295
0.083658002 -0.012934392 0.76899999 4294967295
0.085088633 -0.01293656 0.76899999 4294967295
0.086519182 -0.012938767 0.76899999 4294967295
0.087949678 -0.012941011 0.76899999 4294967295
0.089147657 -0.012909634 0.76700002 4294967295
0.090574294 -0.012911953 0.76700002 4294967295
0.092240758 -0.012947986 0.76899999 4294967295
