# .PCD v0.7 - Point Cloud Data file format
VERSION 0.7
FIELDS x y z rgba
SIZE 4 4 4 4
TYPE F F F U
COUNT 1 1 1 1
WIDTH 1098
HEIGHT 1
VIEWPOINT 0 0 0 1 0 0 0
POINTS 1098
DATA ascii
0.058372073 0.1038067 0.61199999 4292334535
0.059701968 0.10414275 0.61400002 4292465603
0.060841054 0.10413952 0.61400002 4292531396
0.061980091 0.10413627 0.61400002 4292267967
0.063119076 0.10413297 0.61400002 4292399553
0.064258017 0.10412963 0.61400002 4292137412
0.065503418 0.10429585 0.61500001 4292268999
0.06664411 0.10429244 0.61500001 4292138696
0.067784749 0.10428898 0.61500001 4291875780
0.068925336 0.10428549 0.61500001 4292269253
0.070065878 0.10428198 0.61500001 4292203459
0.074627541 0.10426751 0.61500001 4291808188
0.07576783 0.10426378 0.61500001 4291807938
0.07703311 0.10442957 0.616 4291676096
0.07817515 0.10442578 0.616 4291807416
0.07931713 0.10442196 0.616 4291676087
0.080459058 0.10441808 0.616 4291478705
0.081865892 0.10475319 0.61799997 4291807414
0.083011411 0.10474924 0.61799997 4292137140
0.08429309 0.10491475 0.61900002 4292137140
0.085440375 0.10491073 0.61900002 4291546306
0.087287016 0.10575404 0.62400001 4291217342
0.088301733 0.10558043 0.62300003 4291743427
0.089456268 0.10557628 0.62300003 4291874756
0.010918603 0.10777639 0.62800002 4294637297
0.012066388 0.10760313 0.62699997 4294242802
0.013189307 0.10725825 0.625 4294177009
0.014327719 0.10708494 0.62400001 4294375408
0.015487185 0.10708321 0.62400001 4294178029
0.016646612 0.10708142 0.62400001 4294112238
0.017805995 0.10707962 0.62400001 4294112238
0.018934943 0.10690618 0.62300003 4294112236
0.020027876 0.10656108 0.62099999 4294112236
0.021181555 0.10655916 0.62099999 4293717228
0.022299226 0.1063856 0.62 4293717228
0.023413137 0.10621203 0.61900002 4293914089
0.024443923 0.10569523 0.616 4293980139
0.025588138 0.10569317 0.616 4294110955
0.026732311 0.10569107 0.616 4293781990
0.027831182 0.10551736 0.61500001 4293452757
0.028926302 0.10534361 0.61400002 4293584599
0.030066624 0.10534141 0.61400002 4293715684
0.0312069 0.10533916 0.61400002 4293584097
0.032347135 0.10533687 0.61400002 4293451994
0.041399829 0.10514566 0.61299998 4293320659
0.04253779 0.10514304 0.61299998 4293320659
0.043675713 0.10514038 0.61299998 4293254851
0.044813581 0.10513767 0.61299998 4293189058
0.046026368 0.10530645 0.61400002 4292992708
0.047089178 0.10513216 0.61299998 4293058501
0.048226908 0.10512934 0.61299998 4292795334
0.049364593 0.10512649 0.61299998 4292795334
0.050502226 0.10512359 0.61299998 4292466632
0.051639806 0.10512067 0.61299998 4292400839
0.052777346 0.1051177 0.61299998 4292794313
0.05391483 0.1051147 0.61299998 4292794313
0.055142082 0.10528313 0.61400002 4292530121
0.056281324 0.10528004 0.61400002 4292332999
0.057420522 0.10527691 0.61400002 4292597189
0.058559675 0.10527377 0.61400002 4292333760
0.059601542 0.1050991 0.61299998 4292399553
0.060738735 0.10509586 0.61299998 4292728518
0.061976828 0.10526405 0.61400002 4292399303
0.063115776 0.10526073 0.61400002 4292728268
0.06435933 0.10542881 0.61500001 4292137414
0.065500036 0.10542542 0.61500001 4292137414
0.066749036 0.10559341 0.616 4292335296
0.067891501 0.10558993 0.616 4291282607
0.0758873 0.1055646 0.616 4291480252
0.077029355 0.10556083 0.616 4291480252
0.078171358 0.10555702 0.616 4291544760
0.079313293 0.10555317 0.616 4291478967
0.080455199 0.1055493 0.616 4291544501
0.081597045 0.10554538 0.616 4291939002
0.082738839 0.10554143 0.616 4291545264
0.084289081 0.10605142 0.61900002 4291479471
0.085436344 0.10604738 0.61900002 4291349182
0.087282926 0.10689986 0.62400001 4291217596
0.088297606 0.1067244 0.62300003 4291611055
0.089452103 0.10672023 0.62300003 4291742897
0.090897419 0.10705859 0.625 4291872961
0.092055529 0.10705433 0.625 4291543997
0.093213581 0.10705002 0.625 4291676085
0.094975568 0.10773078 0.62900001 4291939256
0.010899613 0.10875696 0.62699997 4294571506
0.012064743 0.10875532 0.62699997 4294374129
0.013187631 0.10840675 0.625 4294374129
0.014326005 0.10823158 0.62400001 4294440436
0.015485432 0.10822984 0.62400001 4293979885
0.016644821 0.10822804 0.62400001 4293651687
0.017804164 0.10822622 0.62400001 4293914603
0.018963465 0.10822435 0.62400001 4293980652
0.020058222 0.10787557 0.62199998 4293717480
0.021213723 0.10787363 0.62199998 4293520101
0.022369176 0.10787166 0.62199998 4293520101
0.023524586 0.10786963 0.62199998 4293715682
0.024441885 0.10682707 0.616 4293847267
0.025586063 0.10682499 0.616 4293781990
0.026730195 0.10682287 0.616 4293584610
0.027829034 0.10664731 0.61500001 4293255896
0.028924113 0.10647171 0.61400002 4293519067
0.0300644 0.1064695 0.61400002 4293518561
0.031204641 0.10646724 0.61400002 4293255646
0.032344837 0.10646494 0.61400002 4293255637
0.033594057 0.10680937 0.616 4293123794
0.041397229 0.10627177 0.61299998 4292661960
0.04253516 0.10626913 0.61299998 4293517269
0.043673031 0.10626645 0.61299998 4293386441
0.044810869 0.10626373 0.61299998 4293188806
0.046023611 0.10643434 0.61400002 4292729540
0.047086392 0.10625818 0.61299998 4292926663
0.048224084 0.10625537 0.61299998 4292992206
0.049361724 0.10625249 0.61299998 4292729290
0.050499324 0.10624959 0.61299998 4292268739
0.051636863 0.10624664 0.61299998 4292597448
0.052774362 0.10624366 0.61299998 4292990922
0.053999774 0.10641395 0.61400002 4292728007
0.055139028 0.10641089 0.61400002 4292464065
0.056278232 0.10640778 0.61400002 4292529858
0.057417393 0.10640465 0.61400002 4292728518
0.058556501 0.10640147 0.61400002 4292267967
0.059598345 0.10622497 0.61299998 4292267967
0.060735498 0.10622172 0.61299998 4292399553
0.061872609 0.10621843 0.61299998 4291873463
0.063215248 0.10656167 0.61500001 4292267965
0.064355962 0.10655829 0.61500001 4291742141
0.065496638 0.1065549 0.61500001 4292005313
0.066745594 0.10672468 0.616 4292597961
0.075883567 0.10669576 0.616 4291283128
0.076900534 0.10651877 0.61500001 4291414457
0.078040652 0.10651495 0.61500001 4291478451
0.079180703 0.1065111 0.61500001 4291412658
0.08045131 0.10668039 0.616 4291347119
0.081593126 0.10667647 0.616 4291478705
0.082734883 0.10667248 0.616 4291544749
0.083876573 0.10666849 0.616 4291610542
0.08584635 0.10770339 0.62199998 4291479485
0.086999066 0.10769927 0.62199998 4291479485
0.088293456 0.10786827 0.62300003 4291873461
0.089447923 0.10786407 0.62300003 4291807668
0.090893194 0.10820609 0.625 4292002751
0.09205126 0.1082018 0.625 4291936958
0.093209267 0.10819749 0.625 4291610040
0.094971187 0.10888556 0.62900001 4291610040
0.096289344 0.10905425 0.63 4291545014
0.010897995 0.10990904 0.62699997 4294506231
0.012063087 0.1099074 0.62699997 4294046191
0.013185941 0.10955514 0.625 4293914605
0.014324278 0.10937814 0.62400001 4293585642
0.015483667 0.10937636 0.62400001 4293519849
0.016643016 0.10937457 0.62400001 4293782503
0.017802319 0.10937272 0.62400001 4293914089
0.018991968 0.10954611 0.625 4293585381
0.020120801 0.10936891 0.62400001 4293321952
0.021211768 0.10901642 0.62199998 4293518815
0.022367181 0.10901442 0.62199998 4293716195
0.023371289 0.10831136 0.61799997 4293649888
0.024439832 0.10795878 0.616 4293584095
0.025583969 0.10795669 0.616 4293649890
0.026728064 0.10795455 0.616 4293847013
0.027826872 0.10777714 0.61500001 4293584095
0.028921917 0.10759971 0.61400002 4293649888
0.030062163 0.10759746 0.61400002 4293584095
0.031253185 0.10777043 0.61500001 4292991958
0.032395199 0.1077681 0.61500001 4292991693
0.033591699 0.10794097 0.616 4293057486
0.034735478 0.10793857 0.616 4292992206
0.035995703 0.10828657 0.61799997 4292992206
0.041394614 0.10739776 0.61299998 4292597200
0.042532504 0.10739511 0.61299998 4292991958
0.043670341 0.10739242 0.61299998 4292794048
0.044808138 0.10738967 0.61299998 4292662462
0.046020839 0.1075621 0.61400002 4292662464
0.047160402 0.1075593 0.61400002 4292662464
0.048299905 0.10755645 0.61400002 4292267717
0.049439371 0.10755356 0.61400002 4292070595
0.05057878 0.10755063 0.61400002 4292071108
0.051718149 0.10754767 0.61400002 4292531659
0.052857459 0.10754465 0.61400002 4292596419
0.053996734 0.10754161 0.61400002 4292333247
0.055135954 0.10753853 0.61400002 4292333249
0.056275126 0.10753542 0.61400002 4292333249
0.057507753 0.1077074 0.61500001 4292267967
0.058553323 0.10752908 0.61400002 4291873209
0.059692349 0.10752585 0.61400002 4292070843
0.060732242 0.10734746 0.61299998 4292399807
0.061869316 0.10734416 0.61299998 4292267958
0.063006341 0.10734083 0.61299998 4292399544
0.064143308 0.10733745 0.61299998 4291478463
0.075879812 0.10782681 0.616 4291611059
0.076896749 0.10764796 0.61500001 4291742645
0.078036822 0.10764413 0.61500001 4291478451
0.079176851 0.10764027 0.61500001 4291412658
0.08044742 0.10781138 0.616 4291215538
0.081589192 0.10780744 0.616 4291149489
0.084689505 0.10884942 0.62199998 4291675819
0.085842252 0.10884533 0.62199998 4291610555
0.086994939 0.1088412 0.62199998 4291676348
0.088431008 0.10918699 0.62400001 4291676337
0.089587286 0.10918276 0.62400001 4291347115
0.090888947 0.10935348 0.625 4291477688
0.092046961 0.10934916 0.625 4291017137
0.093503207 0.10969473 0.62699997 4291148467
0.094966806 0.11004025 0.62900001 4291148467
0.096284911 0.11021074 0.63 4290952361
0.097761378 0.11055613 0.63200003 4290426017
0.010913744 0.11123817 0.62800002 4293783021
0.012061416 0.11105938 0.62699997 4293717995
0.013184236 0.11070342 0.625 4293454824
0.014345489 0.11070169 0.625 4293322206
0.015481887 0.11052278 0.62400001 4293519586
0.016641196 0.11052097 0.62400001 4293847783
0.017800462 0.1105191 0.62400001 4293584610
0.018990066 0.11069432 0.625 4293387486
0.020151103 0.11069239 0.625 4293518815
0.021243896 0.1103362 0.62300003 4293518815
0.022401132 0.1103342 0.62300003 4293584608
0.023369249 0.10944664 0.61799997 4293650402
0.024437765 0.10909039 0.616 4293255644
0.025581867 0.10908828 0.616 4292991704
0.026725924 0.10908615 0.616 4293123546
0.027869932 0.10908395 0.616 4293320153
0.029013902 0.10908175 0.616 4293451996
0.030157825 0.10907948 0.616 4293189337
0.031301703 0.10907718 0.616 4292926165
0.032445539 0.10907485 0.616 4292990922
0.033589322 0.10907247 0.616 4293188558
0.034733068 0.10907005 0.616 4292795084
0.035993244 0.10942172 0.61799997 4292597448
0.037140608 0.10941921 0.61799997 4292793798
0.038287926 0.10941668 0.61799997 4292793798
0.039499011 0.10959116 0.61900002 4292728005
0.040582422 0.10941149 0.61799997 4292793798
0.041729599 0.10940883 0.61799997 4292531907
0.04259922 0.10869802 0.61400002 4292729542
0.043738872 0.10869531 0.61400002 4292465601
0.04487849 0.10869256 0.61400002 4292465601
0.046093002 0.10886679 0.61500001 4292727746
0.047234375 0.10886396 0.61500001 4292464317
0.048297051 0.10868408 0.61400002 4292266941
0.049436472 0.10868117 0.61400002 4292201148
0.050575845 0.10867824 0.61400002 4292070593
0.051715173 0.10867525 0.61400002 4292136386
0.052854452 0.10867224 0.61400002 4291873463
0.05399368 0.10866918 0.61400002 4292070843
0.055222657 0.10884306 0.61500001 4292597448
0.056363646 0.10883993 0.61500001 4292005311
0.057504587 0.10883676 0.61500001 4292136899
0.058645483 0.10883354 0.61500001 4291807934
0.059689112 0.10865333 0.61400002 4292070074
0.060828041 0.10865007 0.61400002 4292135868
0.061966937 0.10864674 0.61400002 4292070072
0.063105777 0.10864338 0.61400002 4291872950
0.076122388 0.10931151 0.61799997 4291412395
0.07701797 0.10895393 0.616 4291478444
0.078159876 0.10895009 0.616 4291412658
0.079301707 0.1089462 0.616 4291346865
0.080443487 0.10894226 0.616 4291017902
0.081850134 0.109292 0.61799997 4291215538
0.082995504 0.10928799 0.61799997 4291412908
0.084821604 0.11016811 0.62300003 4291412908
0.085976161 0.110164 0.62300003 4291347635
0.087130658 0.11015985 0.62300003 4291281842
0.088426821 0.11033246 0.62400001 4291412908
0.089583077 0.11032823 0.62400001 4291412908
0.090884678 0.11050076 0.625 4291412658
0.092484482 0.11102682 0.62800002 4290886314
0.093647979 0.11102246 0.62800002 4291410602
0.095113367 0.11137161 0.63 4291541932
0.096280456 0.11136714 0.63 4291279273
0.09775687 0.11171618 0.63200003 4291016358
0.098927572 0.11171163 0.63200003 4290820260
0.10009821 0.11170703 0.63200003 4290886053
0.015579324 0.11238491 0.62800002 4293650652
0.01671936 0.1122041 0.62699997 4293387486
0.017884158 0.11220223 0.62699997 4293124057
0.019048914 0.1122003 0.62699997 4293189337
0.020213626 0.11219835 0.62699997 4293189337
0.021310104 0.11183847 0.625 4293189851
0.022471011 0.11183643 0.625 4293124057
0.023367202 0.11058183 0.61799997 4293386714
0.024515022 0.11057973 0.61799997 4293386714
0.025662797 0.11057761 0.61799997 4292925911
0.026810531 0.11057544 0.61799997 4292794582
0.027867738 0.11021542 0.616 4293188819
0.029011667 0.11021318 0.616 4293452248
0.030155553 0.1102109 0.616 4292794584
0.031299394 0.11020858 0.616 4292267984
0.032548521 0.11056405 0.61799997 4292795086
0.033695985 0.11056165 0.61799997 4292992208
0.034843404 0.11055921 0.61799997 4292663495
0.035990775 0.11055674 0.61799997 4292531909
0.037138097 0.11055423 0.61799997 4292597702
0.038285375 0.11055167 0.61799997 4292268737
0.039432611 0.11054908 0.61799997 4292531648
0.0405798 0.11054645 0.61799997 4292465599
0.041726939 0.11054379 0.61799997 4292465851
0.042735279 0.11018334 0.616 4293057988
0.043807387 0.11000175 0.61500001 4292662210
0.044948816 0.10999897 0.61500001 4292530623
0.046165138 0.11017502 0.616 4292595903
0.047308333 0.11017217 0.616 4292398524
0.048372824 0.10999043 0.61500001 4292267202
0.049433563 0.10980868 0.61400002 4292267202
0.050572898 0.10980572 0.61400002 4292136386
0.051712181 0.10980272 0.61400002 4292136386
0.052851424 0.10979969 0.61400002 4291938991
0.053990625 0.10979663 0.61400002 4292070576
0.05521955 0.10997234 0.61500001 4291544249
0.056360498 0.10996918 0.61500001 4291478455
0.057501409 0.10996599 0.61500001 4291676602
0.058642261 0.10996276 0.61500001 4291742395
0.059783068 0.10995951 0.61500001 4291609790
0.060923815 0.10995619 0.61500001 4291609790
0.062064528 0.10995286 0.61500001 4291610042
0.074972928 0.1104498 0.61799997 4291150254
0.076118588 0.110446 0.61799997 4291412395
0.077014156 0.11008475 0.616 4291412395
0.078156017 0.11008089 0.616 4291346867
0.079297826 0.11007698 0.616 4291346867
0.080439582 0.11007304 0.616 4290887350
0.081846148 0.11042642 0.61799997 4291018936
0.084136799 0.11041833 0.61799997 4291018406
0.086110041 0.11148622 0.62400001 4291214754
0.087266348 0.11148204 0.62400001 4291214754
0.088422626 0.11147783 0.62400001 4291542950
0.08972238 0.11165221 0.625 4291806121
0.091316625 0.11218382 0.62800002 4291609249
0.09248013 0.11217949 0.62800002 4291345820
0.093792714 0.11235372 0.62900001 4291148457
0.095108941 0.11252789 0.63 4291148457
0.096275993 0.11252341 0.63 4290951846
0.097752355 0.11287612 0.63200003 4290820260
0.09892302 0.11287155 0.63200003 4290689444
0.10009363 0.11286694 0.63200003 4290491808
0.015577506 0.11353844 0.62800002 4293255898
0.016744168 0.11353659 0.62800002 4293255385
0.017882263 0.11335388 0.62699997 4293255385
0.019046981 0.11335196 0.62699997 4293255383
0.020211658 0.11334999 0.62699997 4293255383
0.021308098 0.11298642 0.625 4293386716
0.022433018 0.1128036 0.62400001 4292991958
0.023591988 0.11280153 0.62400001 4292991956
0.024750913 0.11279939 0.62400001 4292926163
0.025660662 0.11171265 0.61799997 4292859854
0.026808351 0.11171047 0.61799997 4292991697
0.027956 0.11170826 0.61799997 4292925911
0.029103607 0.111706 0.61799997 4292597202
0.030251164 0.1117037 0.61799997 4292334029
0.031398676 0.11170135 0.61799997 4292465614
0.032546148 0.11169899 0.61799997 4292795599
0.033693571 0.11169659 0.61799997 4292663756
0.034840953 0.11169413 0.61799997 4292269251
0.03598829 0.11169166 0.61799997 4292401093
0.037135575 0.11168913 0.61799997 4292531657
0.038282812 0.11168655 0.61799997 4292334535
0.039430011 0.11168394 0.61799997 4292334533
0.040577158 0.11168131 0.61799997 4292071104
0.041724261 0.11167862 0.61799997 4291807418
0.042732574 0.1113145 0.616 4292070591
0.043875873 0.11131176 0.616 4292201661
0.045019124 0.11130895 0.616 4292201661
0.046312191 0.11166751 0.61799997 4292333249
0.047305476 0.11130326 0.616 4292267456
0.048369937 0.11111968 0.61500001 4292595905
0.049511131 0.11111675 0.61500001 4292398270
0.050569933 0.1109331 0.61400002 4291806903
0.051709179 0.11093008 0.61400002 4291938489
0.052848391 0.11092703 0.61400002 4291544749
0.053987544 0.11092396 0.61400002 4291544749
0.055216432 0.11110149 0.61500001 4291478703
0.056357346 0.11109832 0.61500001 4291478703
0.057498205 0.11109512 0.61500001 4291676085
0.058639027 0.11109187 0.61500001 4291676085
0.059779797 0.1110886 0.61500001 4290821543
0.06092051 0.11108527 0.61500001 4291545010
0.062061183 0.11108193 0.61500001 4291676085
0.0632018 0.11107855 0.61500001 4291412912
0.064342365 0.1110751 0.61500001 4291281594
0.072795361 0.11177232 0.61900002 4291019440
0.073942937 0.11176857 0.61900002 4290953645
0.074969158 0.11158421 0.61799997 4291019438
0.076114789 0.11158039 0.61799997 4291609258
0.077260345 0.11157654 0.61799997 4291609258
0.078405879 0.11157265 0.61799997 4291016869
0.079293914 0.11120764 0.616 4291082662
0.080435634 0.11120369 0.616 4290493353
0.085967906 0.112451 0.62300003 4290884254
0.087961383 0.11352976 0.62900001 4291607977
0.091457702 0.11351685 0.62900001 4291542434
0.09262304 0.11351249 0.62900001 4291411104
0.093937427 0.11368854 0.63 4290951846
0.095104501 0.11368407 0.63 4290886053
0.096271515 0.11367958 0.63 4290493103
0.097747825 0.11403593 0.63200003 4290427310
0.098918453 0.11403134 0.63200003 4290426787
0.10008903 0.11402673 0.63200003 4290229152
0.015625278 0.11505711 0.63 4293255648
0.016742297 0.11468998 0.62800002 4293255637
0.017908875 0.11468808 0.62800002 4293386966
0.019075409 0.11468612 0.62800002 4293124046
0.020209664 0.1145015 0.62699997 4292926667
0.021306075 0.11413425 0.625 4292991956
0.02243096 0.11394958 0.62400001 4292729040
0.023589892 0.1139475 0.62400001 4292991956
0.02474878 0.11394536 0.62400001 4292926163
0.025700025 0.11303017 0.61900002 4292729542
0.026849538 0.11302799 0.61900002 4292926665
0.027999004 0.11302575 0.61900002 4292268247
0.029101336 0.11284088 0.61799997 4291873489
0.030248858 0.11283857 0.61799997 4292070343
0.031396333 0.11283623 0.61799997 4292728016
0.032543764 0.11283384 0.61799997 4292465862
0.033745669 0.11301398 0.61900002 4292202946
0.03483849 0.11282896 0.61799997 4291939518
0.035985786 0.11282644 0.61799997 4291939518
0.037133034 0.1128239 0.61799997 4292005061
0.038280237 0.11282132 0.61799997 4292005061
0.039427396 0.1128187 0.61799997 4292005061
0.040574502 0.11281605 0.61799997 4292070854
0.04172156 0.11281333 0.61799997 4291873741
0.042729851 0.11244553 0.616 4291873741
0.043873109 0.11244277 0.616 4291938752
0.045016319 0.11243996 0.616 4291938752
0.046309348 0.11280219 0.61799997 4291740860
0.047456175 0.11279928 0.61799997 4291740860
0.048445672 0.11243133 0.616 4291675567
0.049508188 0.11224585 0.61500001 4292070324
0.050649308 0.11224286 0.61500001 4291939254
0.051874582 0.11242233 0.616 4291873461
0.052931398 0.11223677 0.61500001 4291478451
0.054072373 0.11223367 0.61500001 4291412658
0.055303067 0.112413 0.616 4291478703
0.056445803 0.11240983 0.616 4291544497
0.057494994 0.11222412 0.61500001 4291676335
0.058635779 0.11222086 0.61500001 4291676335
0.059776507 0.11221758 0.61500001 4291347887
0.06091718 0.11221424 0.61500001 4291742645
0.062158719 0.11239333 0.616 4291610542
0.063198395 0.11220746 0.61500001 4291347369
0.06433893 0.11220403 0.61500001 4290886835
0.065479413 0.11220054 0.61500001 4290886835
0.066944815 0.11274432 0.61799997 4291150254
0.072791636 0.11290848 0.61900002 4290953643
0.073939182 0.11290472 0.61900002 4290953643
0.075086676 0.11290091 0.61900002 4290953643
0.076357275 0.11307945 0.62 4291150243
0.077381507 0.11289318 0.61900002 4291216036
0.078528844 0.11288926 0.61900002 4290689444
0.07980486 0.11306768 0.62 4290886566
0.08108452 0.11324602 0.62099999 4290559139
0.091453366 0.11467115 0.62900001 4290820258
0.092618667 0.11466674 0.62900001 4290491549
0.093933009 0.11484461 0.63 4290491808
0.095100038 0.11484013 0.63 4290886566
0.096267015 0.11483562 0.63 4290492338
0.09774328 0.11519564 0.63200003 4289965994
0.098913878 0.11519103 0.63200003 4289900702
0.1000844 0.11518641 0.63200003 4289900702
0.015623426 0.11621409 0.63 4292861142
0.016740412 0.11584328 0.62800002 4292992210
0.017906949 0.11584136 0.62800002 4292992210
0.019073443 0.11583938 0.62800002 4292597702
0.020207664 0.11565292 0.62699997 4292663495
0.021304043 0.11528198 0.625 4292795345
0.022428889 0.11509547 0.62400001 4292663758
0.023549983 0.11490892 0.62300003 4293123796
0.024706971 0.11490677 0.62300003 4292926161
0.025697855 0.11416684 0.61900002 4292335044
0.026847327 0.11416463 0.61900002 4291874493
0.027996758 0.11416238 0.61900002 4291873993
0.029099053 0.11397566 0.61799997 4292005579
0.030246533 0.11397333 0.61799997 4292201157
0.031393971 0.11397098 0.61799997 4292332999
0.032541364 0.11396857 0.61799997 4292268219
0.033743225 0.11415055 0.61900002 4292268219
0.034836017 0.11396366 0.61799997 4291939518
0.035983272 0.11396113 0.61799997 4291808188
0.037130479 0.11395858 0.61799997 4291939266
0.038277641 0.11395598 0.61799997 4291939266
0.039424766 0.11395335 0.61799997 4291939268
0.040571831 0.11395068 0.61799997 4291939268
0.041718859 0.11394797 0.61799997 4292005059
0.042865839 0.11394523 0.61799997 4291939266
0.044012766 0.11394244 0.61799997 4291873463
0.045159649 0.11393961 0.61799997 4291676085
0.046381421 0.11412111 0.61900002 4291675065
0.047453277 0.11393383 0.61799997 4291740858
0.04844274 0.11356218 0.616 4291478442
0.049585719 0.1135592 0.616 4291741614
0.05072866 0.11355619 0.616 4291743931
0.051871542 0.11355314 0.616 4291480502
0.053014379 0.11355006 0.616 4291019438
0.054157175 0.11354695 0.616 4290821802
0.055479459 0.11391243 0.61799997 4291017639
0.056625865 0.11390921 0.61799997 4291478190
0.057585254 0.11353734 0.616 4291412649
0.058632512 0.11334976 0.61500001 4291478442
0.059773207 0.11334646 0.61500001 4291281844
0.060913846 0.1133431 0.61500001 4291478967
0.062155336 0.11352401 0.616 4291348399
0.063194983 0.11333629 0.61500001 4291085483
0.06433548 0.11333284 0.61500001 4290756011
0.065475926 0.11332934 0.61500001 4290821804
0.066724636 0.11351006 0.616 4291150254
0.072787903 0.11404453 0.61900002 4291083946
0.073935412 0.11404075 0.61900002 4290888113
0.075082868 0.11403693 0.61900002 4290624941
0.076353423 0.11421729 0.62 4290493346
0.077502623 0.11421339 0.62 4290493346
0.078651793 0.11420944 0.62 4290295462
0.080058314 0.11457388 0.62199998 4290558635
0.081211075 0.11456985 0.62199998 4291019938
0.082496218 0.11474999 0.62300003 4290493594
0.091594391 0.11600944 0.63 4290230687
0.092761509 0.11600503 0.63 4290230687
0.093928561 0.11600059 0.63 4290032541
0.095095567 0.1159961 0.63 4290098334
0.096262522 0.11599157 0.63 4290294695
0.09773872 0.11635524 0.63200003 4289965987
0.098909274 0.11635061 0.63200003 4289703580
0.10007977 0.11634597 0.63200003 4289703580
0.016765164 0.11718275 0.62900001 4292991956
0.017905008 0.1169945 0.62800002 4292794834
0.019071463 0.11699253 0.62800002 4292335046
0.020205647 0.1168042 0.62699997 4292269253
0.021301996 0.1164296 0.625 4292334531
0.022426806 0.11624121 0.62400001 4292071358
0.023547862 0.11605281 0.62300003 4292531909
0.024704814 0.11605066 0.62300003 4292202944
0.02569567 0.11530337 0.61900002 4292006594
0.026845105 0.11530113 0.61900002 4291480250
0.027994491 0.11529887 0.61900002 4292136647
0.029096754 0.11511031 0.61799997 4292465612
0.0302442 0.11510798 0.61799997 4292530121
0.031391598 0.11510561 0.61799997 4292332999
0.03253895 0.11510319 0.61799997 4292267956
0.033740766 0.11528698 0.61900002 4292399542
0.034833524 0.11509823 0.61799997 4292070843
0.035980739 0.1150957 0.61799997 4291807414
0.037127908 0.11509313 0.61799997 4291742141
0.038275037 0.11509053 0.61799997 4291281590
0.039422113 0.11508787 0.61799997 4291478201
0.040569149 0.11508519 0.61799997 4291543995
0.041716136 0.11508247 0.61799997 4291347889
0.04293244 0.11526591 0.61900002 4291610805
0.044009965 0.11507688 0.61799997 4291545512
0.045156814 0.11507406 0.61799997 4291348389
0.046453469 0.11544358 0.62 4291610044
0.047450364 0.11506826 0.61799997 4291610044
0.048597064 0.11506529 0.61799997 4291215786
0.049582735 0.11468993 0.616 4291149993
0.050725639 0.11468691 0.616 4291085231
0.051868487 0.11468384 0.616 4291085231
0.053011291 0.11468075 0.616 4291150254
0.054154038 0.11467761 0.616 4290755496
0.055476274 0.11504675 0.61799997 4291084459
0.056622643 0.11504352 0.61799997 4291479217
0.057582002 0.11466797 0.616 4290887848
0.058629237 0.11447853 0.61500001 4290624932
0.059769884 0.11447521 0.61500001 4291084983
0.060910497 0.11447186 0.61500001 4291018934
0.062151946 0.11465458 0.616 4291216814
0.063191555 0.11446501 0.61500001 4291216814
0.064332016 0.11446153 0.61500001 4290756009
0.065578878 0.11464414 0.616 4290887852
0.066721089 0.11464058 0.616 4291018666
0.068193763 0.11519529 0.61900002 4291018666
0.069341429 0.11519165 0.61900002 4291018406
0.070489064 0.11518796 0.61900002 4290689442
0.071636632 0.11518423 0.61900002 4290952096
0.072784148 0.11518047 0.61900002 4291215268
0.07393162 0.11517668 0.61900002 4290886835
0.075200334 0.11535889 0.62 4290821041
0.076349556 0.11535501 0.62 4290558887
0.077623725 0.11553715 0.62099999 4290558887
0.078774698 0.11553318 0.62099999 4290558898
0.080054328 0.11571524 0.62199998 4290295983
0.081337616 0.11589722 0.62300003 4290427539
0.082492143 0.11589315 0.62300003 4290624662
0.090566412 0.1173557 0.63099998 4290032793
0.09159001 0.11716535 0.63 4290754717
0.092757098 0.11716091 0.63 4290886303
0.094073206 0.11734241 0.63099998 4290556572
0.09509109 0.11715194 0.63 4290556572
0.096258 0.1171474 0.63 4290359709
0.097734153 0.11751472 0.63200003 4289899158
0.099217638 0.11788193 0.634 4290030746
0.10039181 0.11787727 0.634 4290096539
0.10284752 0.1193599 0.64200002 4289703312
0.10419843 0.119541 0.64300001 4289703312
0.10555299 0.11972205 0.64399999 4289046161
0.016763246 0.11833763 0.62900001 4292663756
0.017903054 0.11814754 0.62800002 4292597963
0.019039106 0.11795741 0.62699997 4291940551
0.020139176 0.11757914 0.625 4292203980
0.021299932 0.11757708 0.625 4292203980
0.022424707 0.11738687 0.62400001 4291940551
0.02358352 0.11738473 0.62400001 4292204493
0.02474229 0.11738256 0.62400001 4291875528
0.025693474 0.11643978 0.61900002 4292006596
0.026842866 0.11643753 0.61900002 4291875010
0.027992215 0.11643527 0.61900002 4292202440
0.030290786 0.1164306 0.61900002 4292267719
0.031440005 0.11642821 0.61900002 4292070341
0.032589175 0.11642577 0.61900002 4292003505
0.033738296 0.1164233 0.61900002 4291937712
0.034887385 0.11642079 0.61900002 4291412145
0.036036417 0.11641824 0.61900002 4291675317
0.037185404 0.11641565 0.61900002 4292070074
0.038334347 0.11641303 0.61900002 4291609523
0.039483245 0.11641035 0.61900002 4291412406
0.040632091 0.11640765 0.61900002 4291346613
0.041780904 0.1164049 0.61900002 4291019438
0.042929661 0.11640213 0.61900002 4291348403
0.044078361 0.1163993 0.61900002 4291283378
0.045227028 0.11639644 0.61900002 4291151791
0.046450563 0.11658158 0.62 4291544508
0.047447436 0.11620257 0.61799997 4291347385
0.048436843 0.11582355 0.616 4291150506
0.049579743 0.11582055 0.616 4291150506
0.050722603 0.1158175 0.616 4291150256
0.05186541 0.11581443 0.616 4291150256
0.053008173 0.11581132 0.616 4291084463
0.054150894 0.11580817 0.616 4291150256
0.055473082 0.11618096 0.61799997 4291348399
0.056619406 0.11617772 0.61799997 4291216812
0.057578739 0.11579847 0.616 4290757034
0.058721263 0.11579517 0.616 4290559398
0.059863735 0.11579183 0.616 4290953908
0.061006162 0.11578845 0.616 4290887859
0.062350314 0.11616095 0.61799997 4290624943
0.063496336 0.11615748 0.61799997 4290624943
0.064642325 0.11615398 0.61799997 4290623395
0.065788262 0.11615042 0.61799997 4290689444
0.066934139 0.11614684 0.61799997 4290689442
0.068190143 0.11633117 0.61900002 4290952357
0.069337778 0.1163275 0.61900002 4290559139
0.070485361 0.11632381 0.61900002 4290493346
0.071632899 0.11632007 0.61900002 4290622365
0.072780386 0.11631629 0.61900002 4290688158
0.074047253 0.11650038 0.62 4290490273
0.075196482 0.11649652 0.62 4290622115
0.076468803 0.11668052 0.62099999 4290557603
0.077619791 0.11667659 0.62099999 4290623397
0.078770734 0.11667261 0.62099999 4290624945
0.080179021 0.11704434 0.62300003 4290295981
0.081333563 0.11704028 0.62300003 4290295960
0.08248806 0.11703617 0.62300003 4290361753
0.090562046 0.11851334 0.63099998 4290293914
0.091585629 0.11832113 0.63 4290490010
0.092752665 0.11831668 0.63 4290556059
0.094068713 0.11849999 0.63099998 4290161301
0.095237516 0.11849546 0.63099998 4290029459
0.096406236 0.1184909 0.63099998 4289700498
0.097729556 0.11867408 0.63200003 4289700498
0.099213004 0.11904497 0.634 4289569423
0.10038713 0.11904028 0.634 4289569423
0.10284274 0.12053758 0.64200002 4289241996
0.1041936 0.12072049 0.64300001 4289307789
0.10554814 0.12090335 0.64399999 4289045396
0.016761316 0.1194924 0.62900001 4291873461
0.017901089 0.11930048 0.62800002 4291939254
0.019037101 0.11910851 0.62699997 4292005063
0.020137139 0.11872654 0.625 4292070856
0.021297855 0.11872447 0.625 4291939014
0.022422595 0.1185324 0.62400001 4291676098
0.023581371 0.11853024 0.62400001 4291677643
0.0247401 0.11852805 0.62400001 4291546057
0.025898783 0.11852582 0.62400001 4291677884
0.028216017 0.11852124 0.62400001 4291807938
0.02909212 0.11737928 0.61799997 4291676096
0.032534081 0.11737207 0.61799997 4291610294
0.033681311 0.11736959 0.61799997 4291478451
0.034828503 0.11736708 0.61799997 4291346865
0.035975639 0.11736452 0.61799997 4291412658
0.037182804 0.11755183 0.61900002 4291478957
0.038331706 0.11754917 0.61900002 4291478957
0.039480563 0.11754651 0.61900002 4291346865
0.040629379 0.11754379 0.61900002 4291215536
0.041778143 0.11754102 0.61900002 4291019186
0.042996213 0.11772811 0.62 4291084979
0.044004329 0.11734551 0.61799997 4291085231
0.045151092 0.11734263 0.61799997 4290821802
0.04637273 0.11752961 0.61900002 4290953395
0.047444489 0.11733677 0.61799997 4291019188
0.048433866 0.11695407 0.616 4291084459
0.049576737 0.11695107 0.616 4291150508
0.050719559 0.116948 0.616 4290821291
0.051862333 0.11694491 0.616 4290623912
0.053005047 0.11694179 0.616 4290887338
0.054147728 0.11693861 0.616 4291150254
0.055469871 0.11731507 0.61799997 4291150245
0.056616165 0.11731181 0.61799997 4290952609
0.057762399 0.11730852 0.61799997 4290756263
0.059003923 0.11749502 0.61900002 4290493092
0.060054734 0.11730181 0.61799997 4291018668
0.061200824 0.11729841 0.61799997 4291150254
0.062346876 0.11729497 0.61799997 4291018164
0.063492872 0.11729148 0.61799997 4290886835
0.064638816 0.11728797 0.61799997 4290689442
0.065784708 0.1172844 0.61799997 4290623649
0.066930555 0.11728081 0.61799997 4290820258
0.068186514 0.11746694 0.61900002 4291017893
0.069334105 0.11746327 0.61900002 4290886303
0.070481658 0.11745956 0.61900002 4290952096
0.071629159 0.1174558 0.61900002 4290491297
0.072894178 0.11764176 0.62 4290491297
0.074043423 0.11763792 0.62 4290425763
0.075313896 0.11782379 0.62099999 4290425763
0.076588027 0.11800957 0.62199998 4290164131
0.077740833 0.11800563 0.62199998 4289505945
0.078893594 0.11800164 0.62199998 4290032804
0.080174997 0.11818732 0.62300003 4289967011
0.081329495 0.11818323 0.62300003 4290361503
0.082616352 0.11836881 0.62400001 4290361503
0.090557665 0.11967086 0.63099998 4289439118
0.091726571 0.11966643 0.63099998 4290030492
0.093042657 0.11985161 0.63200003 4290227870
0.094213314 0.11984711 0.63200003 4290095769
0.095383912 0.11984255 0.63200003 4290029976
0.096860006 0.1202172 0.634 4289634966
0.098188832 0.12040216 0.63499999 4289569173
0.099834271 0.1209663 0.63800001 4289635218
0.10164909 0.12171993 0.64200002 4289635218
0.10283796 0.12171514 0.64200002 4289635218
0.10418878 0.12189986 0.64300001 4289766804
0.016759373 0.12064707 0.62900001 4291807418
0.017899109 0.12045328 0.62800002 4291478453
0.019065445 0.12045127 0.62800002 4291739059
0.020199521 0.1202574 0.62699997 4291805108
0.021295769 0.11987173 0.625 4292003262
0.022384539 0.11948601 0.62300003 4292003262
0.023541417 0.11948386 0.62300003 4291873991
0.02469825 0.11948165 0.62300003 4291808198
0.02585504 0.11947941 0.62300003 4291874497
0.032531627 0.11850634 0.61799997 4291478967
0.033678818 0.11850385 0.61799997 4291216051
0.034825966 0.11850132 0.61799997 4290953393
0.035973061 0.11849874 0.61799997 4291216564
0.037180189 0.11868787 0.61900002 4291347637
0.038329054 0.11868522 0.61900002 4291150002
0.039477877 0.11868253 0.61900002 4290886566
0.040626641 0.11867979 0.61900002 4291083946
0.041775372 0.11867702 0.61900002 4290953395
0.0429934 0.11886593 0.62 4291019188
0.044001486 0.11847962 0.61799997 4291019440
0.045148216 0.11847676 0.61799997 4290953391
0.046369813 0.11866555 0.61900002 4290756784
0.047518302 0.11866258 0.61900002 4290559148
0.048588119 0.11846787 0.61799997 4290558885
0.049573712 0.11808144 0.616 4290427299
0.050716493 0.11807837 0.616 4290754213
0.05185923 0.11807527 0.616 4290688419
0.053173997 0.11845548 0.61799997 4290491295
0.054496147 0.11883564 0.62 4290688417
0.055646155 0.11883238 0.62 4290689442
0.056796111 0.11882911 0.62 4290755235
0.057946023 0.11882579 0.62 4290822056
0.059095882 0.11882242 0.62 4290295712
0.060148537 0.1186274 0.61900002 4290753701
0.061296441 0.11862398 0.61900002 4291016617
0.062444303 0.11862051 0.61900002 4290952109
0.063592114 0.11861701 0.61900002 4290754987
0.064739875 0.11861346 0.61900002 4290559137
0.065887593 0.11860988 0.61900002 4290493344
0.06703525 0.11860628 0.61900002 4290294686
0.068182863 0.11860261 0.61900002 4290426015
0.069330424 0.11859892 0.61900002 4290556572
0.070591792 0.11878677 0.62 4290556572
0.071741112 0.118783 0.62 4290294432
0.072890371 0.11877919 0.62 4290294432
0.074159004 0.11896691 0.62099999 4290098338
0.075310014 0.11896303 0.62099999 4290098338
0.076584108 0.11915064 0.62199998 4290492840
0.077861853 0.11933823 0.62300003 4290098338
0.079016425 0.11933421 0.62300003 4290164644
0.080299623 0.1195217 0.62400001 4290164644
0.081455946 0.11951759 0.62400001 4290427299
0.082612224 0.11951346 0.62400001 4290032541
0.090696789 0.12101975 0.63200003 4289506458
0.091867514 0.1210153 0.63200003 4289637787
0.093038186 0.1210108 0.63200003 4289703580
0.094208807 0.12100629 0.63200003 4290030496
0.095379367 0.12100174 0.63200003 4289832861
0.096549869 0.12099712 0.63200003 4289307285
0.098957278 0.12252403 0.63999999 4289241492
0.017897112 0.12160598 0.62800002 4291083959
0.019063409 0.12160394 0.62800002 4291411618
0.020229664 0.12160189 0.62800002 4291543204
0.021259593 0.12082524 0.62400001 4291609519
0.022382403 0.12062947 0.62300003 4291741362
0.023539245 0.12062731 0.62300003 4291742141
0.024696035 0.12062509 0.62300003 4291742141
0.025852783 0.12062285 0.62300003 4291479737
0.03487977 0.11982904 0.61900002 4291084209
0.036028691 0.11982645 0.61900002 4291018416
0.037177563 0.11982382 0.61900002 4291149491
0.038388301 0.12001471 0.62 4291017904
0.039538935 0.120012 0.62 4290952096
0.040689528 0.12000924 0.62 4291149474
0.04197504 0.12039357 0.62199998 4290624178
0.043129247 0.12039073 0.62199998 4290558385
0.044283409 0.12038786 0.62199998 4290821289
0.045291424 0.11999784 0.62 4291018668
0.046441779 0.11999491 0.62 4291018152
0.047515329 0.11979838 0.61900002 4290426015
0.048585113 0.11960182 0.61799997 4290426533
0.049731616 0.11959877 0.61799997 4290360740
0.050713412 0.11920865 0.616 4290557603
0.051856108 0.11920553 0.616 4290557603
0.053170837 0.11958938 0.61799997 4290491808
0.054492932 0.1199732 0.62 4290426015
0.055732649 0.12016344 0.62099999 4290164383
0.056884427 0.12016013 0.62099999 4289966748
0.058036156 0.12015679 0.62099999 4290098084
0.059092525 0.11995993 0.62 4290098084
0.060242306 0.11995653 0.62 4290491045
0.061293006 0.1197596 0.61900002 4290491045
0.062440827 0.11975612 0.61900002 4290491043
0.063588604 0.11975262 0.61900002 4290425250
0.064736329 0.11974904 0.61900002 4290623647
0.065884009 0.11974546 0.61900002 4290886818
0.067031622 0.11974183 0.61900002 4290491295
0.068179198 0.11973815 0.61900002 4290425502
0.069438726 0.11992787 0.62 4290359457
0.070588052 0.11992412 0.62 4290293664
0.071737327 0.11992034 0.62 4290294686
0.072886549 0.11991651 0.62 4290689444
0.074035734 0.11991265 0.62 4290228639
0.075669914 0.12068234 0.62400001 4290097052
0.076826409 0.12067838 0.62400001 4290229406
0.077982835 0.12067439 0.62400001 4290229406
0.079139225 0.12067034 0.62400001 4290228893
0.080681592 0.12124638 0.62699997 4290097050
0.081843436 0.12124225 0.62699997 4289965212
0.085328646 0.12122963 0.62699997 4290030505
0.090692364 0.12217889 0.63200003 4289965987
0.091863044 0.1221744 0.63200003 4289702806
0.093328089 0.12255652 0.634 4289176462
0.094502382 0.12255195 0.634 4289307037
0.095676616 0.12254737 0.634 4289241244
0.09730906 0.12312259 0.63700002 4289372308
0.098952584 0.12369773 0.63999999 4289109392
0.020195365 0.12255894 0.62699997 4291018154
0.021257479 0.12197044 0.62400001 4291279273
0.022416176 0.12196828 0.62400001 4291608495
0.023537051 0.12177062 0.62300003 4291150004
0.024693808 0.12176841 0.62300003 4291150004
0.02585052 0.12176614 0.62300003 4291019188
0.028525453 0.12332503 0.63099998 4291413946
0.037295029 0.12135046 0.62099999 4291215018
0.038385615 0.12115236 0.62 4291215018
0.039536215 0.12114964 0.62 4291214504
0.040752381 0.12134227 0.62099999 4291148455
0.041972231 0.12153485 0.62199998 4290623658
0.043126397 0.12153199 0.62199998 4290360742
0.044280518 0.12152909 0.62199998 4290818722
0.045434594 0.12152617 0.62199998 4291147944
0.046438824 0.12113245 0.62 4290820006
0.04758909 0.12112946 0.62 4290688419
0.048739314 0.12112641 0.62 4290756263
0.049809024 0.12092797 0.61900002 4290558885
0.050957296 0.12092486 0.61900002 4290558885
0.052189693 0.12111707 0.62 4290361505
0.053339727 0.12111387 0.62 4290360740
0.054665472 0.1215013 0.62199998 4290294947
0.055729374 0.12130269 0.62099999 4290360992
0.056881115 0.12129938 0.62099999 4290229406
0.058032807 0.12129603 0.62099999 4289900702
0.05908915 0.12109732 0.62 4290164131
0.060238883 0.1210939 0.62 4290557349
0.061388575 0.12109043 0.62 4290294434
0.062538214 0.12108694 0.62 4290490273
0.063687801 0.12108339 0.62 4290490273
0.064837344 0.12107982 0.62 4290490523
0.065986834 0.1210762 0.62 4290622365
0.067136273 0.12107256 0.62 4290557090
0.068285674 0.12106887 0.62 4290425504
0.06954699 0.1212604 0.62099999 4290096801
0.070925832 0.12164716 0.62300003 4290096801
0.072080635 0.12164334 0.62300003 4290096798
0.073235385 0.12163948 0.62300003 4290031005
0.074390084 0.12163557 0.62300003 4289636501
0.075787246 0.12202211 0.625 4289965466
0.076945551 0.1220181 0.625 4290096798
0.078103803 0.12201409 0.625 4289965212
0.079262003 0.12201003 0.625 4290096537
0.080677494 0.12239634 0.62699997 4289964951
0.081839301 0.12239219 0.62699997 4290095256
0.083001055 0.12238802 0.62699997 4290095256
0.084162742 0.12238378 0.62699997 4290096803
0.085324399 0.12237953 0.62699997 4289767838
0.086761877 0.12276558 0.62900001 4289570204
0.090974919 0.12372819 0.634 4289504661
0.092149273 0.12372369 0.634 4289374356
0.093323573 0.12371916 0.634 4288979855
0.094944984 0.1243 0.63700002 4289044110
0.096124731 0.12429536 0.63700002 4289109903
0.097304419 0.12429069 0.63700002 4289110157
0.098947868 0.12487131 0.63999999 4289044364
0.020193268 0.12370956 0.62699997 4290755248
0.02135754 0.12370742 0.62699997 4290886064
0.022449931 0.12331067 0.625 4291149493
0.023610404 0.12330845 0.625 4290950574
0.024968995 0.12429266 0.63 4290358694
0.026138661 0.12429035 0.63 4290358955
0.027351631 0.12448527 0.63099998 4290819506
0.028523063 0.12448289 0.63099998 4290623658
0.037352413 0.12268709 0.62199998 4290688406
0.038444825 0.12248714 0.62099999 4290820249
0.039597243 0.1224844 0.62099999 4290819747
0.040749606 0.12248162 0.62099999 4290951076
0.0419694 0.12267601 0.62199998 4290689192
0.043123536 0.12267314 0.62199998 4290228641
0.04427762 0.12267025 0.62199998 4290491558
0.045431655 0.12266729 0.62199998 4290754987
0.046585638 0.12266431 0.62199998 4290425763
0.047662836 0.12246408 0.62099999 4290294434
0.048814874 0.12246102 0.62099999 4290886301
0.050047327 0.12265512 0.62199998 4290952350
0.051201127 0.12265198 0.62199998 4290688921
0.052354869 0.12264879 0.62199998 4290228370
0.053508572 0.12264557 0.62199998 4290162594
0.054662224 0.12264232 0.62199998 4290096801
0.055815831 0.12263902 0.62199998 4290622365
0.056969386 0.12263568 0.62199998 4290819745
0.058122892 0.12263232 0.62199998 4290622111
0.059181057 0.12243176 0.62099999 4290753953
0.060235456 0.12223116 0.62 4290687904
0.061385106 0.12222768 0.62 4290161560
0.062534705 0.12222417 0.62 4290293664
0.063684255 0.12222063 0.62 4290227870
0.064938329 0.12241416 0.62099999 4290359194
0.066089638 0.12241053 0.62099999 4290490523
0.067240894 0.12240684 0.62099999 4290293664
0.068392098 0.12240314 0.62099999 4290227870
0.06965524 0.12259648 0.62199998 4289965733
0.070922047 0.12278979 0.62300003 4289965733
0.072076812 0.12278596 0.62300003 4289900705
0.073231526 0.12278208 0.62300003 4289834911
0.07498318 0.12376354 0.62800002 4289701791
0.075783297 0.12316835 0.625 4289899169
0.076941565 0.12316435 0.625 4289702045
0.078099765 0.1231603 0.625 4289636252
0.079257943 0.12315623 0.625 4289768342
0.080673382 0.1235462 0.62699997 4289702293
0.081835158 0.12354204 0.62699997 4289702547
0.08299686 0.12353783 0.62699997 4289636753
0.084158525 0.12353358 0.62699997 4289637015
0.085592292 0.12392335 0.62900001 4289505685
0.089180812 0.1256877 0.63800001 4289242527
0.09154442 0.12567873 0.63800001 4288781456
0.093162149 0.12626512 0.64099997 4288979087
0.094349384 0.12626052 0.64099997 4289308052
0.095089443 0.12566499 0.63800001 4288847749
0.096271001 0.12566033 0.63800001 4288453247
0.097757995 0.12604955 0.63999999 4289109122
0.01914826 0.12565872 0.63099998 4290558383
0.020255564 0.12525834 0.62900001 4290492590
0.021423509 0.12525618 0.62900001 4290623406
0.022591414 0.12525398 0.62900001 4290689455
0.023759272 0.12525174 0.62900001 4291016617
0.024966717 0.12544858 0.63 4290622115
0.026136342 0.12544626 0.63 4290818213
0.027349265 0.12564301 0.63099998 4290884006
0.028520659 0.1256406 0.63099998 4291016104
0.038442105 0.1236264 0.62099999 4290490525
0.039594486 0.12362365 0.62099999 4290556320
0.040746812 0.12362084 0.62099999 4290753699
0.041966565 0.12381706 0.62199998 4290754985
0.043120652 0.12381417 0.62199998 4290689192
0.044274695 0.12381126 0.62199998 4290493092
0.045428697 0.12380829 0.62199998 4290361505
0.04665754 0.12400435 0.62300003 4289637533
0.047736548 0.12380225 0.62199998 4289834911
0.048890404 0.12379918 0.62199998 4290293916
0.050044209 0.12379606 0.62199998 4290227866
0.051197972 0.12379291 0.62199998 4290293650
0.05235168 0.12378972 0.62199998 4290359444
0.053505346 0.12378648 0.62199998 4290030496
0.054658964 0.12378321 0.62199998 4290227619
0.055812523 0.12377989 0.62199998 4290686875
0.056966048 0.12377655 0.62199998 4290686875
0.058119509 0.12377316 0.62199998 4290686362
0.05927293 0.12376974 0.62199998 4290686362
0.060329158 0.12356729 0.62099999 4290293148
0.061480626 0.1235638 0.62099999 4290227355
0.062632039 0.12356026 0.62099999 4290359455
0.063783407 0.12355669 0.62099999 4290227868
0.064934723 0.12355307 0.62099999 4290359194
0.066192411 0.12374838 0.62199998 4290029972
0.067345485 0.12374469 0.62199998 4289897872
0.068498515 0.12374096 0.62199998 4290358423
0.070211373 0.12473184 0.62699997 4289703580
0.071032077 0.12413124 0.62400001 4289703580
0.072188653 0.12412737 0.62400001 4290360740
0.073697798 0.12472022 0.62699997 4289702810
0.074979238 0.12491518 0.62800002 4289636504
0.076143071 0.12491118 0.62800002 4289899419
0.077306859 0.12490715 0.62800002 4289636499
0.078470603 0.12490308 0.62800002 4289636499
0.079634279 0.12489898 0.62800002 4289768090
0.080797926 0.12489483 0.62800002 4289702297
0.081961498 0.12489064 0.62800002 4289505949
0.083125025 0.12488641 0.62800002 4289439900
0.084422715 0.12508102 0.62900001 4289309338
0.085588001 0.1250767 0.62900001 4289309338
0.086753219 0.12507236 0.62900001 4289243292
0.089176379 0.1268575 0.63800001 4289045657
0.090358175 0.12685302 0.63800001 4289307285
0.091539904 0.1268485 0.63800001 4288846734
0.092721596 0.12684396 0.63800001 4288715661
0.09434478 0.12743577 0.64099997 4288781454
0.095382877 0.12723231 0.63999999 4288847499
0.096568115 0.12722763 0.63999999 4288452741
0.097753286 0.12722291 0.63999999 4288713862
0.019146163 0.12681647 0.63099998 4290162596
0.020317828 0.12681431 0.63099998 4290228389
0.021489449 0.12681215 0.63099998 4290228391
0.022625111 0.12660895 0.63 4290228391
0.023794789 0.12660669 0.63 4290490023
0.025004044 0.12680537 0.63099998 4290753452
0.026175488 0.12680301 0.63099998 4290753953
0.027346885 0.12680064 0.63099998 4290359196
0.028473046 0.12659727 0.63 4290819747
0.029642496 0.12659481 0.63 4291016869
0.030860813 0.12679327 0.63099998 4290951078
0.032032028 0.12679073 0.63099998 4290951078
0.0332032 0.12678814 0.63099998 4290819493
0.039591715 0.12476276 0.62099999 4290030494
0.040744003 0.12475996 0.62099999 4289964701
0.041963711 0.12495798 0.62199998 4290491806
0.043117765 0.12495509 0.62199998 4290491806
0.044271767 0.12495215 0.62199998 4290295186
0.045425724 0.12494919 0.62199998 4290163600
0.04665453 0.12514706 0.62300003 4289965987
0.047810249 0.125144 0.62300003 4289965987
0.04896592 0.12514091 0.62300003 4290097052
0.050121546 0.12513776 0.62300003 4289965466
0.051277116 0.12513459 0.62300003 4289965966
0.052432649 0.12513138 0.62300003 4290689946
0.053588126 0.12512814 0.62300003 4290228389
0.054743562 0.12512483 0.62300003 4290162596
0.055898938 0.1251215 0.62300003 4290359194
0.05705427 0.12511814 0.62300003 4290293400
0.058209557 0.12511472 0.62300003 4290424470
0.059269499 0.12491044 0.62199998 4290424470
0.060325693 0.12470616 0.62099999 4290293402
0.061477121 0.12470265 0.62099999 4290029974
0.0626285 0.1246991 0.62099999 4289966232
0.063779831 0.1246955 0.62099999 4289900439
0.065035671 0.12489267 0.62199998 4290097302
0.066295169 0.12508981 0.62300003 4289570958
0.067450061 0.1250861 0.62300003 4289570447
0.069265619 0.12628698 0.62900001 4290030998
0.070207573 0.1258816 0.62699997 4289834900
0.071369722 0.12587774 0.62699997 4289703058
0.072531827 0.12587386 0.62699997 4289768090
0.073693879 0.12586993 0.62699997 4289570454
0.074855879 0.12586597 0.62699997 4290161812
0.076017827 0.12586196 0.62699997 4290227605
0.077179722 0.1258579 0.62699997 4289833101
0.078341566 0.12585384 0.62699997 4289898895
0.079630166 0.12605044 0.62800002 4289504400
0.080793761 0.12604627 0.62800002 4289109642
0.08195731 0.12604207 0.62800002 4288847510
0.083253168 0.12623852 0.62900001 4288716181
0.085089505 0.12723771 0.634 4288651153
0.086536117 0.1276347 0.63599998 4288914326
0.087576374 0.12742963 0.63499999 4288913807
0.088752635 0.12742518 0.63499999 4287926912
0.090353683 0.1280227 0.63800001 4288123792
0.091535382 0.12801817 0.63800001 4288518550
0.092717029 0.1280136 0.63800001 4288452745
0.093898639 0.12800898 0.63800001 4288123781
0.095378228 0.1284056 0.63999999 4288123531
0.096261673 0.12799966 0.63800001 4288123531
0.097443104 0.12799492 0.63800001 4288385165
0.019174391 0.12817688 0.63200003 4290096549
0.020315673 0.1279719 0.63099998 4290162342
0.021487255 0.12796971 0.63099998 4290358692
0.02265879 0.12796748 0.63099998 4290490021
0.023830285 0.12796523 0.63099998 4289832861
0.025001734 0.1279629 0.63099998 4290556840
0.026173135 0.12796053 0.63099998 4290557349
0.027344495 0.12795815 0.63099998 4290096798
0.028470617 0.12775293 0.63 4290162594
0.029640028 0.12775047 0.63 4290096801
0.030858299 0.12795073 0.63099998 4290358173
0.031978719 0.1277454 0.63 4290423966
0.033147994 0.12774281 0.63 4290490021
0.041960847 0.12609881 0.62199998 4290426015
0.043114856 0.12609589 0.62199998 4289965464
0.04426882 0.12609296 0.62199998 4289832847
0.045422748 0.12608996 0.62199998 4290030226
0.046651501 0.12628965 0.62300003 4290228387
0.047807176 0.12628658 0.62300003 4290096801
