# .PCD v0.7 - Point Cloud Data file format
VERSION 0.7
FIELDS x y z rgba
SIZE 4 4 4 4
TYPE F F F U
COUNT 1 1 1 1
WIDTH 1060
HEIGHT 1
VIEWPOINT 0 0 0 1 0 0 0
POINTS 1060
DATA ascii
-0.080887988 0.016058698 0.62300003 4294967295
-0.079724774 0.016060837 0.62300003 4294967295
-0.078435488 0.016037161 0.62199998 4294967295
-0.077274196 0.016039232 0.62199998 4294967295
-0.076112933 0.01604127 0.62199998 4294967295
-0.075072192 0.016069068 0.62300003 4294967295
-0.074027739 0.016096836 0.62400001 4294967295
-0.072862819 0.016098781 0.62400001 4294967295
-0.071812816 0.016126491 0.625 4294967295
-0.070646077 0.016128369 0.625 4294967295
-0.069479361 0.016130216 0.625 4294967295
-0.068312667 0.016132027 0.625 4294967295
-0.067146018 0.016133808 0.625 4294967295
-0.065873809 0.016109735 0.62400001 4294967295
-0.065123864 0.016214723 0.62800002 4294967295
-0.063951686 0.016216407 0.62800002 4294967295
-0.062779531 0.016218059 0.62800002 4294967295
-0.061607406 0.016219677 0.62800002 4294967295
-0.060627773 0.016272921 0.63 4294967295
-0.059451967 0.016274475 0.63 4294967295
-0.058183689 0.016250161 0.62900001 4294967295
-0.057009805 0.016251646 0.62900001 4294967295
-0.055835951 0.016253097 0.62900001 4294967295
-0.054749034 0.016280355 0.63 4294967295
-0.053573366 0.016281739 0.63 4294967295
-0.052480903 0.016308939 0.63099998 4294967295
-0.051384743 0.016336108 0.63200003 4294967295
-0.050205439 0.016337395 0.63200003 4294967295
-0.049181301 0.01639035 0.634 4294967295
-0.04799832 0.016391573 0.634 4294967295
-0.046815373 0.016392762 0.634 4294967295
-0.045704428 0.016419774 0.63499999 4294967295
-0.044519674 0.016420893 0.63499999 4294967295
-0.043471444 0.016473707 0.63700002 4294967295
-0.042349394 0.016500626 0.63800001 4294967295
-0.041288164 0.016553378 0.63999999 4294967295
-0.040156852 0.016580235 0.64099997 4294967295
-0.038961068 0.016581194 0.64099997 4294967295
-0.037765313 0.01658212 0.64099997 4294967295
-0.036569588 0.016583009 0.64099997 4294967295
-0.035429087 0.01660974 0.64200002 4294967295
-0.034231566 0.016610559 0.64200002 4294967295
-0.033034075 0.016611347 0.64200002 4294967295
-0.031787027 0.016586224 0.64099997 4294967295
-0.030591471 0.016586939 0.64099997 4294967295
-0.029395949 0.016587621 0.64099997 4294967295
-0.13111353 0.017594373 0.64099997 4294967295
-0.12991582 0.017597936 0.64099997 4294967295
-0.12851733 0.017574007 0.63999999 4294967295
-0.12732153 0.017577499 0.63999999 4294967295
-0.12573162 0.017526016 0.63800001 4294967295
-0.12395399 0.017447 0.63499999 4294967295
-0.12257425 0.017422881 0.634 4294967295
-0.12100684 0.017371232 0.63200003 4294967295
-0.11963648 0.017347019 0.63099998 4294967295
-0.11845762 0.01735026 0.63099998 4294967295
-0.11727881 0.017353468 0.63099998 4294967295
-0.115916 0.017329132 0.63 4294967295
-0.11473909 0.017332267 0.63 4294967295
-0.11338193 0.017307851 0.62900001 4294967295
-0.11220694 0.017310916 0.62900001 4294967295
-0.11103196 0.017313944 0.62900001 4294967295
-0.10915837 0.017206816 0.625 4294967295
-0.10799091 0.017209759 0.625 4294967295
-0.10682347 0.01721267 0.625 4294967295
-0.105487 0.017188001 0.62400001 4294967295
-0.1041543 0.017163293 0.62300003 4294967295
-0.10282533 0.017138537 0.62199998 4294967295
-0.10150015 0.017113743 0.62099999 4294967295
-0.10034028 0.017116468 0.62099999 4294967295
-0.099180438 0.017119162 0.62099999 4294967295
-0.098020628 0.01712182 0.62099999 4294967295
-0.096860841 0.017124446 0.62099999 4294967295
-0.095701061 0.017127041 0.62099999 4294967295
-0.094541311 0.017129598 0.62099999 4294967295
-0.093381584 0.017132124 0.62099999 4294967295
-0.092221893 0.017134618 0.62099999 4294967295
-0.090915583 0.017109482 0.62 4294967295
-0.089757785 0.017111905 0.62 4294967295
-0.088742927 0.017141897 0.62099999 4294967295
-0.087583318 0.017144259 0.62099999 4294967295
-0.086423725 0.017146582 0.62099999 4294967295
-0.085538782 0.017204106 0.62300003 4294967295
-0.084104642 0.017151136 0.62099999 4294967295
-0.082945116 0.017153364 0.62099999 4294967295
-0.081785634 0.017155556 0.62099999 4294967295
-0.080755994 0.017185345 0.62199998 4294967295
-0.079594702 0.017187474 0.62199998 4294967295
-0.078433409 0.017189572 0.62199998 4294967295
-0.077272154 0.017191634 0.62199998 4294967295
-0.076110922 0.01719366 0.62199998 4294967295
-0.075070217 0.017223306 0.62300003 4294967295
-0.073907159 0.017225271 0.62300003 4294967295
-0.072860911 0.017254855 0.62400001 4294967295
-0.071810931 0.017284412 0.625 4294967295
-0.070531204 0.017258624 0.62400001 4294967295
-0.069366388 0.017260458 0.62400001 4294967295
-0.068201587 0.017262259 0.62400001 4294967295
-0.067036837 0.017264025 0.62400001 4294967295
-0.065872096 0.017265759 0.62400001 4294967295
-0.063848197 0.017352147 0.62699997 4294967295
-0.062677942 0.017353788 0.62699997 4294967295
-0.061507717 0.017355394 0.62699997 4294967295
-0.06033751 0.017356966 0.62699997 4294967295
-0.059261713 0.017386191 0.62800002 4294967295
-0.058182199 0.017415386 0.62900001 4294967295
-0.057008352 0.017416861 0.62900001 4294967295
-0.055834532 0.017418303 0.62900001 4294967295
-0.054660734 0.017419711 0.62900001 4294967295
-0.05357201 0.017448779 0.63 4294967295
-0.052396413 0.01745012 0.63 4294967295
-0.051302139 0.017479127 0.63099998 4294967295
-0.050124735 0.017480403 0.63099998 4294967295
-0.049180076 0.017564759 0.634 4294967295
-0.047997121 0.017565971 0.634 4294967295
-0.046814211 0.017567152 0.634 4294967295
-0.045631327 0.017568294 0.634 4294967295
-0.044448476 0.017569406 0.634 4294967295
-0.043470383 0.017653622 0.63700002 4294967295
-0.042348366 0.017682383 0.63800001 4294967295
-0.041158143 0.017683396 0.63800001 4294967295
-0.040093251 0.017739814 0.63999999 4294967295
-0.038960136 0.01776848 0.64099997 4294967295
-0.037764415 0.017769394 0.64099997 4294967295
-0.036568727 0.017770272 0.64099997 4294967295
-0.03542826 0.017798839 0.64200002 4294967295
-0.034444045 0.017910551 0.64600003 4294967295
-0.033084769 0.017828153 0.64300001 4294967295
-0.031885482 0.017828897 0.64300001 4294967295
-0.03059078 0.017774142 0.64099997 4294967295
-0.029395293 0.017774815 0.64099997 4294967295
-0.13090545 0.018752875 0.63999999 4294967295
-0.12970965 0.018756427 0.63999999 4294967295
-0.12811224 0.018701322 0.63800001 4294967295
-0.12672128 0.018675474 0.63700002 4294967295
-0.125137 0.018620264 0.63499999 4294967295
-0.12375543 0.018594323 0.634 4294967295
-0.12218428 0.018539008 0.63200003 4294967295
-0.1208121 0.018512975 0.63099998 4294967295
-0.11963324 0.018516241 0.63099998 4294967295
-0.11826671 0.018490126 0.63 4294967295
-0.11708979 0.018493321 0.63 4294967295
-0.11572888 0.018467125 0.62900001 4294967295
-0.11455387 0.018470248 0.62900001 4294967295
-0.11337888 0.018473338 0.62900001 4294967295
-0.11220392 0.018476395 0.62900001 4294967295
-0.11067592 0.018420655 0.62699997 4294967295
-0.10915544 0.018364869 0.625 4294967295
-0.10781523 0.018338419 0.62400001 4294967295
-0.10647877 0.018311925 0.62300003 4294967295
-0.10531513 0.018314786 0.62300003 4294967295
-0.10398431 0.01828821 0.62199998 4294967295
-0.10282257 0.018291 0.62199998 4294967295
-0.10149742 0.018264346 0.62099999 4294967295
-0.10033759 0.018267063 0.62099999 4294967295
-0.099177778 0.018269749 0.62099999 4294967295
-0.098017998 0.0182724 0.62099999 4294967295
-0.096858241 0.018275023 0.62099999 4294967295
-0.095698506 0.018277606 0.62099999 4294967295
-0.094538778 0.01828016 0.62099999 4294967295
-0.093228728 0.018253237 0.62 4294967295
-0.092070937 0.01825572 0.62 4294967295
-0.090766519 0.018228719 0.61900002 4294967295
-0.089610636 0.018231131 0.61900002 4294967295
-0.08859767 0.018262966 0.62 4294967295
-0.087439969 0.018265314 0.62 4294967295
-0.086282276 0.018267628 0.62 4294967295
-0.085124627 0.018269913 0.62 4294967295
-0.084237844 0.018331101 0.62199998 4294967295
-0.083076485 0.018333323 0.62199998 4294967295
-0.081915163 0.018335512 0.62199998 4294967295
-0.08075387 0.018337669 0.62199998 4294967295
-0.079464637 0.018310305 0.62099999 4294967295
-0.078305259 0.018312393 0.62099999 4294967295
-0.077145897 0.018314442 0.62099999 4294967295
-0.075986564 0.018316461 0.62099999 4294967295
-0.075068243 0.018377442 0.62300003 4294967295
-0.07390523 0.0183794 0.62300003 4294967295
-0.072858997 0.018410826 0.62400001 4294967295
-0.071809061 0.018442228 0.625 4294967295
-0.070529357 0.018414579 0.62400001 4294967295
-0.069364578 0.018416407 0.62400001 4294967295
-0.068199828 0.018418197 0.62400001 4294967295
-0.067035094 0.018419957 0.62400001 4294967295
-0.065870389 0.01842168 0.62400001 4294967295
-0.064705722 0.018423373 0.62400001 4294967295
-0.063642897 0.018454555 0.625 4294967295
-0.062476411 0.018456183 0.625 4294967295
-0.061309952 0.018457774 0.625 4294967295
-0.060335975 0.018518401 0.62699997 4294967295
-0.059165835 0.018519931 0.62699997 4294967295
-0.057995722 0.018521426 0.62699997 4294967295
-0.056916278 0.018552432 0.62800002 4294967295
-0.055744357 0.018553862 0.62800002 4294967295
-0.054572463 0.018555256 0.62800002 4294967295
-0.053570665 0.018615717 0.63 4294967295
-0.052395098 0.018617047 0.63 4294967295
-0.05121956 0.018618347 0.63 4294967295
-0.050123487 0.018649163 0.63099998 4294967295
-0.049023714 0.018679954 0.63200003 4294967295
-0.047844537 0.018681154 0.63200003 4294967295
-0.046665389 0.018682318 0.63200003 4294967295
-0.045486271 0.018683447 0.63200003 4294967295
-0.044307183 0.018684544 0.63200003 4294967295
-0.043264605 0.018744737 0.634 4294967295
-0.042148221 0.018775335 0.63499999 4294967295
-0.041157164 0.01886504 0.63800001 4294967295
-0.040092297 0.018925149 0.63999999 4294967295
-0.038898438 0.018926084 0.63999999 4294967295
-0.037763529 0.018956561 0.64099997 4294967295
-0.036567874 0.018957427 0.64099997 4294967295
-0.035372254 0.018958261 0.64099997 4294967295
-0.034336623 0.019047791 0.64399999 4294967295
-0.033084016 0.01901898 0.64300001 4294967295
-0.031884767 0.01901971 0.64300001 4294967295
-0.030685548 0.019020408 0.64300001 4294967295
-0.029486366 0.01902107 0.64300001 4294967295
-0.028331209 0.019051278 0.64399999 4294967295
-0.13329351 0.019931525 0.63999999 4294967295
-0.13209769 0.01993514 0.63999999 4294967295
-0.1309019 0.01993872 0.63999999 4294967295
-0.12930079 0.019879945 0.63800001 4294967295
-0.12770718 0.019821117 0.63599998 4294967295
-0.12631999 0.019793401 0.63499999 4294967295
-0.12493655 0.019765645 0.634 4294967295
-0.12336171 0.019706657 0.63200003 4294967295
-0.12198766 0.019678805 0.63099998 4294967295
-0.12080882 0.0196821 0.63099998 4294967295
-0.11944041 0.019654162 0.63 4294967295
-0.11826351 0.019657388 0.63 4294967295
-0.11690078 0.01962937 0.62900001 4294967295
-0.11572576 0.01963252 0.62900001 4294967295
-0.11455079 0.019635636 0.62900001 4294967295
-0.11319558 0.019607499 0.62800002 4294967295
-0.11148736 0.019516859 0.625 4294967295
-0.11031993 0.019519858 0.625 4294967295
-0.1091525 0.019522823 0.625 4294967295
-0.10781234 0.019494511 0.62400001 4294967295
-0.10647591 0.019466158 0.62300003 4294967295
-0.10514324 0.019437762 0.62199998 4294967295
-0.10398152 0.019440578 0.62199998 4294967295
-0.10265452 0.019412098 0.62099999 4294967295
-0.10149469 0.019414846 0.62099999 4294967295
-0.10033491 0.01941756 0.62099999 4294967295
-0.099175125 0.019420236 0.62099999 4294967295
-0.098015383 0.019422883 0.62099999 4294967295
-0.096855663 0.019425493 0.62099999 4294967295
-0.095541865 0.019396789 0.62 4294967295
-0.094384044 0.019399328 0.62 4294967295
-0.093226239 0.019401839 0.62 4294967295
-0.091919988 0.019373015 0.61900002 4294967295
-0.090764105 0.019375453 0.61900002 4294967295
-0.089608259 0.019377857 0.61900002 4294967295
-0.088595323 0.019411538 0.62 4294967295
-0.087437645 0.019413877 0.62 4294967295
-0.086279988 0.019416187 0.62 4294967295
-0.085122362 0.019418459 0.62 4294967295
-0.084235616 0.019483348 0.62199998 4294967295
-0.08294075 0.019454237 0.62099999 4294967295
-0.081781328 0.019456415 0.62099999 4294967295
-0.080621913 0.019458557 0.62099999 4294967295
-0.079462543 0.019460669 0.62099999 4294967295
-0.078303196 0.019462746 0.62099999 4294967295
-0.07714387 0.019464789 0.62099999 4294967295
-0.075984582 0.019466801 0.62099999 4294967295
-0.074945793 0.019500125 0.62199998 4294967295
-0.073903307 0.019533429 0.62300003 4294967295
-0.072740354 0.01953534 0.62300003 4294967295
-0.071807198 0.019599944 0.625 4294967295
-0.070527531 0.019570433 0.62400001 4294967295
-0.069362789 0.019572252 0.62400001 4294967295
-0.068198062 0.019574037 0.62400001 4294967295
-0.067033373 0.019575786 0.62400001 4294967295
-0.065868698 0.019577501 0.62400001 4294967295
-0.064704061 0.019579183 0.62400001 4294967295
-0.063539445 0.019580834 0.62400001 4294967295
-0.062474813 0.019613829 0.625 4294967295
-0.061308384 0.019615412 0.625 4294967295
-0.060141996 0.019616961 0.625 4294967295
-0.058975622 0.019618478 0.625 4294967295
-0.057994258 0.019682745 0.62699997 4294967295
-0.056914844 0.019715589 0.62800002 4294967295
-0.055742953 0.01971701 0.62800002 4294967295
-0.054571103 0.019718396 0.62800002 4294967295
-0.053569335 0.019782551 0.63 4294967295
-0.052393794 0.019783871 0.63 4294967295
-0.051218294 0.019785158 0.63 4294967295
-0.050042823 0.019786416 0.63 4294967295
-0.048944943 0.019819042 0.63099998 4294967295
-0.047767662 0.01982023 0.63099998 4294967295
-0.046590414 0.019821381 0.63099998 4294967295
-0.045413192 0.019822501 0.63099998 4294967295
-0.044236012 0.019823585 0.63099998 4294967295
-0.043263562 0.019918889 0.634 4294967295
-0.042147219 0.01995133 0.63499999 4294967295
-0.041091681 0.020015158 0.63700002 4294967295
-0.040091347 0.020110382 0.63999999 4294967295
-0.038897529 0.020111308 0.63999999 4294967295
-0.037762657 0.020143623 0.64099997 4294967295
-0.036567032 0.020144477 0.64099997 4294967295
-0.035371449 0.020145301 0.64099997 4294967295
-0.034229215 0.020177521 0.64200002 4294967295
-0.033083279 0.020209702 0.64300001 4294967295
-0.031884063 0.020210423 0.64300001 4294967295
-0.030684877 0.020211106 0.64300001 4294967295
-0.029485734 0.020211758 0.64300001 4294967295
-0.028330609 0.020243805 0.64399999 4294967295
-0.1332899 0.021117283 0.63999999 4294967295
-0.13168134 0.02105489 0.63800001 4294967295
-0.1304893 0.021058451 0.63800001 4294967295
-0.12889197 0.020995956 0.63599998 4294967295
-0.12750293 0.020966424 0.63499999 4294967295
-0.12611766 0.020936841 0.634 4294967295
-0.12453908 0.020874191 0.63200003 4294967295
-0.12335837 0.020877555 0.63200003 4294967295
-0.12198436 0.02084784 0.63099998 4294967295
-0.12061411 0.020818081 0.63 4294967295
-0.11924764 0.020788284 0.62900001 4294967295
-0.11807262 0.020791495 0.62900001 4294967295
-0.11671179 0.020761613 0.62800002 4294967295
-0.11535469 0.020731686 0.62699997 4294967295
-0.11418349 0.020734787 0.62699997 4294967295
-0.11247156 0.020638632 0.62400001 4294967295
-0.111306 0.020641649 0.62400001 4294967295
-0.11031696 0.020677719 0.625 4294967295
-0.10897493 0.020647585 0.62400001 4294967295
-0.10780945 0.020650508 0.62400001 4294967295
-0.10647307 0.020620294 0.62300003 4294967295
-0.10514043 0.020590037 0.62199998 4294967295
-0.10397875 0.020592848 0.62199998 4294967295
-0.10265177 0.020562511 0.62099999 4294967295
-0.101492 0.020565253 0.62099999 4294967295
-0.10033222 0.020567955 0.62099999 4294967295
-0.099012785 0.020537503 0.62 4294967295
-0.097854942 0.020540135 0.62 4294967295
-0.096697122 0.020542739 0.62 4294967295
-0.095539324 0.020545308 0.62 4294967295
-0.094381526 0.020547839 0.62 4294967295
-0.093223773 0.02055034 0.62 4294967295
-0.09191756 0.020519659 0.61900002 4294967295
-0.090761706 0.020522092 0.61900002 4294967295
-0.089750648 0.020557644 0.62 4294967295
-0.088592984 0.020560011 0.62 4294967295
-0.08743532 0.020562341 0.62 4294967295
-0.086277716 0.020564646 0.62 4294967295
-0.085120134 0.020566912 0.62 4294967295
-0.084233396 0.020635495 0.62199998 4294967295
-0.082938567 0.020604527 0.62099999 4294967295
-0.081779175 0.020606695 0.62099999 4294967295
-0.080489986 0.020575646 0.62 4294967295
-0.079332516 0.020577744 0.62 4294967295
-0.078048989 0.020546619 0.61900002 4294967295
-0.076893426 0.020548647 0.61900002 4294967295
-0.075737894 0.020550644 0.61900002 4294967295
-0.074823357 0.020619011 0.62099999 4294967295
-0.073782757 0.020654151 0.62199998 4294967295
-0.072621703 0.020656053 0.62199998 4294967295
-0.071575567 0.020691138 0.62300003 4294967295
-0.070525713 0.020726195 0.62400001 4294967295
-0.069360994 0.020728 0.62400001 4294967295
-0.068196312 0.020729776 0.62400001 4294967295
-0.066924237 0.020698294 0.62300003 4294967295
-0.065761454 0.020699997 0.62300003 4294967295
-0.064598724 0.020701671 0.62300003 4294967295
-0.063436009 0.02070331 0.62300003 4294967295
-0.062273312 0.02070491 0.62300003 4294967295
-0.061306842 0.020772953 0.625 4294967295
-0.060044244 0.020741254 0.62400001 4294967295
-0.058879774 0.020742759 0.62400001 4294967295
-0.057807822 0.020777471 0.625 4294967295
-0.056641541 0.020778907 0.625 4294967295
-0.055475287 0.020780314 0.625 4294967295
-0.054482844 0.020848183 0.62699997 4294967295
-0.05348298 0.020916032 0.62900001 4294967295
-0.052392501 0.020950599 0.63 4294967295
-0.051217031 0.020951875 0.63 4294967295
-0.050041597 0.020953121 0.63 4294967295
-0.048943747 0.020987593 0.63099998 4294967295
-0.047766507 0.020988768 0.63099998 4294967295
-0.046589293 0.020989908 0.63099998 4294967295
-0.045412101 0.02099102 0.63099998 4294967295
-0.044234958 0.020992095 0.63099998 4294967295
-0.043262545 0.021092946 0.634 4294967295
-0.042212591 0.021160495 0.63599998 4294967295
-0.041090719 0.021194745 0.63700002 4294967295
-0.039965138 0.021228969 0.63800001 4294967295
-0.038775083 0.021229878 0.63800001 4294967295
-0.037702881 0.021297306 0.63999999 4294967295
-0.03650916 0.021298153 0.63999999 4294967295
-0.035370652 0.02133224 0.64099997 4294967295
-0.034228455 0.021366304 0.64200002 4294967295
-0.033082552 0.021400327 0.64300001 4294967295
-0.03188337 0.021401033 0.64300001 4294967295
-0.030731941 0.021434993 0.64399999 4294967295
-0.029530965 0.021435631 0.64399999 4294967295
-0.028330021 0.021436235 0.64399999 4294967295
-0.13448209 0.022299299 0.63999999 4294967295
-0.13328631 0.022302939 0.63999999 4294967295
-0.13167778 0.022236833 0.63800001 4294967295
-0.13048577 0.022240391 0.63800001 4294967295
-0.12868585 0.022139315 0.63499999 4294967295
-0.12729871 0.022107918 0.634 4294967295
-0.12571643 0.0220416 0.63200003 4294967295
-0.12453572 0.022044988 0.63200003 4294967295
-0.12296469 0.021978568 0.63 4294967295
-0.12159444 0.021946987 0.62900001 4294967295
-0.12041943 0.021950258 0.62900001 4294967295
-0.11886527 0.021883693 0.62699997 4294967295
-0.11769402 0.021886887 0.62699997 4294967295
-0.11615112 0.021820225 0.625 4294967295
-0.11498366 0.021823343 0.625 4294967295
-0.1138162 0.021826424 0.625 4294967295
-0.11228832 0.021759626 0.62300003 4294967295
-0.11112465 0.021762632 0.62300003 4294967295
-0.11013751 0.021800542 0.62400001 4294967295
-0.10897202 0.021803489 0.62400001 4294967295
-0.10763379 0.021771453 0.62300003 4294967295
-0.10647022 0.021774329 0.62300003 4294967295
-0.10513762 0.021742212 0.62199998 4294967295
-0.10397597 0.021745013 0.62199998 4294967295
-0.10264904 0.021712821 0.62099999 4294967295
-0.10148929 0.021715553 0.62099999 4294967295
-0.10016798 0.021683278 0.62 4294967295
-0.098850451 0.021650963 0.61900002 4294967295
-0.097694524 0.021653587 0.61900002 4294967295
-0.096538596 0.021656174 0.61900002 4294967295
-0.095536783 0.02169372 0.62 4294967295
-0.09437903 0.021696249 0.62 4294967295
-0.093221307 0.021698741 0.62 4294967295
-0.092063613 0.021701204 0.62 4294967295
-0.090905935 0.021703629 0.62 4294967295
-0.089748271 0.021706024 0.62 4294967295
-0.088733539 0.021743398 0.62099999 4294967295
-0.087292016 0.021675693 0.61900002 4294967295
-0.086136304 0.021677984 0.61900002 4294967295
-0.08539246 0.02178531 0.62199998 4294967295
-0.084095769 0.021752518 0.62099999 4294967295
-0.082936391 0.021754712 0.62099999 4294967295
-0.081777036 0.021756873 0.62099999 4294967295
-0.080487885 0.021723965 0.62 4294967295
-0.079202496 0.021691011 0.61900002 4294967295
-0.077920869 0.021658024 0.61799997 4294967295
-0.076767199 0.021660041 0.61799997 4294967295
-0.075613573 0.021662023 0.61799997 4294967295
-0.074700944 0.021734087 0.62 4294967295
-0.073662236 0.021771068 0.62099999 4294967295
-0.072503082 0.021772962 0.62099999 4294967295
-0.071458839 0.021809883 0.62199998 4294967295
-0.07029786 0.021811713 0.62199998 4294967295
-0.069248065 0.021848578 0.62300003 4294967295
-0.06797599 0.021815266 0.62199998 4294967295
-0.066815101 0.021816997 0.62199998 4294967295
-0.065654226 0.021818686 0.62199998 4294967295
-0.064597085 0.021855429 0.62300003 4294967295
-0.063332573 0.021821972 0.62199998 4294967295
-0.06217178 0.021823565 0.62199998 4294967295
-0.061109122 0.021860214 0.62300003 4294967295
-0.059946511 0.021861739 0.62300003 4294967295
-0.058783945 0.021863231 0.62300003 4294967295
-0.057713889 0.021899784 0.62400001 4294967295
-0.056549504 0.021901211 0.62400001 4294967295
-0.05538515 0.021902604 0.62400001 4294967295
-0.054307714 0.021939065 0.625 4294967295
-0.053481661 0.022080813 0.62900001 4294967295
-0.05230806 0.022082113 0.62900001 4294967295
-0.051215786 0.022118488 0.63 4294967295
-0.050040379 0.02211972 0.63 4294967295
-0.048865002 0.022120923 0.63 4294967295
-0.047689654 0.022122085 0.63 4294967295
-0.046588182 0.022158336 0.63099998 4294967295
-0.045411021 0.022159433 0.63099998 4294967295
-0.044233903 0.022160498 0.63099998 4294967295
-0.043261532 0.022266893 0.634 4294967295
-0.042211611 0.022338133 0.63599998 4294967295
-0.041089766 0.02237423 0.63700002 4294967295
-0.039901581 0.022375166 0.63700002 4294967295
-0.038713422 0.022376062 0.63700002 4294967295
-0.037702031 0.022482313 0.63999999 4294967295
-0.036508344 0.022483148 0.63999999 4294967295
-0.035369869 0.022519078 0.64099997 4294967295
-0.034227703 0.022554979 0.64200002 4294967295
-0.033081833 0.02259084 0.64300001 4294967295
-0.031882692 0.022591537 0.64300001 4294967295
-0.030731294 0.022627333 0.64399999 4294967295
-0.029530352 0.022627961 0.64399999 4294967295
-0.028329443 0.022628555 0.64399999 4294967295
-0.13609822 0.023554577 0.64200002 4294967295
-0.13447845 0.023484856 0.63999999 4294967295
-0.13328272 0.02348849 0.63999999 4294967295
-0.13167423 0.023418669 0.63800001 4294967295
-0.13027775 0.02338551 0.63700002 4294967295
-0.12868237 0.023315586 0.63499999 4294967295
-0.12689371 0.023208883 0.63200003 4294967295
-0.12551412 0.023175569 0.63099998 4294967295
-0.12433532 0.023178948 0.63099998 4294967295
-0.12296138 0.023145551 0.63 4294967295
-0.12159119 0.023112111 0.62900001 4294967295
-0.12041619 0.023115376 0.62900001 4294967295
-0.11848292 0.022971591 0.625 4294967295
-0.11731544 0.022974767 0.625 4294967295
-0.116148 0.022977911 0.625 4294967295
-0.11498057 0.022981025 0.625 4294967295
-0.11381316 0.022984106 0.625 4294967295
-0.11210507 0.022876808 0.62199998 4294967295
-0.11094329 0.022879805 0.62199998 4294967295
-0.10978157 0.022882767 0.62199998 4294967295
-0.1087945 0.022922494 0.62300003 4294967295
-0.10745815 0.022888593 0.62199998 4294967295
-0.10629648 0.022891456 0.62199998 4294967295
-0.10513483 0.022894287 0.62199998 4294967295
-0.10380605 0.022860272 0.62099999 4294967295
-0.10264631 0.022863032 0.62099999 4294967295
-0.10132316 0.022828935 0.62 4294967295
-0.10016534 0.022831623 0.62 4294967295
-0.098847851 0.022797447 0.61900002 4294967295
-0.097534098 0.022763228 0.61799997 4294967295
-0.096380085 0.022765806 0.61799997 4294967295
-0.095226079 0.022768352 0.61799997 4294967295
-0.094072089 0.022770861 0.61799997 4294967295
-0.092918128 0.022773342 0.61799997 4294967295
-0.092061184 0.022849493 0.62 4294967295
-0.090903535 0.022851916 0.62 4294967295
-0.089745924 0.0228543 0.62 4294967295
-0.088445432 0.022819791 0.61900002 4294967295
-0.087289721 0.022822103 0.61900002 4294967295
-0.086134031 0.022824386 0.61900002 4294967295
-0.084978379 0.022826634 0.61900002 4294967295
-0.084093578 0.022902608 0.62099999 4294967295
-0.082800679 0.022867916 0.62 4294967295
-0.081643224 0.022870066 0.62 4294967295
-0.080355972 0.022835292 0.61900002 4294967295
-0.079072498 0.022800477 0.61799997 4294967295
-0.077918828 0.022802522 0.61799997 4294967295
-0.076765217 0.02280453 0.61799997 4294967295
-0.075611621 0.022806507 0.61799997 4294967295
-0.07445804 0.022808447 0.61799997 4294967295
-0.073423117 0.022847271 0.61900002 4294967295
-0.072384477 0.02288606 0.62 4294967295
-0.071227238 0.022887908 0.62 4294967295
-0.070070036 0.02288972 0.62 4294967295
-0.069023997 0.022928426 0.62099999 4294967295
-0.067974262 0.022967098 0.62199998 4294967295
-0.066705979 0.022931889 0.62099999 4294967295
-0.065547019 0.022933573 0.62099999 4294967295
-0.064491764 0.022972155 0.62199998 4294967295
-0.063330971 0.02297377 0.62199998 4294967295
-0.062170222 0.022975354 0.62199998 4294967295
-0.061009493 0.022976901 0.62199998 4294967295
-0.059945021 0.023015361 0.62300003 4294967295
-0.058782481 0.023016846 0.62300003 4294967295
-0.057619974 0.023018295 0.62300003 4294967295
-0.056457486 0.023019711 0.62300003 4294967295
-0.055295035 0.023021091 0.62300003 4294967295
-0.054219496 0.023059392 0.62400001 4294967295
-0.053395331 0.023208531 0.62800002 4294967295
-0.05230679 0.02324678 0.62900001 4294967295
-0.051133253 0.023248039 0.62900001 4294967295
-0.049959749 0.023249259 0.62900001 4294967295
-0.048863832 0.023287412 0.63 4294967295
-0.047688518 0.023288568 0.63 4294967295
-0.046587072 0.023326654 0.63099998 4294967295
-0.045409951 0.023327745 0.63099998 4294967295
-0.044232871 0.023328796 0.63099998 4294967295
-0.043124046 0.023366794 0.63200003 4294967295
-0.042144269 0.023478698 0.63499999 4294967295
-0.04102432 0.023516631 0.63599998 4294967295
-0.039838031 0.023517555 0.63599998 4294967295
-0.038651772 0.023518439 0.63599998 4294967295
-0.037583373 0.023593256 0.63800001 4294967295
-0.036507536 0.023668036 0.63999999 4294967295
-0.035369094 0.02370581 0.64099997 4294967295
-0.034226969 0.023743549 0.64200002 4294967295
-0.033081129 0.023781253 0.64300001 4294967295
-0.031882022 0.023781937 0.64300001 4294967295
-0.030730655 0.023819575 0.64399999 4294967295
-0.029529752 0.023820192 0.64399999 4294967295
-0.028416853 0.02389475 0.64600003 4294967295
-0.13588257 0.024705196 0.64099997 4294967295
-0.13447484 0.02467031 0.63999999 4294967295
-0.13327911 0.024673933 0.63999999 4294967295
-0.13167068 0.024600407 0.63800001 4294967295
-0.13027425 0.024565388 0.63700002 4294967295
-0.12867892 0.024491752 0.63499999 4294967295
-0.12668952 0.024340909 0.63099998 4294967295
-0.12531184 0.024305733 0.63 4294967295
-0.12413494 0.024309101 0.63 4294967295
-0.12295809 0.024312435 0.63 4294967295
-0.12158793 0.024277134 0.62900001 4294967295
-0.12022153 0.024241792 0.62800002 4294967295
-0.11847976 0.02412919 0.625 4294967295
-0.11712461 0.024093755 0.62400001 4294967295
-0.11595906 0.024096888 0.62400001 4294967295
-0.11460958 0.024061367 0.62300003 4294967295
-0.11326383 0.024025798 0.62199998 4294967295
-0.11192185 0.02399019 0.62099999 4294967295
-0.11076199 0.023993177 0.62099999 4294967295
-0.10960215 0.023996126 0.62099999 4294967295
-0.10844234 0.023999047 0.62099999 4294967295
-0.10728254 0.024001932 0.62099999 4294967295
-0.10612275 0.024004783 0.62099999 4294967295
-0.10496302 0.0240076 0.62099999 4294967295
-0.10363614 0.023971723 0.62 4294967295
-0.1024783 0.023974469 0.62 4294967295
-0.10132048 0.023977183 0.62 4294967295
-0.10000113 0.023941187 0.61900002 4294967295
-0.09868554 0.023905149 0.61799997 4294967295
-0.097215891 0.02383038 0.616 4294967295
-0.09606564 0.023832943 0.616 4294967295
-0.094915405 0.023835473 0.616 4294967295
-0.093765192 0.023837972 0.616 4294967295
-0.092614993 0.023840435 0.616 4294967295
-0.091464832 0.023842867 0.616 4294967295
-0.090314694 0.023845261 0.616 4294967295
-0.089454062 0.023925049 0.61799997 4294967295
-0.088443115 0.023966108 0.61900002 4294967295
-0.087287441 0.023968417 0.61900002 4294967295
-0.086131789 0.02397069 0.61900002 4294967295
-0.08483889 0.023934202 0.61799997 4294967295
-0.083685152 0.023936408 0.61799997 4294967295
-0.08253143 0.023938574 0.61799997 4294967295
-0.081377745 0.02394071 0.61799997 4294967295
-0.080224082 0.023942813 0.61799997 4294967295
-0.078814544 0.023867393 0.616 4294967295
-0.077664681 0.023869421 0.616 4294967295
-0.076514818 0.023871418 0.616 4294967295
-0.075364985 0.023873378 0.616 4294967295
-0.074456133 0.023952821 0.61799997 4294967295
-0.073302612 0.023954723 0.61799997 4294967295
-0.072265878 0.023995362 0.61900002 4294967295
-0.07122542 0.024035964 0.62 4294967295
-0.070068248 0.024037771 0.62 4294967295
-0.069022253 0.024078315 0.62099999 4294967295
-0.067863256 0.024080055 0.62099999 4294967295
-0.066704303 0.024081759 0.62099999 4294967295
-0.065545365 0.024083436 0.62099999 4294967295
-0.064490147 0.024123859 0.62199998 4294967295
-0.063329391 0.024125466 0.62199998 4294967295
-0.062168673 0.024127042 0.62199998 4294967295
-0.06100798 0.02412858 0.62199998 4294967295
-0.059943527 0.024168883 0.62300003 4294967295
-0.058781035 0.024170358 0.62300003 4294967295
-0.057618551 0.024171798 0.62300003 4294967295
-0.056456104 0.024173204 0.62300003 4294967295
-0.055293683 0.024174577 0.62300003 4294967295
-0.054131292 0.024175914 0.62300003 4294967295
-0.053309012 0.024332447 0.62699997 4294967295
-0.052222367 0.024372533 0.62800002 4294967295
-0.051050734 0.024373783 0.62800002 4294967295
-0.049879134 0.024374992 0.62800002 4294967295
-0.048707556 0.024376169 0.62800002 4294967295
-0.047536004 0.024377309 0.62800002 4294967295
-0.046438318 0.024417236 0.62900001 4294967295
-0.045336932 0.024457132 0.63 4294967295
-0.044161748 0.024458174 0.63 4294967295
-0.043054823 0.024498004 0.63099998 4294967295
-0.042076934 0.024615457 0.634 4294967295
-0.040958889 0.024655228 0.63499999 4294967295
-0.039774496 0.024656137 0.63499999 4294967295
-0.038650915 0.024695842 0.63599998 4294967295
-0.037523635 0.024735518 0.63700002 4294967295
-0.036506739 0.024852823 0.63999999 4294967295
-0.035313156 0.0248536 0.63999999 4294967295
-0.034172922 0.024893178 0.64099997 4294967295
-0.033028986 0.024932722 0.64200002 4294967295
-0.031881358 0.024972232 0.64300001 4294967295
-0.030682318 0.024972873 0.64300001 4294967295
-0.029529162 0.025012314 0.64399999 4294967295
-0.0284163 0.025090564 0.64600003 4294967295
-0.13587889 0.025892403 0.64099997 4294967295
-0.13447121 0.025855662 0.63999999 4294967295
-0.13285907 0.025778471 0.63800001 4294967295
-0.13146077 0.025741631 0.63700002 4294967295
-0.13006623 0.025704745 0.63599998 4294967295
-0.12847283 0.025627395 0.634 4294967295
-0.12648536 0.025469134 0.63 4294967295
-0.12530848 0.025472527 0.63 4294967295
-0.12393458 0.025435448 0.62900001 4294967295
-0.12275963 0.025438769 0.62900001 4294967295
-0.12158468 0.025442056 0.62900001 4294967295
-0.12021831 0.025404856 0.62800002 4294967295
-0.11847659 0.025286691 0.625 4294967295
-0.11712149 0.025249394 0.62400001 4294967295
-0.11595598 0.025252523 0.62400001 4294967295
-0.11442255 0.025174668 0.62199998 4294967295
-0.11326081 0.025177717 0.62199998 4294967295
-0.11191887 0.025140248 0.62099999 4294967295
-0.11075904 0.025143228 0.62099999 4294967295
-0.10959924 0.025146173 0.62099999 4294967295
-0.10843945 0.025149088 0.62099999 4294967295
-0.10710694 0.025111465 0.62 4294967295
-0.10594906 0.025114303 0.62 4294967295
-0.10479122 0.025117112 0.62 4294967295
-0.10363339 0.025119884 0.62 4294967295
-0.10247558 0.025122626 0.62 4294967295
-0.10131779 0.025125332 0.62 4294967295
-0.099998482 0.025087478 0.61900002 4294967295
-0.098682933 0.025049577 0.61799997 4294967295
-0.097213335 0.024971101 0.616 4294967295
-0.0960631 0.024973655 0.616 4294967295
-0.094912916 0.024976179 0.616 4294967295
-0.093762726 0.024978671 0.616 4294967295
-0.092612572 0.02498113 0.616 4294967295
-0.091462433 0.024983551 0.616 4294967295
-0.090312324 0.024985939 0.616 4294967295
-0.08945173 0.025069423 0.61799997 4294967295
-0.088297926 0.025071755 0.61799997 4294967295
-0.087144151 0.025074054 0.61799997 4294967295
-0.085990392 0.025076315 0.61799997 4294967295
-0.08456213 0.024997385 0.616 4294967295
-0.08341217 0.024999576 0.616 4294967295
-0.082262211 0.025001727 0.616 4294967295
-0.081112288 0.025003852 0.616 4294967295
-0.079962403 0.025005938 0.616 4294967295
-0.078812532 0.025007997 0.616 4294967295
-0.077662684 0.025010016 0.616 4294967295
-0.076512858 0.025012005 0.616 4294967295
-0.075363055 0.025013959 0.616 4294967295
-0.074454226 0.025097096 0.61799997 4294967295
-0.073300749 0.025098989 0.61799997 4294967295
-0.072264045 0.02514147 0.61900002 4294967295
-0.07133849 0.025224533 0.62099999 4294967295
-0.070179485 0.025226332 0.62099999 4294967295
-0.06902051 0.0252281 0.62099999 4294967295
-0.067861542 0.02522983 0.62099999 4294967295
-0.066702619 0.025231531 0.62099999 4294967295
-0.065543719 0.025233198 0.62099999 4294967295
-0.064384848 0.025234828 0.62099999 4294967295
-0.063226007 0.025236426 0.62099999 4294967295
-0.062067177 0.025237989 0.62099999 4294967295
-0.061006464 0.025280155 0.62199998 4294967295
-0.059845835 0.025281655 0.62199998 4294967295
-0.058685236 0.025283119 0.62199998 4294967295
-0.057524651 0.025284549 0.62199998 4294967295
-0.0563641 0.025285941 0.62199998 4294967295
-0.055203579 0.025287302 0.62199998 4294967295
-0.054129984 0.025329288 0.62300003 4294967295
-0.052967653 0.025330581 0.62300003 4294967295
-0.051971655 0.025413163 0.625 4294967295
-0.050805651 0.025414392 0.625 4294967295
-0.049639679 0.025415588 0.625 4294967295
-0.048473731 0.025416747 0.625 4294967295
-0.047307812 0.025417875 0.625 4294967295
-0.046363413 0.025540978 0.62800002 4294967295
-0.045263924 0.025582714 0.62900001 4294967295
-0.04409064 0.025583746 0.62900001 4294967295
-0.042985614 0.025625413 0.63 4294967295
-0.041943256 0.025707733 0.63200003 4294967295
-0.040764466 0.02570866 0.63200003 4294967295
-0.03971098 0.025790917 0.634 4294967295
-0.038589295 0.025832461 0.63499999 4294967295
-0.03740501 0.025833292 0.63499999 4294967295
-0.036391877 0.025956137 0.63800001 4294967295
-0.03520206 0.025956901 0.63800001 4294967295
-0.034118898 0.026039001 0.63999999 4294967295
-0.032976858 0.026080385 0.64099997 4294967295
-0.031781547 0.026081042 0.64099997 4294967295
-0.030586267 0.026081672 0.64099997 4294967295
-0.029482732 0.026163641 0.64300001 4294967295
-0.028415754 0.026286274 0.64600003 4294967295
-0.13566327 0.027037263 0.63999999 4294967295
-0.1340474 0.026956405 0.63800001 4294967295
-0.13285549 0.026960004 0.63800001 4294967295
-0.13145724 0.026921308 0.63700002 4294967295
-0.12985826 0.026840298 0.63499999 4294967295
-0.12806413 0.026716957 0.63200003 4294967295
-0.12648197 0.026635829 0.63 4294967295
-0.12510623 0.026596932 0.62900001 4294967295
-0.12393127 0.026600281 0.62900001 4294967295
-0.12256118 0.026561299 0.62800002 4294967295
-0.12138813 0.026564578 0.62800002 4294967295
-0.11964082 0.026440898 0.625 4294967295
-0.11828389 0.026401782 0.62400001 4294967295
-0.11711836 0.026404934 0.62400001 4294967295
-0.11558123 0.026323413 0.62199998 4294967295
-0.11441951 0.026326491 0.62199998 4294967295
-0.1132578 0.026329536 0.62199998 4294967295
-0.11191589 0.02629021 0.62099999 4294967295
-0.11075609 0.026293181 0.62099999 4294967295
-0.10959633 0.026296122 0.62099999 4294967295
-0.10826197 0.026256679 0.62 4294967295
-0.10693136 0.026217192 0.61900002 4294967295
-0.10577538 0.02622002 0.61900002 4294967295
-0.10461944 0.026222818 0.61900002 4294967295
-0.10346352 0.026225578 0.61900002 4294967295
-0.10230761 0.026228307 0.61900002 4294967295
-0.10115172 0.026231004 0.61900002 4294967295
-0.099995859 0.026233668 0.61900002 4294967295
-0.098680325 0.026193906 0.61799997 4294967295
-0.097526394 0.026196498 0.61799997 4294967295
-0.096060589 0.02611427 0.616 4294967295
-0.094910428 0.026116788 0.616 4294967295
-0.093760274 0.026119269 0.616 4294967295
-0.092610143 0.026121717 0.616 4294967295
-0.091460049 0.026124135 0.616 4294967295
-0.09030997 0.026126521 0.616 4294967295
-0.089159921 0.026128866 0.616 4294967295
-0.088009886 0.026131181 0.616 4294967295
-0.086859874 0.026133463 0.616 4294967295
-0.085709885 0.026135711 0.616 4294967295
-0.08455994 0.026137926 0.616 4294967295
-0.083274603 0.02609767 0.61500001 4294967295
-0.082126558 0.026099818 0.61500001 4294967295
-0.080978535 0.026101928 0.61500001 4294967295
-0.079830535 0.026104005 0.61500001 4294967295
-0.078682557 0.026106047 0.61500001 4294967295
-0.077534616 0.026108056 0.61500001 4294967295
-0.076510891 0.02615249 0.616 4294967295
-0.07536114 0.026154438 0.616 4294967295
-0.074211389 0.026156347 0.616 4294967295
-0.073298886 0.026243158 0.61799997 4294967295
-0.072145455 0.026245007 0.61799997 4294967295
-0.071336679 0.026374238 0.62099999 4294967295
-0.070177719 0.026376028 0.62099999 4294967295
-0.069018766 0.026377786 0.62099999 4294967295
-0.067750573 0.026337031 0.62 4294967295
-0.06659355 0.026338721 0.62 4294967295
-0.065436549 0.026340371 0.62 4294967295
-0.064279579 0.026341993 0.62 4294967295
-0.063122623 0.02634358 0.62 4294967295
-0.061965704 0.02634513 0.62 4294967295
-0.060906883 0.026389139 0.62099999 4294967295
-0.059748154 0.026390625 0.62099999 4294967295
-0.058589451 0.026392076 0.62099999 4294967295
-0.057523254 0.026435994 0.62199998 4294967295
-0.056362741 0.026437381 0.62199998 4294967295
-0.055202249 0.02643873 0.62199998 4294967295
-0.054041792 0.026440047 0.62199998 4294967295
-0.052966386 0.026483841 0.62300003 4294967295
-0.051804118 0.026485095 0.62300003 4294967295
-0.050723162 0.026528822 0.62400001 4294967295
-0.049559087 0.026530009 0.62400001 4294967295
-0.048395041 0.026531156 0.62400001 4294967295
-0.047231026 0.026532272 0.62400001 4294967295
-0.046140868 0.026575871 0.625 4294967295
-0.045118961 0.02666197 0.62699997 4294967295
-0.044019546 0.026705509 0.62800002 4294967295
-0.042916413 0.026749019 0.62900001 4294967295
-0.041875955 0.026835026 0.63099998 4294967295
-0.040763568 0.026878474 0.63200003 4294967295
-0.039710112 0.026964419 0.634 4294967295
-0.03852769 0.026965274 0.634 4294967295
-0.037404206 0.027008625 0.63499999 4294967295
-0.036334068 0.02709448 0.63700002 4294967295
-0.035146147 0.027095228 0.63700002 4294967295
-0.034011573 0.027138483 0.63800001 4294967295
-0.032924745 0.027224239 0.63999999 4294967295
-0.031780913 0.027267426 0.64099997 4294967295
-0.030585671 0.027268043 0.64099997 4294967295
-0.029436316 0.027311163 0.64200002 4294967295
-0.028327247 0.027396791 0.64399999 4294967293
-0.1352357 0.028134216 0.63800001 4294967295
-0.13383371 0.02809374 0.63700002 4294967295
-0.13264371 0.028097332 0.63700002 4294967295
-0.13104099 0.028012652 0.63499999 4294967295
-0.12924129 0.027883803 0.63200003 4294967295
-0.12765543 0.027799012 0.63 4294967295
-0.1264786 0.027802425 0.63 4294967295
-0.12510289 0.027761668 0.62900001 4294967295
-0.12373094 0.027720869 0.62800002 4294967295
-0.12255791 0.027724175 0.62800002 4294967295
-0.1211916 0.027683286 0.62699997 4294967295
-0.11963764 0.0275982 0.625 4294967295
-0.11828072 0.027557226 0.62400001 4294967295
-0.11711525 0.027560374 0.62400001 4294967295
-0.11557816 0.027475141 0.62199998 4294967295
-0.11441647 0.027478211 0.62199998 4294967295
-0.11325479 0.027481249 0.62199998 4294967295
-0.11191292 0.027440067 0.62099999 4294967295
-0.11075316 0.027443033 0.62099999 4294967295
-0.10941694 0.02740177 0.62 4294967295
-0.1082591 0.027404666 0.62 4294967295
-0.10675578 0.027319115 0.61799997 4294967295
-0.10560169 0.027321929 0.61799997 4294967295
-0.10444766 0.027324716 0.61799997 4294967295
-0.10295936 0.027239028 0.616 4294967295
-0.10180908 0.027241737 0.616 4294967295
-0.10098564 0.027332867 0.61799997 4294967295
-0.099831678 0.027335523 0.61799997 4294967295
-0.098677747 0.02733814 0.61799997 4294967295
-0.097523831 0.027340719 0.61799997 4294967295
-0.096058063 0.027254783 0.616 4294967295
-0.094907932 0.027257295 0.616 4294967295
-0.093757823 0.027259769 0.616 4294967295
-0.092607737 0.027262211 0.616 4294967295
-0.091457665 0.027264616 0.616 4294967295
-0.090307631 0.027266996 0.616 4294967295
-0.089157604 0.027269334 0.616 4294967295
-0.088007607 0.027271645 0.616 4294967295
-0.086857632 0.027273916 0.616 4294967295
-0.085707672 0.027276156 0.616 4294967295
-0.084557764 0.027278364 0.616 4294967295
-0.083272457 0.027236253 0.61500001 4294967295
-0.082124449 0.027238391 0.61500001 4294967295
-0.08084479 0.027196201 0.61400002 4294967295
-0.079698689 0.027198264 0.61400002 4294967295
-0.078552619 0.027200298 0.61400002 4294967295
-0.077532634 0.027246602 0.61500001 4294967295
-0.076384746 0.027248571 0.61500001 4294967295
-0.075236887 0.027250506 0.61500001 4294967295
-0.074209504 0.027296714 0.616 4294967295
-0.073059827 0.027298588 0.616 4294967295
-0.072143644 0.027389061 0.61799997 4294967295
-0.071105152 0.027435193 0.61900002 4294967295
-0.069949955 0.027436974 0.61900002 4294967295
-0.068794765 0.027438715 0.61900002 4294967295
-0.067530327 0.02739609 0.61799997 4294967295
-0.066377081 0.027397767 0.61799997 4294967295
-0.065223843 0.027399406 0.61799997 4294967295
-0.064070635 0.027401011 0.61799997 4294967295
-0.062917449 0.027402584 0.61799997 4294967295
-0.061964177 0.02749281 0.62 4294967295
-0.060807325 0.027494317 0.62 4294967295
-0.059650492 0.02749579 0.62 4294967295
-0.058588032 0.02754158 0.62099999 4294967295
-0.057429388 0.027542992 0.62099999 4294967295
-0.056270763 0.027544361 0.62099999 4294967295
-0.055112179 0.027545702 0.62099999 4294967295
-0.054040506 0.027591368 0.62199998 4294967295
-0.052880112 0.027592639 0.62199998 4294967295
-0.051719736 0.027593877 0.62199998 4294967295
-0.050640691 0.027639452 0.62300003 4294967295
-0.04947852 0.027640624 0.62300003 4294967295
-0.048316374 0.027641764 0.62300003 4294967295
-0.047154255 0.027642863 0.62300003 4294967295
-0.046139814 0.02773268 0.625 4294967295
-0.044974029 0.027733715 0.625 4294967295
-0.043948453 0.027823469 0.62699997 4294967295
-0.042778999 0.027824441 0.62699997 4294967295
-0.041875027 0.028002892 0.63099998 4294967295
-0.040762678 0.028048182 0.63200003 4294967295
-0.039709251 0.028137822 0.634 4294967295
-0.038526867 0.028138662 0.634 4294967295
-0.037403412 0.028183851 0.63499999 4294967295
-0.036276262 0.028229007 0.63599998 4294967295
-0.035145424 0.028274138 0.63700002 4294967295
-0.033957575 0.028274843 0.63700002 4294967295
-0.032821201 0.028319901 0.63800001 4294967295
-0.031730711 0.028409315 0.63999999 4294967295
-0.030537369 0.028409917 0.63999999 4294967295
-0.029435763 0.028499268 0.64200002 4294967295
-0.028326729 0.028588586 0.64399999 4294967292
-0.13502014 0.02926961 0.63700002 4294967295
-0.13362002 0.02922727 0.63599998 4294967295
-0.13201547 0.029138923 0.634 4294967295
-0.13041842 0.029050525 0.63200003 4294967295
-0.12903334 0.029008035 0.63099998 4294967295
-0.12765202 0.028965505 0.63 4294967295
-0.12627447 0.028922934 0.62900001 4294967295
-0.12509955 0.0289263 0.62900001 4294967295
-0.12372764 0.028883645 0.62800002 4294967295
-0.12235949 0.028840939 0.62699997 4294967295
-0.12080182 0.028752193 0.625 4294967295
-0.11963446 0.028755406 0.625 4294967295
-0.11827757 0.028712571 0.62400001 4294967295
-0.11692446 0.028669694 0.62300003 4294967295
-0.11538929 0.028580748 0.62099999 4294967295
-0.11422949 0.028583806 0.62099999 4294967295
-0.11306971 0.028586835 0.62099999 4294967295
-0.11190995 0.028589826 0.62099999 4294967295
-0.11075022 0.028592784 0.62099999 4294967295
-0.1092376 0.028503615 0.61900002 4294967295
-0.10808163 0.028506499 0.61900002 4294967295
-0.10675295 0.028463287 0.61799997 4294967295
-0.10559892 0.0284661 0.61799997 4294967295
-0.10410689 0.028376747 0.616 4294967295
-0.10295665 0.028379483 0.616 4294967295
-0.1018064 0.028382184 0.616 4294967295
-0.1006562 0.028384855 0.616 4294967295
-0.099505998 0.028387491 0.616 4294967295
-0.098675169 0.028482268 0.61799997 4294967295
-0.097521283 0.028484844 0.61799997 4294967295
-0.09605556 0.028395196 0.616 4294967295
-0.094905458 0.028397694 0.616 4294967295
-0.093755379 0.028400164 0.616 4294967295
-0.092605323 0.028402599 0.616 4294967295
-0.091455296 0.028405003 0.616 4294967295
-0.090158686 0.028361255 0.61500001 4294967295
-0.089010566 0.028363585 0.61500001 4294967295
-0.087862469 0.02836588 0.61500001 4294967295
-0.086714402 0.028368145 0.61500001 4294967295
-0.085705474 0.028416503 0.616 4294967295
-0.084418312 0.028372571 0.61500001 4294967295
-0.083270311 0.028374733 0.61500001 4294967295
-0.081988797 0.028330721 0.61400002 4294967295
-0.080842718 0.028332816 0.61400002 4294967295
-0.079696655 0.028334875 0.61400002 4294967295
-0.078550622 0.028336896 0.61400002 4294967295
-0.077404611 0.028338889 0.61400002 4294967295
-0.076258607 0.028340846 0.61400002 4294967295
-0.075112648 0.028342769 0.61400002 4294967295
-0.074087173 0.028390823 0.61500001 4294967295
-0.072939381 0.028392682 0.61500001 4294967295
-0.07190837 0.028440678 0.616 4294967295
-0.070988499 0.028534818 0.61799997 4294967295
-0.069835193 0.028536581 0.61799997 4294967295
-0.068681918 0.028538315 0.61799997 4294967295
-0.067528658 0.028540013 0.61799997 4294967295
-0.066375427 0.028541679 0.61799997 4294967295
-0.065011159 0.028450938 0.616 4294967295
-0.063861713 0.028452529 0.616 4294967295
-0.062915906 0.028546471 0.61799997 4294967295
-0.061962668 0.028640388 0.62 4294967295
-0.060805846 0.028641887 0.62 4294967295
-0.059649047 0.028643353 0.62 4294967295
-0.058586616 0.028690984 0.62099999 4294967295
-0.057428002 0.028692381 0.62099999 4294967295
-0.056269422 0.028693747 0.62099999 4294967295
-0.055110868 0.028695077 0.62099999 4294967295
-0.054039229 0.028742582 0.62199998 4294967295
-0.052878864 0.028743846 0.62199998 4294967295
-0.051718529 0.028745079 0.62199998 4294967295
-0.050558221 0.02874627 0.62199998 4294967295
-0.049397949 0.028747434 0.62199998 4294967295
-0.048160147 0.028702337 0.62099999 4294967295
-0.047001801 0.028703431 0.62099999 4294967295
-0.045917299 0.028750705 0.62199998 4294967295
-0.044757143 0.028751729 0.62199998 4294967295
-0.043597013 0.028752716 0.62199998 4294967295
-0.042778052 0.028984811 0.62699997 4294967295
-0.041608661 0.028985739 0.62699997 4294967295
-0.040632796 0.029125322 0.63 4294967295
-0.039457876 0.029126186 0.63 4294967295
-0.03834375 0.029173244 0.63099998 4294967295
-0.037343729 0.029312741 0.634 4294967295
-0.036218479 0.029359737 0.63499999 4294967295
-0.035034362 0.029360466 0.63499999 4294967295
-0.033903588 0.029407391 0.63599998 4294967295
-0.032717668 0.029408053 0.63599998 4294967295
-0.031581368 0.02945492 0.63700002 4294967295
-0.030393653 0.029455507 0.63700002 4294967295
-0.13836895 0.030390181 0.63599998 4294967295
-0.13718081 0.030393885 0.63599998 4294967295
-0.13599266 0.030397557 0.63599998 4294967295
-0.13459259 0.030353395 0.63499999 4294967295
-0.13340637 0.03035699 0.63499999 4294967295
-0.13159552 0.030217122 0.63200003 4294967295
-0.13041493 0.030220637 0.63200003 4294967295
-0.12902991 0.030176289 0.63099998 4294967295
-0.12764862 0.030131901 0.63 4294967295
-0.1262711 0.030087471 0.62900001 4294967295
-0.12489735 0.030042991 0.62800002 4294967295
-0.12372435 0.030046318 0.62800002 4294967295
-0.12235624 0.030001754 0.62699997 4294967295
-0.12079861 0.029909298 0.625 4294967295
-0.11963128 0.029912505 0.625 4294967295
-0.11827444 0.029867811 0.62400001 4294967295
-0.11673367 0.029775206 0.62199998 4294967295
-0.11538623 0.029730422 0.62099999 4294967295
-0.11404252 0.029685596 0.62 4294967295
-0.11288466 0.02968861 0.62 4294967295
-0.11172681 0.029691592 0.62 4294967295
-0.11056897 0.02969454 0.62 4294967295
-0.10905824 0.029601654 0.61799997 4294967295
-0.10790418 0.029604528 0.61799997 4294967295
-0.10640468 0.029511549 0.616 4294967295
-0.10525442 0.029514346 0.616 4294967295
-0.10410416 0.029517109 0.616 4294967295
-0.10295394 0.029519837 0.616 4294967295
-0.10180374 0.029522531 0.616 4294967295
-0.10065356 0.029525191 0.616 4294967295
