# .PCD v0.7 - Point Cloud Data file format
VERSION 0.7
FIELDS x y z rgba
SIZE 4 4 4 4
TYPE F F F U
COUNT 1 1 1 1
WIDTH 1024
HEIGHT 1
VIEWPOINT 0 0 0 1 0 0 0
POINTS 1024
DATA ascii
-0.067160375 -0.086089268 0.77100003 4294967295
-0.065548301 -0.085863374 0.76899999 4294967295
-0.064110473 -0.085860848 0.76899999 4294967295
-0.062672682 -0.085858352 0.76899999 4294967295
-0.061234944 -0.085855894 0.76899999 4294967295
-0.059797231 -0.085853465 0.76899999 4294967295
-0.058359545 -0.085851073 0.76899999 4294967295
-0.05692191 -0.085848726 0.76899999 4294967295
-0.055484314 -0.085846394 0.76899999 4294967295
-0.054046754 -0.085844114 0.76899999 4294967295
-0.05260922 -0.085841857 0.76899999 4294967295
-0.051038656 -0.085616395 0.76700002 4294967295
-0.049604952 -0.085614212 0.76700002 4294967295
-0.048171286 -0.085612066 0.76700002 4294967295
-0.046859529 -0.085833199 0.76899999 4294967295
-0.045422196 -0.085831113 0.76899999 4294967295
-0.043984909 -0.085829072 0.76899999 4294967295
-0.042547666 -0.08582706 0.76899999 4294967295
-0.041110456 -0.085825086 0.76899999 4294967295
-0.039673291 -0.085823148 0.76899999 4294967295
-0.038236167 -0.085821241 0.76899999 4294967295
-0.036894791 -0.086042568 0.77100003 4294967295
-0.035362039 -0.085817531 0.76899999 4294967295
-0.033925038 -0.085815728 0.76899999 4294967295
-0.032572579 -0.086037152 0.77100003 4294967295
-0.031212678 -0.086258583 0.773 4294967295
-0.029806845 -0.086368464 0.77399999 4294967295
-0.028360674 -0.086366788 0.77399999 4294967295
-0.026984088 -0.086588308 0.77600002 4294967295
-0.02553427 -0.086586699 0.77600002 4294967295
-0.024022417 -0.08636196 0.77399999 4294967295
-0.022576421 -0.086360425 0.77399999 4294967295
-0.02118507 -0.086582072 0.77600002 4294967295
-0.019735429 -0.086580604 0.77600002 4294967295
-0.018285831 -0.086579159 0.77600002 4294967295
-0.01683628 -0.086577766 0.77600002 4294967295
-0.07825169 -0.085769758 0.78100002 4294967295
-0.076299563 -0.085217834 0.77600002 4294967295
-0.074655518 -0.084995411 0.77399999 4294967295
-0.073208176 -0.084992655 0.77399999 4294967295
-0.071668133 -0.084880151 0.773 4294967295
-0.070222721 -0.084877484 0.773 4294967295
-0.068421453 -0.084435642 0.76899999 4294967295
-0.066983588 -0.084433049 0.76899999 4294967295
-0.065545768 -0.084430501 0.76899999 4294967295
-0.063941255 -0.084208407 0.76700002 4294967295
-0.062507242 -0.084205933 0.76700002 4294967295
-0.061073266 -0.084203482 0.76700002 4294967295
-0.059794836 -0.084420644 0.76899999 4294967295
-0.05835719 -0.08441826 0.76899999 4294967295
-0.056771562 -0.084196374 0.76700002 4294967295
-0.055337738 -0.084194072 0.76700002 4294967295
-0.053903949 -0.084191807 0.76700002 4294967295
-0.052470192 -0.084189571 0.76700002 4294967295
-0.051036485 -0.084187366 0.76700002 4294967295
-0.049602814 -0.084185205 0.76700002 4294967295
-0.048169177 -0.084183075 0.76700002 4294967295
-0.046735585 -0.084180988 0.76700002 4294967295
-0.04530203 -0.084178932 0.76700002 4294967295
-0.043868512 -0.084176905 0.76700002 4294967295
-0.042435039 -0.084174909 0.76700002 4294967295
-0.041001607 -0.084172957 0.76700002 4294967295
-0.039568212 -0.084171034 0.76700002 4294967295
-0.038134858 -0.084169149 0.76700002 4294967295
-0.036797244 -0.084386751 0.76899999 4294967295
-0.035360239 -0.084384941 0.76899999 4294967295
-0.033923272 -0.084383138 0.76899999 4294967295
-0.032486346 -0.084381387 0.76899999 4294967295
-0.031049464 -0.084379673 0.76899999 4294967295
-0.029766656 -0.084816888 0.773 4294967295
-0.028249113 -0.084595792 0.77100003 4294967295
-0.026808619 -0.084594175 0.77100003 4294967295
-0.02543398 -0.084812008 0.773 4294967295
-0.024020877 -0.084920175 0.77399999 4294967295
-0.022574915 -0.084918655 0.77399999 4294967295
-0.021128999 -0.084917158 0.77399999 4294967295
-0.01973399 -0.085135132 0.77600002 4294967295
-0.018284425 -0.085133702 0.77600002 4294967295
-0.016834909 -0.085132323 0.77600002 4294967295
-0.0796073 -0.084209435 0.77999997 4294967295
-0.078148656 -0.084206574 0.77999997 4294967295
-0.076100126 -0.083556019 0.77399999 4294967295
-0.074652784 -0.083553262 0.77399999 4294967295
-0.073205464 -0.08355052 0.77399999 4294967295
-0.071665473 -0.083439879 0.773 4294967295
-0.070038408 -0.083221346 0.77100003 4294967295
-0.068418875 -0.083002858 0.76899999 4294967295
-0.066981047 -0.08300028 0.76899999 4294967295
-0.065543257 -0.082997739 0.76899999 4294967295
-0.063938789 -0.082779385 0.76700002 4294967295
-0.062504806 -0.082776919 0.76700002 4294967295
-0.061070859 -0.08277449 0.76700002 4294967295
-0.059636954 -0.082772091 0.76700002 4294967295
-0.058203094 -0.082769744 0.76700002 4294967295
-0.056695241 -0.082659498 0.76599997 4294967295
-0.055263314 -0.082657211 0.76599997 4294967295
-0.053831443 -0.08265496 0.76599997 4294967295
-0.052399587 -0.08265274 0.76599997 4294967295
-0.050967779 -0.082650557 0.76599997 4294967295
-0.049536016 -0.082648411 0.76599997 4294967295
-0.048104282 -0.082646303 0.76599997 4294967295
-0.04667259 -0.082644224 0.76599997 4294967295
-0.045240939 -0.082642175 0.76599997 4294967295
-0.043809332 -0.082640164 0.76599997 4294967295
-0.042377755 -0.082638189 0.76599997 4294967295
-0.040946227 -0.082636252 0.76599997 4294967295
-0.039514735 -0.082634345 0.76599997 4294967295
-0.038083285 -0.082632482 0.76599997 4294967295
-0.036651876 -0.082630649 0.76599997 4294967295
-0.035220511 -0.082628846 0.76599997 4294967295
-0.033833295 -0.08273495 0.76700002 4294967295
-0.032400142 -0.082733206 0.76700002 4294967295
-0.030967033 -0.082731508 0.76700002 4294967295
-0.029610975 -0.082945555 0.76899999 4294967295
-0.028174214 -0.082943924 0.76899999 4294967295
-0.026737494 -0.082942329 0.76899999 4294967295
-0.025300819 -0.082940757 0.76899999 4294967295
-0.023926256 -0.083154932 0.77100003 4294967295
-0.022485934 -0.083153427 0.77100003 4294967295
-0.021127544 -0.083475508 0.77399999 4294967295
-0.019681705 -0.08347407 0.77399999 4294967295
-0.018283036 -0.083688363 0.77600002 4294967295
-0.016833553 -0.083686993 0.77600002 4294967295
-0.015423766 -0.083901338 0.778 4294967295
-0.01397064 -0.083900027 0.778 4294967295
-0.079196222 -0.082331769 0.77600002 4294967295
-0.077745087 -0.082328938 0.77600002 4294967295
-0.075999044 -0.08200787 0.773 4294967295
-0.074553601 -0.082005113 0.773 4294967295
-0.073108196 -0.082002394 0.773 4294967295
-0.071477398 -0.081787556 0.77100003 4294967295
-0.0700358 -0.081784919 0.77100003 4294967295
-0.068416297 -0.081570156 0.76899999 4294967295
-0.066978507 -0.081567593 0.76899999 4294967295
-0.065540753 -0.081565067 0.76899999 4294967295
-0.063936315 -0.081350453 0.76700002 4294967295
-0.062502369 -0.081348002 0.76700002 4294967295
-0.061068475 -0.081345588 0.76700002 4294967295
-0.059556846 -0.081237145 0.76599997 4294967295
-0.058124881 -0.081234805 0.76599997 4294967295
-0.056692958 -0.081232496 0.76599997 4294967295
-0.055261064 -0.081230216 0.76599997 4294967295
-0.053829215 -0.081227981 0.76599997 4294967295
-0.052397408 -0.081225775 0.76599997 4294967295
-0.050965633 -0.081223607 0.76599997 4294967295
-0.0495339 -0.081221476 0.76599997 4294967295
-0.048102204 -0.081219375 0.76599997 4294967295
-0.046670552 -0.081217311 0.76599997 4294967295
-0.045120817 -0.081003234 0.764 4294967295
-0.04369298 -0.081001237 0.764 4294967295
-0.042265177 -0.080999285 0.764 4294967295
-0.040837418 -0.080997363 0.764 4294967295
-0.039409697 -0.080995478 0.764 4294967295
-0.037982021 -0.08099363 0.764 4294967295
-0.036650069 -0.081203818 0.76599997 4294967295
-0.035218742 -0.081202038 0.76599997 4294967295
-0.033787444 -0.081200287 0.76599997 4294967295
-0.032356195 -0.081198566 0.76599997 4294967295
-0.030965364 -0.081302889 0.76700002 4294967295
-0.029532332 -0.081301235 0.76700002 4294967295
-0.028099343 -0.081299625 0.76700002 4294967295
-0.026666394 -0.081298038 0.76700002 4294967295
-0.02523349 -0.081296489 0.76700002 4294967295
-0.02386269 -0.081506953 0.76899999 4294967295
-0.022426138 -0.08150547 0.76899999 4294967295
-0.021044219 -0.081715994 0.77100003 4294967295
-0.01960402 -0.081714585 0.77100003 4294967295
-0.018210983 -0.081925161 0.773 4294967295
-0.016788827 -0.082029782 0.77399999 4294967295
-0.015382811 -0.082240433 0.77600002 4294967295
-0.013933455 -0.082239144 0.77600002 4294967295
-0.080644511 -0.080888934 0.77600002 4294967295
-0.078989267 -0.080677591 0.77399999 4294967295
-0.077441737 -0.080570549 0.773 4294967295
-0.075799674 -0.080359317 0.77100003 4294967295
-0.074358001 -0.080356583 0.77100003 4294967295
-0.072916374 -0.080353886 0.77100003 4294967295
-0.071289353 -0.080142789 0.76899999 4294967295
-0.069851525 -0.080140166 0.76899999 4294967295
-0.068235815 -0.079929158 0.76700002 4294967295
-0.066801794 -0.07992661 0.76700002 4294967295
-0.065367818 -0.079924107 0.76700002 4294967295
-0.063933864 -0.079921633 0.76700002 4294967295
-0.062418468 -0.079814985 0.76599997 4294967295
-0.060986474 -0.079812586 0.76599997 4294967295
-0.059399005 -0.079601847 0.764 4294967295
-0.057970822 -0.079599522 0.764 4294967295
-0.056542672 -0.079597235 0.764 4294967295
-0.054970279 -0.079386622 0.76200002 4294967295
-0.053545941 -0.079384401 0.76200002 4294967295
-0.052121643 -0.079382226 0.76200002 4294967295
-0.050830439 -0.079588421 0.764 4294967295
-0.049402483 -0.079586312 0.764 4294967295
-0.047974553 -0.079584233 0.764 4294967295
-0.046424821 -0.079373851 0.76200002 4294967295
-0.045000713 -0.079371847 0.76200002 4294967295
-0.043576647 -0.079369873 0.76200002 4294967295
-0.042152621 -0.079367936 0.76200002 4294967295
-0.040728636 -0.079366043 0.76200002 4294967295
-0.039304685 -0.079364173 0.76200002 4294967295
-0.037880778 -0.079362333 0.76200002 4294967295
-0.036552601 -0.079568826 0.764 4294967295
-0.03512504 -0.07956706 0.764 4294967295
-0.033697516 -0.079565324 0.764 4294967295
-0.032270037 -0.079563625 0.764 4294967295
-0.030923339 -0.07977023 0.76599997 4294967295
-0.029492212 -0.079768598 0.76599997 4294967295
-0.028061122 -0.079766996 0.76599997 4294967295
-0.026630076 -0.079765424 0.76599997 4294967295
-0.025199074 -0.079763904 0.76599997 4294967295
-0.023799147 -0.079866536 0.76700002 4294967295
-0.022366365 -0.079865068 0.76700002 4294967295
-0.0210428 -0.080280133 0.77100003 4294967295
-0.019602634 -0.080278732 0.77100003 4294967295
-0.018209627 -0.080485605 0.773 4294967295
-0.016787509 -0.080588393 0.77399999 4294967295
-0.015381521 -0.080795325 0.77600002 4294967295
-0.013932198 -0.080794051 0.77600002 4294967295
-0.080641657 -0.079443306 0.77600002 4294967295
-0.078884408 -0.079133339 0.773 4294967295
-0.077238619 -0.078925811 0.77100003 4294967295
-0.075600326 -0.07871832 0.76899999 4294967295
-0.074162416 -0.0787156 0.76899999 4294967295
-0.072724558 -0.078712925 0.76899999 4294967295
-0.071101338 -0.078505583 0.76700002 4294967295
-0.06966728 -0.078502968 0.76700002 4294967295
-0.068233266 -0.078500405 0.76700002 4294967295
-0.06679929 -0.078497879 0.76700002 4294967295
-0.065280117 -0.078393027 0.76599997 4294967295
-0.063848071 -0.078390568 0.76599997 4294967295
-0.062416073 -0.078388147 0.76599997 4294967295
-0.060984109 -0.078385755 0.76599997 4294967295
-0.059396688 -0.078178756 0.764 4294967295
-0.057968527 -0.078176439 0.764 4294967295
-0.056392409 -0.077969521 0.76200002 4294967295
-0.054968067 -0.077967286 0.76200002 4294967295
-0.053473491 -0.077862762 0.76099998 4294967295
-0.052051097 -0.077860601 0.76099998 4294967295
-0.050695263 -0.077960789 0.76200002 4294967295
-0.049271084 -0.077958688 0.76200002 4294967295
-0.047784127 -0.077854313 0.76099998 4294967295
-0.04636189 -0.077852294 0.76099998 4294967295
-0.044939689 -0.077850305 0.76099998 4294967295
-0.043517523 -0.077848345 0.76099998 4294967295
-0.0420954 -0.07784643 0.76099998 4294967295
-0.040673319 -0.077844545 0.76099998 4294967295
-0.039251268 -0.077842683 0.76099998 4294967295
-0.037829269 -0.07784088 0.76099998 4294967295
-0.036455147 -0.07794138 0.76200002 4294967295
-0.03503136 -0.07793963 0.76200002 4294967295
-0.033563498 -0.077835619 0.76099998 4294967295
-0.032141663 -0.077833943 0.76099998 4294967295
-0.030760234 -0.077934578 0.76200002 4294967295
-0.029336609 -0.077932976 0.76200002 4294967295
-0.027913032 -0.077931397 0.76200002 4294967295
-0.026559018 -0.078134388 0.764 4294967295
-0.025065998 -0.077928342 0.76200002 4294967295
-0.023642547 -0.077926867 0.76200002 4294967295
-0.022277456 -0.078129947 0.764 4294967295
-0.020904936 -0.078333057 0.76599997 4294967295
-0.019499572 -0.078433946 0.76700002 4294967295
-0.018114068 -0.078637108 0.76899999 4294967295
-0.016677765 -0.078635804 0.76899999 4294967295
-0.015320786 -0.079043545 0.773 4294967295
-0.013895054 -0.079144545 0.77399999 4294967295
-0.012433466 -0.079041079 0.773 4294967295
-0.010989875 -0.079039894 0.773 4294967295
-0.090797126 -0.07801865 0.77600002 4294967295
-0.089345835 -0.078015573 0.77600002 4294967295
-0.080327056 -0.077696256 0.773 4294967295
-0.078881621 -0.077693425 0.773 4294967295
-0.077035502 -0.07728862 0.76899999 4294967295
-0.075597614 -0.077285878 0.76899999 4294967295
-0.073966876 -0.077082179 0.76700002 4294967295
-0.072532788 -0.077079512 0.76700002 4294967295
-0.071098737 -0.077076897 0.76700002 4294967295
-0.069664717 -0.077074304 0.76700002 4294967295
-0.068141781 -0.076971263 0.76599997 4294967295
-0.066709697 -0.076968737 0.76599997 4294967295
-0.065107219 -0.076765306 0.764 4294967295
-0.063678958 -0.07676287 0.764 4294967295
-0.06143593 -0.075755753 0.75400001 4294967295
-0.060026426 -0.075753406 0.75400001 4294967295
-0.058616959 -0.075751096 0.75400001 4294967295
-0.057207536 -0.075748838 0.75400001 4294967295
-0.055798147 -0.075746603 0.75400001 4294967295
-0.054460932 -0.075844854 0.755 4294967295
-0.053190283 -0.076043598 0.75700003 4294967295
-0.051775392 -0.076041453 0.75700003 4294967295
-0.050360534 -0.076039359 0.75700003 4294967295
-0.048945732 -0.07603728 0.75700003 4294967295
-0.047656536 -0.076236136 0.759 4294967295
-0.046238065 -0.076234125 0.759 4294967295
-0.044819631 -0.07623215 0.759 4294967295
-0.043401238 -0.076230213 0.759 4294967295
-0.041982893 -0.076228321 0.759 4294967295
-0.040564574 -0.076226443 0.759 4294967295
-0.039146304 -0.076224618 0.759 4294967295
-0.037728071 -0.076222815 0.759 4294967295
-0.036309879 -0.076221049 0.759 4294967295
-0.034891732 -0.076219313 0.759 4294967295
-0.033473618 -0.076217629 0.759 4294967295
-0.032055546 -0.07621596 0.759 4294967295
-0.030637523 -0.076214343 0.759 4294967295
-0.029219538 -0.076212741 0.759 4294967295
-0.027874857 -0.076412007 0.76099998 4294967295
-0.026453219 -0.07641048 0.76099998 4294967295
-0.025031624 -0.076408982 0.76099998 4294967295
-0.023610076 -0.076407522 0.76099998 4294967295
-0.022188574 -0.076406099 0.76099998 4294967295
-0.020848978 -0.076705918 0.764 4294967295
-0.019472802 -0.076905355 0.76599997 4294967295
-0.018065644 -0.077004425 0.76700002 4294967295
-0.01667648 -0.077203907 0.76899999 4294967295
-0.015279895 -0.077403441 0.77100003 4294967295
-0.013875881 -0.07760299 0.773 4294967295
-0.012432282 -0.077601783 0.773 4294967295
-0.010988724 -0.077600621 0.773 4294967295
-0.0038204517 -0.078599125 0.78299999 4294967295
-0.0023585125 -0.078598164 0.78299999 4294967295
-0.092245333 -0.076576293 0.77600002 4294967295
-0.090794057 -0.076573178 0.77600002 4294967295
-0.089112528 -0.07637275 0.77399999 4294967295
-0.087665051 -0.076369718 0.77399999 4294967295
-0.086106211 -0.076268047 0.773 4294967295
-0.084441617 -0.076067775 0.77100003 4294967295
-0.082569242 -0.075670227 0.76700002 4294967295
-0.081029207 -0.075568713 0.76599997 4294967295
-0.079596847 -0.075565882 0.76599997 4294967295
-0.07816454 -0.075563103 0.76599997 4294967295
-0.076732248 -0.075560339 0.76599997 4294967295
-0.075299993 -0.075557627 0.76599997 4294967295
-0.073867783 -0.075554952 0.76599997 4294967295
-0.072057351 -0.075157776 0.76200002 4294967295
-0.070632681 -0.075155176 0.76200002 4294967295
-0.069389693 -0.075349867 0.764 4294967295
-0.067160763 -0.074459732 0.755 4294967295
-0.065749288 -0.074457265 0.755 4294967295
-0.064252637 -0.074356221 0.75400001 4294967295
-0.062843092 -0.074353822 0.75400001 4294967295
-0.061433591 -0.07435146 0.75400001 4294967295
-0.060024131 -0.074349135 0.75400001 4294967295
-0.058614701 -0.074346848 0.75400001 4294967295
-0.057205301 -0.074344583 0.75400001 4294967295
-0.055795949 -0.074342363 0.75400001 4294967295
-0.054386631 -0.07434018 0.75400001 4294967295
-0.052977357 -0.074338034 0.75400001 4294967295
-0.051636502 -0.074434489 0.755 4294967295
-0.050225422 -0.07443241 0.755 4294967295
-0.048814382 -0.074430361 0.755 4294967295
-0.047528952 -0.0746255 0.75700003 4294967295
-0.046114258 -0.074623518 0.75700003 4294967295
-0.044699602 -0.074621566 0.75700003 4294967295
-0.043284982 -0.074619643 0.75700003 4294967295
-0.0418704 -0.074617766 0.75700003 4294967295
-0.040455863 -0.074615911 0.75700003 4294967295
-0.039041355 -0.074614093 0.75700003 4294967295
-0.037626896 -0.074612312 0.75700003 4294967295
-0.036212478 -0.074610569 0.75700003 4294967295
-0.034798097 -0.074608862 0.75700003 4294967295
-0.033383757 -0.074607179 0.75700003 4294967295
-0.031969458 -0.074605539 0.75700003 4294967295
-0.030555205 -0.07460393 0.75700003 4294967295
-0.029140992 -0.074602358 0.75700003 4294967295
-0.02780007 -0.074797906 0.759 4294967295
-0.026382208 -0.074796401 0.759 4294967295
-0.024964387 -0.074794933 0.759 4294967295
-0.023546604 -0.07479348 0.759 4294967295
-0.022187181 -0.074989162 0.76099998 4294967295
-0.020847617 -0.075283401 0.764 4294967295
-0.019420629 -0.075282052 0.764 4294967295
-0.018064344 -0.07557635 0.76700002 4294967295
-0.016631845 -0.075575076 0.76700002 4294967295
-0.015239025 -0.075770885 0.76899999 4294967295
-0.01383878 -0.075966738 0.77100003 4294967295
-0.01239895 -0.075965554 0.77100003 4294967295
-0.010959161 -0.075964399 0.77100003 4294967295
-0.0095441164 -0.076160349 0.773 4294967295
-0.0081111686 -0.076257773 0.77399999 4294967295
-0.0052679419 -0.076945379 0.78100002 4294967295
-0.0038097224 -0.076944388 0.78100002 4294967295
-0.0023515522 -0.076943442 0.78100002 4294967295
-0.00089571928 -0.077139556 0.78299999 4294967295
-0.093452021 -0.074940391 0.77399999 4294967295
-0.092004485 -0.074937254 0.77399999 4294967295
-0.090556972 -0.074934162 0.77399999 4294967295
-0.089109488 -0.0749311 0.77399999 4294967295
-0.0875488 -0.074831277 0.773 4294967295
-0.085880473 -0.074634679 0.77100003 4294967295
-0.084219679 -0.074438147 0.76899999 4294967295
-0.082458735 -0.074144863 0.76599997 4294967295
-0.080814831 -0.073948443 0.764 4294967295
-0.079386257 -0.073945634 0.764 4294967295
-0.077957712 -0.073942862 0.764 4294967295
-0.076529197 -0.073940128 0.764 4294967295
-0.07510072 -0.073937431 0.764 4294967295
-0.073382981 -0.073644452 0.76099998 4294967295
-0.071960188 -0.073641829 0.76099998 4294967295
-0.070352048 -0.073445715 0.759 4294967295
-0.068933062 -0.073443182 0.759 4294967295
-0.067158304 -0.073053636 0.755 4294967295
-0.065746851 -0.073051177 0.755 4294967295
-0.064250238 -0.07295201 0.75400001 4294967295
-0.062840737 -0.072949626 0.75400001 4294967295
-0.061268322 -0.072753772 0.75199997 4294967295
-0.059862625 -0.07275147 0.75199997 4294967295
-0.058456969 -0.072749197 0.75199997 4294967295
-0.057051346 -0.072746962 0.75199997 4294967295
-0.055645768 -0.072744757 0.75199997 4294967295
-0.054240219 -0.072742581 0.75199997 4294967295
-0.052834712 -0.072740451 0.75199997 4294967295
-0.051566023 -0.072931804 0.75400001 4294967295
-0.050156854 -0.07292974 0.75400001 4294967295
-0.048747718 -0.072927706 0.75400001 4294967295
-0.047401402 -0.073022418 0.755 4294967295
-0.045990478 -0.073020443 0.755 4294967295
-0.044579592 -0.073018514 0.755 4294967295
-0.043168742 -0.073016614 0.755 4294967295
-0.041757934 -0.073014751 0.755 4294967295
-0.040454041 -0.073206335 0.75700003 4294967295
-0.039039575 -0.073204525 0.75700003 4294967295
-0.03752574 -0.073009349 0.755 4294967295
-0.036115091 -0.073007628 0.755 4294967295
-0.03479642 -0.073199332 0.75700003 4294967295
-0.03338211 -0.07319767 0.75700003 4294967295
-0.031967852 -0.073196039 0.75700003 4294967295
-0.03055363 -0.073194444 0.75700003 4294967295
-0.02913945 -0.07319288 0.75700003 4294967295
-0.027725317 -0.07319136 0.75700003 4294967295
-0.026311217 -0.07318987 0.75700003 4294967295
-0.024962941 -0.073381774 0.759 4294967295
-0.023545198 -0.073380351 0.759 4294967295
-0.0221275 -0.073378958 0.759 4294967295
-0.0207917 -0.073667645 0.76200002 4294967295
-0.019368481 -0.073666304 0.76200002 4294967295
-0.017992411 -0.073858365 0.764 4294967295
-0.016565548 -0.073857099 0.764 4294967295
-0.015198177 -0.074145891 0.76700002 4294967295
-0.013801698 -0.074338034 0.76899999 4294967295
-0.012365635 -0.074336857 0.76899999 4294967295
-0.01092962 -0.074335732 0.76899999 4294967295
-0.009493649 -0.074334629 0.76899999 4294967295
-0.0080786832 -0.074526906 0.77100003 4294967295
-0.0066390741 -0.07452587 0.77100003 4294967295
-0.0052669514 -0.075491481 0.78100002 4294967295
-0.0038087673 -0.075490512 0.78100002 4294967295
-0.0023506326 -0.075489588 0.78100002 4294967295
-0.0008925469 -0.075488679 0.78100002 4294967295
0.00056548911 -0.075487807 0.78100002 4294967295
-0.096344002 -0.073505163 0.77399999 4294967295
-0.094896436 -0.073501974 0.77399999 4294967295
-0.093448892 -0.073498815 0.77399999 4294967295
-0.091882527 -0.073400743 0.773 4294967295
-0.090436921 -0.073397666 0.773 4294967295
-0.088991351 -0.073394619 0.773 4294967295
-0.087319314 -0.073201731 0.77100003 4294967295
-0.085320614 -0.072724052 0.76599997 4294967295
-0.083669215 -0.072531283 0.764 4294967295
-0.082025312 -0.072338551 0.76200002 4294967295
-0.080600478 -0.072335735 0.76200002 4294967295
-0.079175681 -0.072332941 0.76200002 4294967295
-0.077750906 -0.072330192 0.76200002 4294967295
-0.076225996 -0.072232552 0.76099998 4294967295
-0.074803174 -0.07222987 0.76099998 4294967295
-0.07318753 -0.072037421 0.759 4294967295
-0.071768507 -0.072034821 0.759 4294967295
-0.070164144 -0.071842454 0.75700003 4294967295
-0.068748929 -0.071839929 0.75700003 4294967295
-0.0670669 -0.071552753 0.75400001 4294967295
-0.065657355 -0.07155031 0.75400001 4294967295
-0.064077437 -0.071358114 0.75199997 4294967295
-0.062671706 -0.071355753 0.75199997 4294967295
-0.061266012 -0.071353421 0.75199997 4294967295
-0.059701156 -0.07116136 0.75 4294967295
-0.058299273 -0.071159109 0.75 4294967295
-0.056897424 -0.071156889 0.75 4294967295
-0.055495612 -0.071154699 0.75 4294967295
-0.054093838 -0.071152553 0.75 4294967295
-0.052692108 -0.071150437 0.75 4294967295
-0.051427174 -0.071338072 0.75199997 4294967295
-0.050021771 -0.071336031 0.75199997 4294967295
-0.048616417 -0.071334012 0.75199997 4294967295
-0.047336653 -0.071521744 0.75400001 4294967295
-0.045927629 -0.0715198 0.75400001 4294967295
-0.04451865 -0.071517885 0.75400001 4294967295
-0.043109704 -0.071515992 0.75400001 4294967295
-0.041700795 -0.071514137 0.75400001 4294967295
-0.040345363 -0.071607165 0.755 4294967295
-0.038934667 -0.071605384 0.755 4294967295
-0.037474316 -0.071508795 0.75400001 4294967295
-0.036065567 -0.071507081 0.75400001 4294967295
-0.03465686 -0.071505412 0.75400001 4294967295
-0.033248194 -0.071503766 0.75400001 4294967295
-0.031839572 -0.071502157 0.75400001 4294967295
-0.030430991 -0.071500584 0.75400001 4294967295
-0.029022448 -0.071499042 0.75400001 4294967295
-0.027613955 -0.071497537 0.75400001 4294967295
-0.026205491 -0.071496069 0.75400001 4294967295
-0.024829967 -0.071589455 0.755 4294967295
-0.023419727 -0.071588047 0.755 4294967295
-0.022067837 -0.071776316 0.75700003 4294967295
-0.020763082 -0.072154239 0.76099998 4294967295
-0.019341769 -0.07215292 0.76099998 4294967295
-0.017944049 -0.07224647 0.76200002 4294967295
-0.016520958 -0.072245218 0.76200002 4294967295
-0.015137537 -0.072433621 0.764 4294967295
-0.013746694 -0.072622068 0.76599997 4294967295
-0.012332345 -0.072715722 0.76700002 4294967295
-0.010900099 -0.072714612 0.76700002 4294967295
-0.0094678979 -0.072713539 0.76700002 4294967295
-0.0080357455 -0.072712503 0.76700002 4294967295
-0.0066036386 -0.07271149 0.76700002 4294967295
-0.0052322648 -0.073563702 0.77600002 4294967295
-0.0038029528 -0.073941939 0.77999997 4294967295
-0.0023467205 -0.07394103 0.77999997 4294967295
-0.00089167868 -0.074034952 0.78100002 4294967295
0.00056632195 -0.074034102 0.78100002 4294967295
0.0020242727 -0.07403329 0.78100002 4294967295
-0.097788386 -0.072066896 0.77399999 4294967295
-0.096216336 -0.071970575 0.773 4294967295
-0.094770677 -0.071967393 0.773 4294967295
-0.093325049 -0.071964249 0.773 4294967295
-0.09187945 -0.07196115 0.773 4294967295
-0.09019991 -0.071771905 0.77100003 4294967295
-0.088758111 -0.071768872 0.77100003 4294967295
-0.087089844 -0.071579717 0.76899999 4294967295
-0.085317716 -0.071297541 0.76599997 4294967295
-0.08344733 -0.070922352 0.76200002 4294967295
-0.08191485 -0.070826434 0.76099998 4294967295
-0.080491915 -0.070823617 0.76099998 4294967295
-0.079069026 -0.070820853 0.76099998 4294967295
-0.07744211 -0.070632011 0.759 4294967295
-0.075822689 -0.070443198 0.75700003 4294967295
-0.074407376 -0.070440546 0.75700003 4294967295
-0.072992086 -0.070437931 0.75700003 4294967295
-0.071576841 -0.070435353 0.75700003 4294967295
-0.069976248 -0.070246726 0.755 4294967295
-0.068564802 -0.070244215 0.755 4294967295
-0.067064457 -0.070148721 0.75400001 4294967295
-0.065654948 -0.070146292 0.75400001 4294967295
-0.064075075 -0.06995783 0.75199997 4294967295
-0.062669374 -0.069955476 0.75199997 4294967295
-0.061263721 -0.069953166 0.75199997 4294967295
-0.059698902 -0.069764838 0.75 4294967295
-0.058297053 -0.069762602 0.75 4294967295
-0.056895234 -0.06976039 0.75 4294967295
-0.055493463 -0.069758222 0.75 4294967295
-0.054091722 -0.069756091 0.75 4294967295
-0.052690029 -0.069753982 0.75 4294967295
-0.051288359 -0.069751903 0.75 4294967295
-0.050019752 -0.069935873 0.75199997 4294967295
-0.048614435 -0.069933869 0.75199997 4294967295
-0.047209136 -0.069931895 0.75199997 4294967295
-0.04580389 -0.069929965 0.75199997 4294967295
-0.044516757 -0.070114039 0.75400001 4294967295
-0.043107849 -0.070112169 0.75400001 4294967295
-0.041698981 -0.070110343 0.75400001 4294967295
-0.040290151 -0.070108533 0.75400001 4294967295
-0.038881354 -0.070106767 0.75400001 4294967295
-0.037472602 -0.070105031 0.75400001 4294967295
-0.035968225 -0.069917381 0.75199997 4294967295
-0.034563288 -0.069915719 0.75199997 4294967295
-0.033158399 -0.069914103 0.75199997 4294967295
-0.031753547 -0.069912516 0.75199997 4294967295
-0.030348729 -0.069910951 0.75199997 4294967295
-0.028943965 -0.069909431 0.75199997 4294967295
-0.027539235 -0.069907948 0.75199997 4294967295
-0.026134545 -0.069906488 0.75199997 4294967295
-0.024795676 -0.070090994 0.75400001 4294967295
-0.023387339 -0.070089608 0.75400001 4294967295
-0.022008196 -0.070181206 0.755 4294967295
-0.020652642 -0.070365801 0.75700003 4294967295
-0.019238833 -0.070364505 0.75700003 4294967295
-0.017872162 -0.070549145 0.759 4294967295
-0.016498065 -0.070733823 0.76099998 4294967295
-0.015096735 -0.070825584 0.76200002 4294967295
-0.013709655 -0.071010314 0.764 4294967295
-0.012331231 -0.071288027 0.76700002 4294967295
-0.010899018 -0.071286932 0.76700002 4294967295
-0.0094668539 -0.071285866 0.76700002 4294967295
-0.0080347359 -0.071284838 0.76700002 4294967295
-0.0066026631 -0.071283855 0.76700002 4294967295
-0.005197606 -0.071654648 0.77100003 4294967295
-0.0037727852 -0.071932524 0.77399999 4294967295
-0.0023338047 -0.072117507 0.77600002 4294967295
-0.00088740513 -0.072302513 0.778 4294967295
0.00056641211 -0.072487548 0.77999997 4294967295
0.0020224608 -0.072486758 0.77999997 4294967295
-0.099232726 -0.070628755 0.77399999 4294967295
-0.097658828 -0.070534267 0.773 4294967295
-0.096213169 -0.070531055 0.773 4294967295
-0.094767541 -0.070527889 0.773 4294967295
-0.093321942 -0.07052476 0.773 4294967295
-0.09187638 -0.07052166 0.773 4294967295
-0.090196878 -0.070336156 0.77100003 4294967295
-0.088524885 -0.070150688 0.76899999 4294967295
-0.086860418 -0.069965281 0.76700002 4294967295
-0.085092068 -0.069688708 0.764 4294967295
-0.083444484 -0.069503412 0.76200002 4294967295
-0.081912048 -0.069409356 0.76099998 4294967295
-0.080489151 -0.069406562 0.76099998 4294967295
-0.07885851 -0.069221407 0.759 4294967295
-0.077439405 -0.069218695 0.759 4294967295
-0.07561972 -0.068851233 0.755 4294967295
-0.074208185 -0.068848595 0.755 4294967295
-0.072796665 -0.068846002 0.755 4294967295
-0.07138519 -0.068843439 0.755 4294967295
-0.069881074 -0.068749733 0.75400001 4294967295
-0.068471536 -0.068747252 0.75400001 4294967295
-0.067062035 -0.068744794 0.75400001 4294967295
-0.065652557 -0.06874238 0.75400001 4294967295
-0.064072721 -0.068557665 0.75199997 4294967295
-0.062667064 -0.068555325 0.75199997 4294967295
-0.061261434 -0.068553016 0.75199997 4294967295
-0.059696659 -0.068368427 0.75 4294967295
-0.058294848 -0.0683662 0.75 4294967295
-0.056893066 -0.068364017 0.75 4294967295
-0.055417348 -0.068270691 0.74900001 4294967295
-0.054017499 -0.068268575 0.74900001 4294967295
-0.05261771 -0.068266489 0.74900001 4294967295
-0.051286329 -0.068355575 0.75 4294967295
-0.049884729 -0.068353549 0.75 4294967295
-0.048483178 -0.068351567 0.75 4294967295
-0.047207206 -0.068531878 0.75199997 4294967295
-0.04580199 -0.068529949 0.75199997 4294967295
-0.04439681 -0.068528064 0.75199997 4294967295
-0.043106012 -0.068708465 0.75400001 4294967295
-0.041697182 -0.068706639 0.75400001 4294967295
-0.040288381 -0.068704858 0.75400001 4294967295
-0.038879618 -0.0687031 0.75400001 4294967295
-0.037371509 -0.068519145 0.75199997 4294967295
-0.03587091 -0.068335243 0.75 4294967295
-0.03446975 -0.068333603 0.75 4294967295
-0.033024531 -0.068240888 0.74900001 4294967295
-0.031625316 -0.068239316 0.74900001 4294967295
-0.030266499 -0.068328887 0.75 4294967295
-0.028865503 -0.068327382 0.75 4294967295
-0.027464541 -0.068325907 0.75 4294967295
-0.026063623 -0.068324476 0.75 4294967295
-0.02472852 -0.068505272 0.75199997 4294967295
-0.023385985 -0.068686098 0.75400001 4294967295
-0.021977726 -0.068684757 0.75400001 4294967295
-0.020596791 -0.068774544 0.755 4294967295
-0.01918675 -0.06877327 0.755 4294967295
-0.017823845 -0.068954222 0.75700003 4294967295
-0.016453518 -0.069135182 0.759 4294967295
-0.015075762 -0.069316186 0.76099998 4294967295
-0.013672639 -0.069406129 0.76200002 4294967295
-0.012330132 -0.069860429 0.76700002 4294967295
-0.010897954 -0.069859356 0.76700002 4294967295
-0.0094658239 -0.069858305 0.76700002 4294967295
-0.0080337403 -0.069857299 0.76700002 4294967295
-0.0066017043 -0.069856323 0.76700002 4294967295
-0.0051966761 -0.070219688 0.77100003 4294967295
-0.0037718872 -0.070491999 0.77399999 4294967295
-0.0023269262 -0.07049112 0.77399999 4294967295
-0.00088429381 -0.070672423 0.77600002 4294967295
0.00056430214 -0.070671625 0.77600002 4294967295
0.0020180363 -0.070852987 0.778 4294967295
0.0034613449 -0.070670106 0.77600002 4294967295
0.0049097911 -0.070669405 0.77600002 4294967294
-0.09910129 -0.06909807 0.773 4294967295
-0.097655624 -0.069094829 0.773 4294967295
-0.09621001 -0.069091633 0.773 4294967295
-0.094764419 -0.069088481 0.773 4294967295
-0.093318857 -0.069085367 0.773 4294967295
-0.091635622 -0.068903543 0.77100003 4294967295
-0.090193875 -0.068900503 0.77100003 4294967295
-0.088521928 -0.068718776 0.76899999 4294967295
-0.086744249 -0.068447739 0.76599997 4294967295
-0.084866457 -0.068087429 0.76200002 4294967295
-0.083332151 -0.067995206 0.76099998 4294967295
-0.081693999 -0.067813702 0.759 4294967295
-0.080274872 -0.067810923 0.759 4294967295
-0.078855783 -0.067808181 0.759 4294967295
-0.077232681 -0.067626804 0.75700003 4294967295
-0.07561709 -0.067445472 0.755 4294967295
-0.074107304 -0.067353539 0.75400001 4294967295
-0.072697692 -0.067350946 0.75400001 4294967295
-0.071288124 -0.067348398 0.75400001 4294967295
-0.069878586 -0.067345887 0.75400001 4294967295
-0.068287462 -0.067164779 0.75199997 4294967295
-0.066881739 -0.06716235 0.75199997 4294967295
-0.065476038 -0.067159958 0.75199997 4294967295
-0.064070381 -0.067157581 0.75199997 4294967295
-0.062498093 -0.066976652 0.75 4294967295
-0.061096244 -0.066974372 0.75 4294967295
-0.059614841 -0.066882819 0.74900001 4294967295
-0.058214929 -0.066880606 0.74900001 4294967295
-0.056815051 -0.066878423 0.74900001 4294967295
-0.055415213 -0.066876277 0.74900001 4294967295
-0.054015417 -0.066874169 0.74900001 4294967295
-0.052615657 -0.06687209 0.74900001 4294967295
-0.051215928 -0.066870049 0.74900001 4294967295
-0.04988274 -0.066957317 0.75 4294967295
-0.04848123 -0.06695535 0.75 4294967295
-0.047079735 -0.066953406 0.75 4294967295
-0.045678295 -0.066951498 0.75 4294967295
-0.044394959 -0.067128159 0.75199997 4294967295
-0.042989854 -0.067126319 0.75199997 4294967295
-0.04147419 -0.066945992 0.75 4294967295
-0.040072903 -0.066944234 0.75 4294967295
-0.03867165 -0.066942498 0.75 4294967295
-0.037220746 -0.066851556 0.74900001 4294967295
-0.035821442 -0.066849887 0.74900001 4294967295
-0.034330267 -0.066669762 0.74699998 4294967295
-0.032934781 -0.066668175 0.74699998 4294967295
-0.031539336 -0.066666618 0.74699998 4294967295
-0.03022464 -0.066843599 0.74900001 4294967295
-0.02886403 -0.066931352 0.75 4294967295
-0.027463105 -0.066929892 0.75 4294967295
-0.026062224 -0.066928476 0.75 4294967295
-0.024727143 -0.067105561 0.75199997 4294967295
-0.023322614 -0.067104205 0.75199997 4294967295
-0.021976421 -0.06728135 0.75400001 4294967295
-0.020568237 -0.067280062 0.75400001 4294967295
-0.019160101 -0.06727881 0.75400001 4294967295
-0.01777555 -0.067366824 0.755 4294967295
-0.016452339 -0.067722537 0.759 4294967295
-0.015034999 -0.067721374 0.759 4294967295
-0.013653586 -0.067898691 0.76099998 4294967295
-0.012280825 -0.068165265 0.764 4294967295
-0.010882698 -0.068342656 0.76599997 4294967295
-0.0094648106 -0.068430848 0.76700002 4294967295
-0.0080327615 -0.06842985 0.76700002 4294967295
-0.006600759 -0.068428889 0.76700002 4294967295
-0.0051822844 -0.068606399 0.76899999 4294967295
-0.003766133 -0.068962365 0.773 4294967295
-0.0023230743 -0.068961501 0.773 4294967295
-0.0008812031 -0.069049887 0.77399999 4294967295
0.00056362408 -0.069049098 0.77399999 4294967295
0.0020135916 -0.069226772 0.77600002 4294967295
0.0034620524 -0.069226049 0.77600002 4294967295
0.0049104639 -0.069225363 0.77600002 4294967295
0.0063588237 -0.069224708 0.77600002 4294967293
-0.10054371 -0.067661993 0.773 4294967295
-0.099098064 -0.067658737 0.773 4294967295
-0.097399794 -0.067480475 0.77100003 4294967295
-0.095957935 -0.067477308 0.77100003 4294967295
-0.094516128 -0.067474164 0.77100003 4294967295
-0.093074344 -0.067471057 0.77100003 4294967295
-0.091394894 -0.067292981 0.76899999 4294967295
-0.089722969 -0.067114957 0.76700002 4294967295
-0.088173643 -0.067024484 0.76599997 4294967295
-0.08651486 -0.066846542 0.764 4294967295
-0.084752217 -0.066581182 0.76099998 4294967295
-0.083110332 -0.066403359 0.759 4294967295
-0.081475958 -0.066225596 0.75700003 4294967295
-0.080060616 -0.066222839 0.75700003 4294967295
-0.078645304 -0.066220112 0.75700003 4294967295
-0.07702598 -0.066042475 0.755 4294967295
-0.075514309 -0.065952361 0.75400001 4294967295
-0.074104711 -0.06594976 0.75400001 4294967295
-0.072695144 -0.065947182 0.75400001 4294967295
-0.071096525 -0.065769732 0.75199997 4294967295
-0.069690756 -0.065767236 0.75199997 4294967295
-0.068285033 -0.065764777 0.75199997 4294967295
-0.066879332 -0.065762356 0.75199997 4294967295
-0.065299556 -0.065585084 0.75 4294967295
-0.063897662 -0.065582722 0.75 4294967295
-0.062412485 -0.06549298 0.74900001 4294967295
-0.061012529 -0.065490708 0.74900001 4294967295
-0.059453446 -0.0653136 0.74699998 4294967295
-0.058057308 -0.065311402 0.74699998 4294967295
-0.056661204 -0.065309241 0.74699998 4294967295
-0.055413105 -0.065481968 0.74900001 4294967295
-0.05386911 -0.065305024 0.74699998 4294967295
-0.052473124 -0.065302961 0.74699998 4294967295
-0.05121392 -0.065475777 0.74900001 4294967295
-0.049814261 -0.065473787 0.74900001 4294967295
-0.04841464 -0.065471828 0.74900001 4294967295
-0.04701506 -0.065469906 0.74900001 4294967295
-0.045615524 -0.065468021 0.74900001 4294967295
-0.044275053 -0.065553561 0.75 4294967295
-0.042873718 -0.065551743 0.75 4294967295
-0.041417133 -0.065462552 0.74900001 4294967295
-0.040017743 -0.065460809 0.74900001 4294967295
-0.03851527 -0.065284304 0.74699998 4294967295
-0.037119702 -0.06528262 0.74699998 4294967295
-0.035724174 -0.065280981 0.74699998 4294967295
-0.034328677 -0.065279372 0.74699998 4294967295
-0.032933224 -0.0652778 0.74699998 4294967295
-0.031537812 -0.065276258 0.74699998 4294967295
-0.030142449 -0.065274753 0.74699998 4294967295
-0.028824093 -0.065448053 0.74900001 4294967295
-0.027425067 -0.065446608 0.74900001 4294967295
-0.026060831 -0.065532587 0.75 4294967295
-0.024725787 -0.065705955 0.75199997 4294967295
-0.023321291 -0.065704614 0.75199997 4294967295
-0.021975126 -0.065878063 0.75400001 4294967295
-0.020566979 -0.065876789 0.75400001 4294967295
-0.019158879 -0.065875545 0.75400001 4294967295
-0.017750818 -0.065874338 0.75400001 4294967295
-0.016364479 -0.065960534 0.755 4294967295
-0.014994259 -0.066134125 0.75700003 4294967295
-0.013580731 -0.066133022 0.75700003 4294967295
-0.01216725 -0.066131949 0.75700003 4294967295
-0.010824843 -0.066567712 0.76200002 4294967295
-0.0094514731 -0.06691613 0.76599997 4294967295
-0.0080213258 -0.066915154 0.76599997 4294967295
-0.0065998314 -0.067001574 0.76700002 4294967295
-0.0051813889 -0.067175373 0.76899999 4294967295
-0.0037555262 -0.067349203 0.77100003 4294967295
-0.0023222445 -0.067523055 0.773 4294967295
-0.00088040781 -0.067609608 0.77399999 4294967295
0.00056438416 -0.067608833 0.77399999 4294967295
0.0020143185 -0.067782797 0.77600002 4294967295
0.0034538186 -0.067607388 0.77399999 4294967295
0.0048984615 -0.067606725 0.77399999 4294967295
0.0063594435 -0.067780793 0.77600002 4294967295
-0.10198608 -0.066226043 0.773 4294967295
-0.10028032 -0.066051424 0.77100003 4294967295
-0.098838456 -0.06604819 0.77100003 4294967295
-0.097396612 -0.066044994 0.77100003 4294967295
-0.095705889 -0.065870509 0.76899999 4294967295
-0.09426786 -0.065867394 0.76899999 4294967295
-0.092829853 -0.065864302 0.76899999 4294967295
-0.091391876 -0.065861262 0.76899999 4294967295
-0.089719988 -0.065686963 0.76700002 4294967295
-0.0881707 -0.065598361 0.76599997 4294967295
-0.086511977 -0.065424174 0.764 4294967295
-0.084749371 -0.065164402 0.76099998 4294967295
-0.082888544 -0.06481906 0.75700003 4294967295
-0.081257947 -0.064645037 0.755 4294967295
-0.079846375 -0.064642288 0.755 4294967295
-0.07843484 -0.064639583 0.755 4294967295
-0.076921321 -0.064551309 0.75400001 4294967295
-0.075511716 -0.064548679 0.75400001 4294967295
-0.073905595 -0.064374879 0.75199997 4294967295
-0.072499789 -0.064372316 0.75199997 4294967295
-0.071094029 -0.064369798 0.75199997 4294967295
-0.069688305 -0.064367317 0.75199997 4294967295
-0.068282604 -0.064364873 0.75199997 4294967295
-0.066876948 -0.064362466 0.75199997 4294967295
-0.065210141 -0.064103335 0.74900001 4294967295
-0.063810162 -0.064101003 0.74900001 4294967295
-0.062243562 -0.063927554 0.74699998 4294967295
-0.060847383 -0.063925296 0.74699998 4294967295
-0.059451245 -0.063923068 0.74699998 4294967295
-0.058055148 -0.063920885 0.74699998 4294967295
-0.056659076 -0.063918747 0.74699998 4294967295
-0.05526305 -0.063916624 0.74699998 4294967295
-0.05386705 -0.063914552 0.74699998 4294967295
-0.052471098 -0.063912496 0.74699998 4294967295
-0.051075175 -0.063910492 0.74699998 4294967295
-0.049812302 -0.064079627 0.74900001 4294967295
-0.048412722 -0.064077675 0.74900001 4294967295
-0.047013175 -0.064075768 0.74900001 4294967295
-0.045613669 -0.064073898 0.74900001 4294967295
-0.0442142 -0.06407205 0.74900001 4294967295
-0.042814769 -0.064070247 0.74900001 4294967295
-0.041304789 -0.063897394 0.74699998 4294967295
-0.039909173 -0.063895658 0.74699998 4294967295
-0.038513597 -0.063893959 0.74699998 4294967295
-0.037068371 -0.063806772 0.74599999 4294967295
-0.03567474 -0.063805141 0.74599999 4294967295
-0.034281153 -0.063803546 0.74599999 4294967295
-0.0328876 -0.063801996 0.74599999 4294967295
-0.031494096 -0.063800469 0.74599999 4294967295
-0.030140979 -0.063884504 0.74699998 4294967295
-0.028745685 -0.063883044 0.74699998 4294967295
-0.027423663 -0.064052664 0.74900001 4294967295
-0.026024718 -0.064051278 0.74900001 4294967295
-0.024658691 -0.064135432 0.75 4294967295
-0.023319982 -0.064305134 0.75199997 4294967295
-0.021915562 -0.064303845 0.75199997 4294967295
-0.020565737 -0.064473607 0.75400001 4294967295
-0.01915767 -0.064472385 0.75400001 4294967295
-0.017749645 -0.064471193 0.75400001 4294967295
-0.016363336 -0.064555533 0.755 4294967295
-0.014953535 -0.064554416 0.755 4294967295
-0.013579656 -0.064724334 0.75700003 4294967295
-0.01216621 -0.064723276 0.75700003 4294967295
-0.010752809 -0.064722255 0.75700003 4294967295
-0.0094011417 -0.065148763 0.76200002 4294967295
-0.0079994379 -0.065318786 0.764 4294967295
-0.0065989182 -0.065574341 0.76700002 4294967295
-0.0051670359 -0.065573461 0.76700002 4294967295
-0.0037546791 -0.065914579 0.77100003 4294967295
-0.0023214312 -0.066084728 0.773 4294967295
-0.00087849214 -0.06608393 0.773 4294967295
0.00056439778 -0.066083178 0.773 4294967295
0.0020098346 -0.066167943 0.77399999 4294967295
0.0034544922 -0.066167258 0.77399999 4294967295
0.0048990985 -0.06616661 0.77399999 4294967295
0.006360047 -0.06633696 0.77600002 4294967295
-0.10198281 -0.064786926 0.773 4294967295
-0.10027708 -0.064616032 0.77100003 4294967295
-0.09883526 -0.064612806 0.77100003 4294967295
-0.097140804 -0.064442016 0.76899999 4294967295
-0.095702767 -0.064438865 0.76899999 4294967295
-0.094264776 -0.064435758 0.76899999 4294967295
-0.092826806 -0.064432681 0.76899999 4294967295
-0.091032349 -0.064178303 0.76599997 4294967295
-0.089600049 -0.064175308 0.76599997 4294967295
-0.087707385 -0.06383726 0.76200002 4294967295
-0.086169407 -0.06375058 0.76099998 4294967295
-0.084523827 -0.063580193 0.759 4294967295
-0.082666777 -0.063242316 0.755 4294967295
-0.081255212 -0.063239545 0.755 4294967295
-0.079843678 -0.063236818 0.755 4294967295
-0.078328297 -0.063150376 0.75400001 4294967295
-0.076918699 -0.063147724 0.75400001 4294967295
-0.075308837 -0.062977605 0.75199997 4294967295
-0.073903039 -0.062975027 0.75199997 4294967295
-0.072497286 -0.062972486 0.75199997 4294967295
-0.071091555 -0.062969983 0.75199997 4294967295
-0.069685854 -0.062967516 0.75199997 4294967295
-0.068280198 -0.06296508 0.75199997 4294967295
-0.066874579 -0.062962681 0.75199997 4294967295
-0.065207817 -0.062709145 0.74900001 4294967295
-0.06363748 -0.062539384 0.74699998 4294967295
-0.062241308 -0.062537104 0.74699998 4294967295
-0.060845163 -0.062534861 0.74699998 4294967295
-0.059449065 -0.062532656 0.74699998 4294967295
-0.057975281 -0.062446777 0.74599999 4294967295
-0.056581117 -0.062444642 0.74599999 4294967295
-0.055260967 -0.062526241 0.74699998 4294967295
-0.053792901 -0.062440474 0.74599999 4294967295
-0.052398849 -0.062438443 0.74599999 4294967295
-0.051073201 -0.062520146 0.74699998 4294967295
-0.049677346 -0.062518187 0.74699998 4294967295
-0.048281543 -0.062516265 0.74699998 4294967295
-0.046885762 -0.062514357 0.74699998 4294967295
-0.04549003 -0.06251251 0.74699998 4294967295
-0.044094332 -0.062510684 0.74699998 4294967295
-0.042698674 -0.062508889 0.74699998 4294967295
-0.041247763 -0.06242346 0.74599999 4294967295
-0.03985405 -0.062421743 0.74599999 4294967295
-0.038460374 -0.062420063 0.74599999 4294967295
-0.037066743 -0.062418412 0.74599999 4294967295
-0.035673145 -0.062416799 0.74599999 4294967295
-0.034279592 -0.062415224 0.74599999 4294967295
-0.032886077 -0.062413689 0.74599999 4294967295
-0.031492606 -0.062412176 0.74599999 4294967295
-0.030099172 -0.062410705 0.74599999 4294967295
-0.028705785 -0.062409259 0.74599999 4294967295
-0.027349042 -0.062491506 0.74699998 4294967295
-0.025953867 -0.062490139 0.74699998 4294967295
-0.024624489 -0.062656105 0.74900001 4294967295
-0.023225661 -0.062654801 0.74900001 4294967295
-0.021856021 -0.062737167 0.75 4294967295
-0.02050996 -0.062903233 0.75199997 4294967295
-0.019105662 -0.062902018 0.75199997 4294967295
-0.017701408 -0.062900856 0.75199997 4294967295
-0.016340543 -0.063067012 0.75400001 4294967295
-0.014952445 -0.063149542 0.755 4294967295
-0.013542721 -0.063148469 0.755 4294967295
-0.012133046 -0.063147433 0.755 4294967295
-0.01075182 -0.063313715 0.75700003 4294967295
-0.0093878433 -0.063647278 0.76099998 4294967295
-0.0079671023 -0.063646346 0.76099998 4294967295
-0.0065550101 -0.06372907 0.76200002 4294967295
-0.005145967 -0.063895471 0.764 4294967295
-0.003734373 -0.064145528 0.76700002 4294967295
-0.0023146297 -0.064479247 0.77100003 4294967295
-0.00087545923 -0.064478464 0.77100003 4294967295
0.00056366203 -0.064477727 0.77100003 4294967295
0.0020079291 -0.064644285 0.773 4294967295
0.0034506842 -0.064643614 0.773 4294967295
0.0048933891 -0.064642988 0.773 4294967295
0.0063442402 -0.064726003 0.77399999 4294967295
0.0078088362 -0.064892702 0.77600002 4294967295
-0.10171568 -0.063183986 0.77100003 4294967295
-0.10001373 -0.063016839 0.76899999 4294967295
-0.098575696 -0.063013636 0.76899999 4294967295
-0.096885033 -0.062846586 0.76700002 4294967295
-0.095450781 -0.062843457 0.76700002 4294967295
-0.094016567 -0.062840372 0.76700002 4294967295
-0.092582367 -0.062837318 0.76700002 4294967295
-0.091029353 -0.062752374 0.76599997 4294967295
-0.089129239 -0.062421728 0.76200002 4294967295
-0.087589383 -0.062336881 0.76099998 4294967295
-0.085940085 -0.062170181 0.759 4294967295
-0.084075578 -0.061839707 0.755 4294967295
-0.082554527 -0.061755024 0.75400001 4294967295
-0.081144877 -0.061752271 0.75400001 4294967295
-0.079735234 -0.061749555 0.75400001 4294967295
-0.078325644 -0.061746869 0.75400001 4294967295
-0.07671205 -0.061580449 0.75199997 4294967295
-0.075306259 -0.061577849 0.75199997 4294967295
-0.07370396 -0.06141153 0.75 4294967295
-0.072205573 -0.061327126 0.74900001 4294967295
-0.070805497 -0.061324641 0.74900001 4294967295
-0.069405444 -0.061322197 0.74900001 4294967295
-0.06809622 -0.061401654 0.75 4294967295
-0.066694364 -0.061399262 0.75 4294967295
-0.065031379 -0.061151333 0.74699998 4294967295
-0.063635208 -0.061149027 0.74699998 4294967295
-0.062155746 -0.061064906 0.74599999 4294967295
-0.060761511 -0.061062679 0.74599999 4294967295
-0.059367314 -0.061060488 0.74599999 4294967295
-0.05797315 -0.061058339 0.74599999 4294967295
-0.05657902 -0.061056208 0.74599999 4294967295
-0.055184931 -0.061054125 0.74599999 4294967295
-0.053790871 -0.061052073 0.74599999 4294967295
-0.05239686 -0.061050057 0.74599999 4294967295
-0.051002875 -0.061048072 0.74599999 4294967295
-0.049608923 -0.06104612 0.74599999 4294967295
-0.048215024 -0.061044209 0.74599999 4294967295
-0.04682114 -0.061042331 0.74599999 4294967295
-0.045427311 -0.061040483 0.74599999 4294967295
-0.04403352 -0.061038684 0.74599999 4294967295
-0.042639762 -0.061036903 0.74599999 4294967295
-0.041246045 -0.061035171 0.74599999 4294967295
-0.039852366 -0.061033469 0.74599999 4294967295
-0.038458727 -0.061031792 0.74599999 4294967295
-0.037065126 -0.061030157 0.74599999 4294967295
-0.035671569 -0.061028562 0.74599999 4294967295
-0.03427805 -0.061026994 0.74599999 4294967295
-0.032884568 -0.061025467 0.74599999 4294967295
-0.031491127 -0.061023965 0.74599999 4294967295
-0.03009773 -0.061022509 0.74599999 4294967295
-0.028704373 -0.061021082 0.74599999 4294967295
-0.027347669 -0.061101485 0.74699998 4294967295
-0.025952525 -0.061100133 0.74699998 4294967295
-0.024557428 -0.06109881 0.74699998 4294967295
-0.023224387 -0.061261106 0.74900001 4294967295
-0.02182564 -0.061259847 0.74900001 4294967295
-0.020508749 -0.061503984 0.75199997 4294967295
-0.019104486 -0.061502788 0.75199997 4294967295
-0.017700266 -0.06150163 0.75199997 4294967295
-0.016296091 -0.061500508 0.75199997 4294967295
-0.014931567 -0.061662983 0.75400001 4294967295
