# .PCD v0.7 - Point Cloud Data file format
VERSION 0.7
FIELDS x y z rgba
SIZE 4 4 4 4
TYPE F F F U
COUNT 1 1 1 1
WIDTH 1037
HEIGHT 1
VIEWPOINT 0 0 0 1 0 0 0
POINTS 1037
DATA ascii
-0.17494383 -0.012892189 0.847 4294967295
-0.1733602 -0.012887252 0.847 4294967295
-0.17177653 -0.012882358 0.847 4294967295
-0.17019294 -0.012877511 0.847 4294967295
-0.16860935 -0.012872707 0.847 4294967295
-0.16702579 -0.012867946 0.847 4294967295
-0.16544229 -0.012863229 0.847 4294967295
-0.16385879 -0.012858555 0.847 4294967295
-0.16227531 -0.012853926 0.847 4294967295
-0.1610713 -0.012879682 0.84899998 4294967295
-0.15985987 -0.012905461 0.85100001 4294967295
-0.15826903 -0.012900942 0.85100001 4294967295
-0.15723053 -0.01294193 0.85399997 4294967295
-0.15563414 -0.012937483 0.85399997 4294967295
-0.15403776 -0.01293308 0.85399997 4294967295
-0.15244141 -0.012928723 0.85399997 4294967295
-0.15084511 -0.012924409 0.85399997 4294967295
-0.14924882 -0.01292014 0.85399997 4294967295
-0.14765258 -0.012915914 0.85399997 4294967295
-0.14605635 -0.012911733 0.85399997 4294967295
-0.14446016 -0.012907595 0.85399997 4294967295
-0.14319859 -0.012933723 0.85600001 4294967295
-0.14192957 -0.012959873 0.85799998 4294967295
-0.14065309 -0.012986049 0.86000001 4294967295
-0.13936917 -0.013012252 0.86199999 4294967295
-0.13807783 -0.013038481 0.86400002 4294967295
-0.13646312 -0.013034564 0.86400002 4294967295
-0.13484846 -0.013030688 0.86400002 4294967295
-0.13369644 -0.013072091 0.86699998 4294967295
-0.13207623 -0.013068294 0.86699998 4294967295
-0.13045605 -0.013064541 0.86699998 4294967295
-0.12883592 -0.013060832 0.86699998 4294967295
-0.1272158 -0.01305717 0.86699998 4294967295
-0.12588546 -0.013083664 0.86900002 4294967295
-0.20496349 -0.011585261 0.86000001 4294967295
-0.20288213 -0.011552566 0.85799998 4294967295
-0.20127742 -0.011546857 0.85799998 4294967295
-0.19967277 -0.011541195 0.85799998 4294967295
-0.19806814 -0.011535578 0.85799998 4294967295
-0.19600561 -0.011503129 0.85600001 4294967295
-0.19395056 -0.01147075 0.85399997 4294967295
-0.19235352 -0.011465292 0.85399997 4294967295
-0.1907565 -0.01145988 0.85399997 4294967295
-0.18915951 -0.011454509 0.85399997 4294967295
-0.18756256 -0.011449185 0.85399997 4294967295
-0.18531235 -0.011403705 0.85100001 4294967295
-0.18372107 -0.011398488 0.85100001 4294967295
-0.18170178 -0.011366538 0.84899998 4294967295
-0.18011428 -0.01136142 0.84899998 4294967295
-0.17810628 -0.011329596 0.847 4294967295
-0.17652258 -0.01132458 0.847 4294967295
-0.17493893 -0.011319607 0.847 4294967295
-0.17294598 -0.011287963 0.84500003 4294967295
-0.17136613 -0.011283089 0.84500003 4294967295
-0.16978629 -0.01127826 0.84500003 4294967295
-0.16820648 -0.011273474 0.84500003 4294967295
-0.16662672 -0.011268733 0.84500003 4294967295
-0.16504699 -0.011264035 0.84500003 4294967295
-0.16385417 -0.011286031 0.847 4294967295
-0.16227074 -0.011281409 0.847 4294967295
-0.16068736 -0.011276833 0.847 4294967295
-0.15910399 -0.011272299 0.847 4294967295
-0.15752068 -0.01126781 0.847 4294967295
-0.15630557 -0.011289961 0.84899998 4294967295
-0.15471856 -0.01128555 0.84899998 4294967295
-0.15313156 -0.011281182 0.84899998 4294967295
-0.15154463 -0.011276857 0.84899998 4294967295
-0.15031096 -0.011299132 0.85100001 4294967295
-0.14872035 -0.011294887 0.85100001 4294967295
-0.14712974 -0.011290685 0.85100001 4294967295
-0.14553918 -0.011286528 0.85100001 4294967295
-0.14394863 -0.011282414 0.85100001 4294967295
-0.14285998 -0.011318103 0.85399997 4294967295
-0.14159472 -0.01134056 0.85600001 4294967295
-0.14032201 -0.011363042 0.85799998 4294967295
-0.1387185 -0.011359072 0.85799998 4294967295
-0.13711505 -0.011355146 0.85799998 4294967295
-0.13614337 -0.011404185 0.86199999 4294967295
-0.13453248 -0.011400329 0.86199999 4294967295
-0.13323005 -0.011422961 0.86400002 4294967295
-0.13161549 -0.011419186 0.86400002 4294967295
-0.13000098 -0.011415457 0.86400002 4294967295
-0.12838648 -0.011411771 0.86400002 4294967295
-0.12721218 -0.011447743 0.86699998 4294967295
-0.12559217 -0.011444134 0.86699998 4294967295
-0.2060858 -0.0099711008 0.85799998 4294967295
-0.2044811 -0.0099653117 0.85799998 4294967295
-0.20287642 -0.0099595683 0.85799998 4294967295
-0.20080262 -0.0099306656 0.85600001 4294967295
-0.19920175 -0.0099250246 0.85600001 4294967295
-0.19760092 -0.0099194273 0.85600001 4294967295
-0.19554216 -0.0098907109 0.85399997 4294967295
-0.19326381 -0.0098504918 0.85100001 4294967295
-0.19122194 -0.0098219225 0.84899998 4294967295
-0.18963434 -0.0098165488 0.84899998 4294967295
-0.18848972 -0.0098343315 0.85100001 4294967295
-0.18645917 -0.0098059326 0.84899998 4294967295
-0.18443613 -0.0097776046 0.847 4294967295
-0.18285237 -0.009772419 0.847 4294967295
-0.18169667 -0.0097903414 0.84899998 4294967295
-0.17968495 -0.009762181 0.847 4294967295
-0.17810127 -0.0097571295 0.847 4294967295
-0.17610082 -0.0097290929 0.84500003 4294967295
-0.17452094 -0.0097241392 0.84500003 4294967295
-0.17253178 -0.0096962275 0.84299999 4294967295
-0.1709557 -0.0096913734 0.84299999 4294967295
-0.16937964 -0.0096865622 0.84299999 4294967295
-0.16780363 -0.0096817967 0.84299999 4294967295
-0.16622764 -0.0096770748 0.84299999 4294967295
-0.16465169 -0.0096723968 0.84299999 4294967295
-0.16346268 -0.0096906992 0.84500003 4294967295
-0.16188303 -0.0096860975 0.84500003 4294967295
-0.16068284 -0.0097044548 0.847 4294967295
-0.1590995 -0.0096999295 0.847 4294967295
-0.15751623 -0.009695448 0.847 4294967295
-0.15593298 -0.009691013 0.847 4294967295
-0.15434974 -0.009686619 0.847 4294967295
-0.15312725 -0.0097051328 0.84899998 4294967295
-0.15154034 -0.009700818 0.84899998 4294967295
-0.1499535 -0.009696546 0.84899998 4294967295
-0.14836664 -0.0096923197 0.84899998 4294967295
-0.14677984 -0.0096881362 0.84899998 4294967295
-0.14519303 -0.0096839964 0.84899998 4294967295
-0.14360626 -0.0096799014 0.84899998 4294967295
-0.14201954 -0.0096758492 0.84899998 4294967295
-0.14076369 -0.0096946266 0.85100001 4294967295
-0.13966389 -0.0097248154 0.85399997 4294967295
-0.1380679 -0.0097208731 0.85399997 4294967295
-0.13679156 -0.0097397324 0.85600001 4294967295
-0.13550778 -0.0097586168 0.85799998 4294967295
-0.13390443 -0.0097547891 0.85799998 4294967295
-0.13291787 -0.0097964648 0.86199999 4294967295
-0.1313071 -0.0097927079 0.86199999 4294967295
-0.12999728 -0.0098117096 0.86400002 4294967295
-0.12838285 -0.0098080337 0.86400002 4294967295
-0.12676843 -0.0098044034 0.86400002 4294967295
-0.12558861 -0.0098348474 0.86699998 4294967295
-0.20608003 -0.008378217 0.85799998 4294967295
-0.20399874 -0.0083529204 0.85600001 4294967295
-0.20239787 -0.0083471984 0.85600001 4294967295
-0.20079698 -0.0083415192 0.85600001 4294967295
-0.19919617 -0.0083358856 0.85600001 4294967295
-0.19713369 -0.0083108321 0.85399997 4294967295
-0.19439185 -0.0082566747 0.84899998 4294967295
-0.1928042 -0.00825122 0.84899998 4294967295
-0.18941481 -0.0081681106 0.84100002 4294967295
-0.18784218 -0.0081627956 0.84100002 4294967295
-0.18626961 -0.0081575224 0.84100002 4294967295
-0.184697 -0.008152294 0.84100002 4294967295
-0.18355997 -0.0081664836 0.84299999 4294967295
-0.18198372 -0.0081613315 0.84299999 4294967295
-0.18040752 -0.0081562223 0.84299999 4294967295
-0.17925563 -0.0081704957 0.84500003 4294967295
-0.17767574 -0.0081654629 0.84500003 4294967295
-0.17567909 -0.00814116 0.84299999 4294967295
-0.17368993 -0.0081169233 0.84100002 4294967295
-0.17211762 -0.0081120459 0.84100002 4294967295
-0.17054532 -0.0081072114 0.84100002 4294967295
-0.16897304 -0.0081024198 0.84100002 4294967295
-0.16740082 -0.0080976747 0.84100002 4294967295
-0.16582863 -0.0080929715 0.84100002 4294967295
-0.16464707 -0.0081075458 0.84299999 4294967295
-0.16307119 -0.0081029199 0.84299999 4294967295
-0.16149531 -0.0080983378 0.84299999 4294967295
-0.1602989 -0.0081130015 0.84500003 4294967295
-0.15871938 -0.0081084957 0.84500003 4294967295
-0.15713988 -0.0081040338 0.84500003 4294967295
-0.1555604 -0.0080996165 0.84500003 4294967295
-0.15434539 -0.0081144013 0.847 4294967295
-0.15276225 -0.0081100613 0.847 4294967295
-0.15117911 -0.0081057642 0.847 4294967295
-0.14959604 -0.0081015136 0.847 4294967295
-0.14836246 -0.0081164241 0.84899998 4294967295
-0.14677568 -0.008112249 0.84899998 4294967295
-0.14518893 -0.0081081195 0.84899998 4294967295
-0.14360224 -0.0081040328 0.84899998 4294967295
-0.14201555 -0.00809999 0.84899998 4294967295
-0.14075971 -0.0081150644 0.85100001 4294967295
-0.13916934 -0.0081111016 0.85100001 4294967295
-0.13757901 -0.0081071816 0.85100001 4294967295
-0.13678771 -0.0081509165 0.85600001 4294967295
-0.13518809 -0.0081470637 0.85600001 4294967295
-0.13358852 -0.0081432536 0.85600001 4294967295
-0.13260575 -0.0081775254 0.86000001 4294967295
-0.13099876 -0.008173787 0.86000001 4294967295
-0.12969269 -0.0081890933 0.86199999 4294967295
-0.12837921 -0.0082044285 0.86400002 4294967295
-0.12676483 -0.0082008075 0.86400002 4294967295
-0.12558506 -0.0082256934 0.86699998 4294967295
-0.1242511 -0.0082411179 0.86900002 4294967295
-0.20719482 -0.0067754565 0.85600001 4294967295
-0.20559391 -0.0067696511 0.85600001 4294967295
-0.20399304 -0.0067638913 0.85600001 4294967295
-0.20191929 -0.0067423848 0.85399997 4294967295
-0.20032221 -0.006736727 0.85399997 4294967295
-0.19872519 -0.0067311139 0.85399997 4294967295
-0.19597404 -0.0066861683 0.84899998 4294967295
-0.19392848 -0.0066649392 0.847 4294967295
-0.19098209 -0.0066123297 0.84100002 4294967295
-0.18940948 -0.0066069779 0.84100002 4294967295
-0.18783693 -0.0066016708 0.84100002 4294967295
-0.18626437 -0.0065964055 0.84100002 4294967295
-0.18469186 -0.0065911855 0.84100002 4294967295
-0.18311936 -0.0065860082 0.84100002 4294967295
-0.18154691 -0.0065808753 0.84100002 4294967295
-0.1799745 -0.006575786 0.84100002 4294967295
-0.17882635 -0.0065863668 0.84299999 4294967295
-0.17725024 -0.006581353 0.84299999 4294967295
-0.17525738 -0.0065607815 0.84100002 4294967295
-0.17368506 -0.0065558678 0.84100002 4294967295
-0.17211279 -0.006550998 0.84100002 4294967295
-0.17054054 -0.0065461718 0.84100002 4294967295
-0.1689683 -0.006541389 0.84100002 4294967295
-0.16699803 -0.0065211058 0.83899999 4294967295
-0.16542961 -0.0065164217 0.83899999 4294967295
-0.16425185 -0.0065273046 0.84100002 4294967295
-0.16267975 -0.0065226969 0.84100002 4294967295
-0.1614908 -0.0065336344 0.84299999 4294967295
-0.159915 -0.0065291035 0.84299999 4294967295
-0.15833925 -0.0065246169 0.84299999 4294967295
-0.15676354 -0.0065201744 0.84299999 4294967295
-0.15518785 -0.0065157744 0.84299999 4294967295
-0.15397662 -0.0065268679 0.84500003 4294967295
-0.15239726 -0.0065225461 0.84500003 4294967295
-0.15081792 -0.0065182685 0.84500003 4294967295
-0.14923862 -0.0065140347 0.84500003 4294967295
-0.14800879 -0.0065252525 0.847 4294967295
-0.14642581 -0.0065210969 0.847 4294967295
-0.14484285 -0.0065169851 0.847 4294967295
-0.14325991 -0.0065129176 0.847 4294967295
-0.14201155 -0.0065242634 0.84899998 4294967295
-0.14042494 -0.0065202736 0.84899998 4294967295
-0.13883835 -0.006516329 0.84899998 4294967295
-0.13725181 -0.0065124272 0.84899998 4294967295
-0.1356653 -0.0065085706 0.84899998 4294967295
-0.13486844 -0.0065430659 0.85399997 4294967295
-0.13327265 -0.0065392754 0.85399997 4294967295
-0.13229363 -0.0065661403 0.85799998 4294967295
-0.13069043 -0.0065624211 0.85799998 4294967295
-0.12908722 -0.0065587456 0.85799998 4294967295
-0.12778126 -0.0065703951 0.86000001 4294967295
-0.12617442 -0.0065668016 0.86000001 4294967295
-0.12485728 -0.0065785144 0.86199999 4294967295
-0.12324675 -0.0065750014 0.86199999 4294967295
-0.12163627 -0.0065715332 0.86199999 4294967295
-0.12030429 -0.0065833484 0.86400002 4294967295
-0.20718904 -0.0051865424 0.85600001 4294967295
-0.20558816 -0.0051807454 0.85600001 4294967295
-0.20351072 -0.0051629008 0.85399997 4294967295
-0.20120437 -0.0051390906 0.85100001 4294967295
-0.19961295 -0.0051334598 0.85100001 4294967295
-0.19755618 -0.0051158224 0.84899998 4294967295
-0.19550692 -0.0050982554 0.847 4294967295
-0.19254935 -0.0050567086 0.84100002 4294967295
-0.19097675 -0.0050513195 0.84100002 4294967295
-0.18895376 -0.005033975 0.83899999 4294967295
-0.18738498 -0.005028687 0.83899999 4294967295
-0.1858162 -0.0050234422 0.83899999 4294967295
-0.18424746 -0.0050182417 0.83899999 4294967295
-0.18267876 -0.005013085 0.83899999 4294967295
-0.18154182 -0.0050199102 0.84100002 4294967295
-0.17954145 -0.0050029028 0.83899999 4294967295
-0.17797285 -0.0049978774 0.83899999 4294967295
-0.17682476 -0.0050047971 0.84100002 4294967295
-0.17525247 -0.0049998476 0.84100002 4294967295
-0.1736802 -0.0049949414 0.84100002 4294967295
-0.17169869 -0.0049782121 0.83899999 4294967295
-0.17013021 -0.0049734055 0.83899999 4294967295
-0.16815995 -0.0049567982 0.83700001 4294967295
-0.1665953 -0.0049520899 0.83700001 4294967295
-0.16503064 -0.0049474258 0.83700001 4294967295
-0.16346605 -0.0049428046 0.83700001 4294967295
-0.16190147 -0.0049382267 0.83700001 4294967295
-0.16033691 -0.0049336934 0.83700001 4294967295
-0.15915175 -0.004940981 0.83899999 4294967295
-0.15758352 -0.0049365237 0.83899999 4294967295
-0.15601534 -0.0049321102 0.83899999 4294967295
-0.15444715 -0.0049277404 0.83899999 4294967295
-0.15287901 -0.004923414 0.83899999 4294967295
-0.15131089 -0.0049191322 0.83899999 4294967295
-0.1497428 -0.0049148928 0.83899999 4294967295
-0.14852799 -0.004922404 0.84100002 4294967295
-0.14695621 -0.0049182428 0.84100002 4294967295
-0.14538449 -0.004914125 0.84100002 4294967295
-0.14415477 -0.0049217273 0.84299999 4294967295
-0.14257936 -0.0049176882 0.84299999 4294967295
-0.14100398 -0.0049136924 0.84299999 4294967295
-0.13942865 -0.0049097398 0.84299999 4294967295
-0.13785329 -0.0049058315 0.84299999 4294967295
-0.136278 -0.0049019679 0.84299999 4294967295
-0.13502234 -0.0049097687 0.84500003 4294967295
-0.13375922 -0.0049175946 0.847 4294967295
-0.13280076 -0.0049370495 0.85100001 4294967295
-0.13167319 -0.0049507166 0.85399997 4294967295
-0.13007748 -0.0049470244 0.85399997 4294967295
-0.12878272 -0.0049549532 0.85600001 4294967295
-0.12718338 -0.0049513411 0.85600001 4294967295
-0.12587744 -0.0049593332 0.85799998 4294967295
-0.12456408 -0.0049673538 0.86000001 4294967295
-0.12324329 -0.0049754023 0.86199999 4294967295
-0.12163284 -0.0049719443 0.86199999 4294967295
-0.12002242 -0.0049685305 0.86199999 4294967295
-0.11868677 -0.0049766819 0.86400002 4294967295
-0.11747921 -0.0049906187 0.86699998 4294967295
-0.11585954 -0.0049873204 0.86699998 4294967295
-0.21358685 -0.0036213675 0.85600001 4294967295
-0.21025236 -0.0035858341 0.84899998 4294967295
-0.20866454 -0.0035799583 0.84899998 4294967295
-0.20707674 -0.0035741269 0.84899998 4294967295
-0.20548899 -0.0035683403 0.84899998 4294967295
-0.20342092 -0.0035542052 0.847 4294967295
-0.20183696 -0.0035485204 0.847 4294967295
-0.20025304 -0.0035428803 0.847 4294967295
-0.19820003 -0.0035289312 0.84500003 4294967295
-0.19568917 -0.0035067135 0.84100002 4294967295
-0.19365489 -0.0034929181 0.83899999 4294967295
-0.19208609 -0.003487506 0.83899999 4294967295
-0.19051726 -0.0034821378 0.83899999 4294967295
-0.18849808 -0.0034685256 0.83700001 4294967295
-0.18693309 -0.0034632576 0.83700001 4294967295
-0.18536809 -0.0034580333 0.83700001 4294967295
-0.18380316 -0.0034528526 0.83700001 4294967295
-0.18223822 -0.0034477157 0.83700001 4294967295
-0.18067332 -0.0034426223 0.83700001 4294967295
-0.17910847 -0.0034375729 0.83700001 4294967295
-0.17754361 -0.003432567 0.83700001 4294967295
-0.17639932 -0.0034357945 0.83899999 4294967295
-0.17483081 -0.0034308645 0.83899999 4294967295
-0.17326233 -0.0034259777 0.83899999 4294967295
-0.17169388 -0.0034211352 0.83899999 4294967295
-0.16971992 -0.0034081922 0.83700001 4294967295
-0.16815525 -0.0034034485 0.83700001 4294967295
-0.16659063 -0.0033987483 0.83700001 4294967295
-0.16502604 -0.0033940915 0.83700001 4294967295
-0.16346148 -0.0033894787 0.83700001 4294967295
-0.16189694 -0.0033849096 0.83700001 4294967295
-0.16033241 -0.0033803834 0.83700001 4294967295
-0.15876794 -0.0033759014 0.83700001 4294967295
-0.15757912 -0.0033795189 0.83899999 4294967295
-0.15601097 -0.0033751137 0.83899999 4294967295
-0.15444283 -0.0033707526 0.83899999 4294967295
-0.15251032 -0.00335841 0.83700001 4294967295
-0.15094599 -0.0033541459 0.83700001 4294967295
-0.14938168 -0.0033499252 0.83700001 4294967295
-0.14817062 -0.0033537436 0.83899999 4294967295
-0.14660263 -0.0033496006 0.83899999 4294967295
-0.14503467 -0.0033455011 0.83899999 4294967295
-0.14346676 -0.0033414462 0.83899999 4294967295
-0.14223713 -0.0033453901 0.84100002 4294967295
-0.14066553 -0.0033414124 0.84100002 4294967295
-0.13942474 -0.0033454157 0.84299999 4294967295
-0.13784945 -0.0033415165 0.84299999 4294967295
-0.13627419 -0.0033376615 0.84299999 4294967295
-0.13469897 -0.0033338498 0.84299999 4294967295
-0.13343963 -0.0033379833 0.84500003 4294967295
-0.13248493 -0.0033500344 0.84899998 4294967295
-0.13089859 -0.0033463289 0.84899998 4294967295
-0.1296169 -0.0033505419 0.85100001 4294967295
-0.1280269 -0.0033469156 0.85100001 4294967295
-0.12688263 -0.0033551205 0.85399997 4294967295
-0.12587391 -0.0033672689 0.85799998 4294967295
-0.12456061 -0.0033715882 0.86000001 4294967295
-0.12295389 -0.0033681032 0.86000001 4294967295
-0.12134723 -0.0033646633 0.86000001 4294967295
-0.12001906 -0.0033690846 0.86199999 4294967295
-0.11840873 -0.003365726 0.86199999 4294967295
-0.11706942 -0.0033702136 0.86400002 4294967295
-0.1154554 -0.0033669376 0.86400002 4294967295
-0.11384141 -0.0033637062 0.86400002 4294967295
-0.21518181 -0.0020386947 0.85600001 4294967295
-0.21183431 -0.0020160661 0.84899998 4294967295
-0.21024649 -0.0020101536 0.84899998 4294967295
-0.20865873 -0.0020042853 0.84899998 4294967295
-0.20658317 -0.0019937539 0.847 4294967295
-0.20499921 -0.0019879881 0.847 4294967295
-0.20293494 -0.001977586 0.84500003 4294967295
-0.20135477 -0.0019719221 0.84500003 4294967295
-0.19977464 -0.0019663023 0.84500003 4294967295
-0.1977254 -0.0019560857 0.84299999 4294967295
-0.19568373 -0.0019459401 0.84100002 4294967295
-0.19364952 -0.0019358638 0.83899999 4294967295
-0.19208072 -0.0019304592 0.83899999 4294967295
-0.19051194 -0.0019250987 0.83899999 4294967295
-0.18849282 -0.0019152055 0.83700001 4294967295
-0.18648119 -0.001905381 0.83499998 4294967295
-0.18491998 -0.0019001768 0.83499998 4294967295
-0.1833588 -0.0018950158 0.83499998 4294967295
-0.18179768 -0.0018898989 0.83499998 4294967295
-0.18023658 -0.0018848253 0.83499998 4294967295
-0.17867552 -0.0018797955 0.83499998 4294967295
-0.17669022 -0.0018703188 0.833 4294967295
-0.17513295 -0.0018653877 0.833 4294967295
-0.17357568 -0.0018605004 0.833 4294967295
-0.17243147 -0.0018601118 0.83499998 4294967295
-0.17127983 -0.0018597438 0.83700001 4294967295
-0.16930965 -0.0018505317 0.83499998 4294967295
-0.16774876 -0.0018458068 0.83499998 4294967295
-0.16618791 -0.0018411258 0.83499998 4294967295
-0.16462712 -0.0018364883 0.83499998 4294967295
-0.16306633 -0.0018318943 0.83499998 4294967295
-0.16150557 -0.0018273438 0.83499998 4294967295
-0.15994485 -0.0018228372 0.83499998 4294967295
-0.1587635 -0.0018227294 0.83700001 4294967295
-0.1571991 -0.0018182992 0.83700001 4294967295
-0.15563473 -0.0018139125 0.83700001 4294967295
-0.15407041 -0.00180957 0.83700001 4294967295
-0.15250607 -0.0018052708 0.83700001 4294967295
-0.15094176 -0.0018010152 0.83700001 4294967295
-0.1493775 -0.0017968033 0.83700001 4294967295
-0.14781329 -0.0017926352 0.83700001 4294967295
-0.14624909 -0.0017885109 0.83700001 4294967295
-0.14468491 -0.0017844302 0.83700001 4294967295
-0.14346273 -0.0017846472 0.83899999 4294967295
-0.14189489 -0.0017806442 0.83899999 4294967295
-0.14032708 -0.0017766851 0.83899999 4294967295
-0.13909008 -0.0017769958 0.84100002 4294967295
-0.13751857 -0.0017731149 0.84100002 4294967295
-0.1362704 -0.0017734854 0.84299999 4294967295
-0.13469522 -0.0017696834 0.84299999 4294967295
-0.13312006 -0.0017659251 0.84299999 4294967295
-0.13216914 -0.0017705726 0.847 4294967295
-0.13058659 -0.001766885 0.847 4294967295
-0.12930867 -0.0017674053 0.84899998 4294967295
-0.12802333 -0.0017679525 0.85100001 4294967295
-0.12643337 -0.0017643806 0.85100001 4294967295
-0.12557699 -0.0017711991 0.85600001 4294967295
-0.12426745 -0.0017718256 0.85799998 4294967295
-0.12295046 -0.0017724808 0.86000001 4294967295
-0.12134383 -0.0017690505 0.86000001 4294967295
-0.11973722 -0.0017656651 0.86000001 4294967295
-0.1181307 -0.0017623246 0.86000001 4294967295
-0.11706614 -0.0017672108 0.86400002 4294967295
-0.11518493 -0.0017598616 0.86199999 4294967295
-0.11357472 -0.0017566482 0.86199999 4294967295
-0.11222434 -0.0017575483 0.86400002 4294967295
-0.2167768 -0.00045618351 0.85600001 4294967295
-0.21341622 -0.00044645928 0.84899998 4294967295
-0.21132942 -0.00043947215 0.847 4294967295
-0.20974539 -0.00043358104 0.847 4294967295
-0.20816138 -0.00042773416 0.847 4294967295
-0.20657741 -0.00042193153 0.847 4294967295
-0.20450947 -0.00041519047 0.84500003 4294967295
-0.20244898 -0.00040852063 0.84299999 4294967295
-0.20039603 -0.0004019218 0.84100002 4294967295
-0.19882341 -0.00039633605 0.84100002 4294967295
-0.19725081 -0.00039079427 0.84100002 4294967295
-0.19521292 -0.00038438017 0.83899999 4294967295
-0.19318251 -0.00037803597 0.83700001 4294967295
-0.1916175 -0.00037265173 0.83700001 4294967295
-0.19005252 -0.00036731127 0.83700001 4294967295
-0.18803717 -0.00036114946 0.83499998 4294967295
-0.18647599 -0.00035590908 0.83499998 4294967295
-0.18447194 -0.00034987222 0.833 4294967295
-0.18291456 -0.00034473138 0.833 4294967295
-0.18135719 -0.00033963408 0.833 4294967295
-0.17979985 -0.00033458028 0.833 4294967295
-0.17824256 -0.00032957006 0.833 4294967295
-0.1766853 -0.00032460334 0.833 4294967295
-0.17512806 -0.00031968014 0.833 4294967295
-0.17357086 -0.00031480048 0.833 4294967295
-0.17201367 -0.00030996429 0.833 4294967295
-0.17086579 -0.00030590442 0.83499998 4294967295
-0.16889943 -0.00030042263 0.833 4294967295
-0.16734232 -0.00029571707 0.833 4294967295
-0.16578525 -0.00029105504 0.833 4294967295
-0.16422823 -0.00028643655 0.833 4294967295
-0.16267121 -0.0002818616 0.833 4294967295
-0.16111423 -0.00027733014 0.833 4294967295
-0.1595573 -0.00027284224 0.833 4294967295
-0.15837973 -0.00026904221 0.83499998 4294967295
-0.15681911 -0.0002646308 0.83499998 4294967295
-0.15525852 -0.00026026301 0.83499998 4294967295
-0.15369794 -0.00025593882 0.83499998 4294967295
-0.15213741 -0.00025165832 0.83499998 4294967295
-0.15057689 -0.00024742138 0.83499998 4294967295
-0.14901641 -0.00024322812 0.83499998 4294967295
-0.14745596 -0.00023907852 0.83499998 4294967295
-0.14589556 -0.00023497251 0.83499998 4294967295
-0.14433515 -0.00023091011 0.83499998 4294967295
-0.14311677 -0.00022743485 0.83700001 4294967295
-0.1415527 -0.0002234502 0.83700001 4294967295
-0.14032318 -0.00022003383 0.83899999 4294967295
-0.1390862 -0.00021664257 0.84100002 4294967295
-0.13751473 -0.00021277071 0.84100002 4294967295
-0.13626659 -0.00020943969 0.84299999 4294967295
-0.13469145 -0.00020564675 0.84299999 4294967295
-0.13311638 -0.00020189787 0.84299999 4294967295
-0.13216545 -0.00019913344 0.847 4294967295
-0.13058294 -0.00019545526 0.847 4294967295
-0.12930506 -0.00019227428 0.84899998 4294967295
-0.12771887 -0.00018867615 0.84899998 4294967295
-0.12642987 -0.0001855585 0.85100001 4294967295
-0.1252801 -0.00018268256 0.85399997 4294967295
-0.12426399 -0.00018003646 0.85799998 4294967295
-0.12266109 -0.0001765795 0.85799998 4294967295
-0.12105826 -0.00017316738 0.85799998 4294967295
-0.11973391 -0.00017019591 0.86000001 4294967295
-0.11812739 -0.00016686575 0.86000001 4294967295
-0.11679189 -0.0001639609 0.86199999 4294967295
-0.11518171 -0.00016071307 0.86199999 4294967295
-0.11357155 -0.00015751025 0.86199999 4294967295
-0.11222123 -0.00015471061 0.86400002 4294967295
-0.11099147 -0.00015211703 0.86699998 4294967295
-0.21626425 0.0011296 0.85399997 4294967295
-0.21341027 0.0011289729 0.84899998 4294967295
-0.21132354 0.0011322413 0.847 4294967295
-0.20973955 0.0011381251 0.847 4294967295
-0.2081556 0.0011439646 0.847 4294967295
-0.20608391 0.0011470449 0.84500003 4294967295
-0.20450377 0.001152782 0.84500003 4294967295
-0.20244333 0.0011557334 0.84299999 4294967295
-0.20039046 0.0011586136 0.84100002 4294967295
-0.19881788 0.001164192 0.84100002 4294967295
-0.19677624 0.0011669446 0.83899999 4294967295
-0.19474217 0.0011696271 0.83700001 4294967295
-0.19271554 0.0011722398 0.83499998 4294967295
-0.19115432 0.0011776037 0.83499998 4294967295
-0.18959311 0.0011829239 0.83499998 4294967295
-0.18803193 0.0011882004 0.83499998 4294967295
-0.18602419 0.0011905751 0.833 4294967295
-0.18446679 0.0011957518 0.833 4294967295
-0.18290946 0.0012008853 0.833 4294967295
-0.18135215 0.001205975 0.833 4294967295
-0.17979485 0.0012110211 0.833 4294967295
-0.17823763 0.0012160238 0.833 4294967295
-0.17625618 0.0012180513 0.83099997 4294967295
-0.17470272 0.0012229549 0.83099997 4294967295
-0.1731493 0.0012278153 0.83099997 4294967295
-0.17200889 0.0012355988 0.833 4294967295
-0.1704518 0.0012403836 0.833 4294967295
-0.16889472 0.001245125 0.833 4294967295
-0.16733766 0.0012498226 0.833 4294967295
-0.16578065 0.0012544768 0.833 4294967295
-0.16422364 0.0012590872 0.833 4294967295
-0.16266671 0.0012636542 0.833 4294967295
-0.16110978 0.0012681776 0.833 4294967295
-0.15916978 0.0012696019 0.83099997 4294967295
-0.15761666 0.0012740275 0.83099997 4294967295
-0.15643914 0.0012814866 0.833 4294967295
-0.15488233 0.0012858356 0.833 4294967295
-0.15369369 0.0012932387 0.83499998 4294967295
-0.15176879 0.0012944032 0.833 4294967295
-0.15021205 0.0012986216 0.833 4294967295
-0.14829843 0.0012996682 0.83099997 4294967295
-0.14674552 0.0013037896 0.83099997 4294967295
-0.1458915 0.0013141627 0.83499998 4294967295
-0.14433114 0.0013182166 0.83499998 4294967295
-0.14277083 0.0013222267 0.83499998 4294967295
-0.14121053 0.001326193 0.83499998 4294967295
-0.13998477 0.0013333014 0.83700001 4294967295
-0.13875157 0.0013403851 0.83899999 4294967295
-0.13751091 0.0013474431 0.84100002 4294967295
-0.13593954 0.0013512619 0.84100002 4294967295
-0.13436818 0.0013550367 0.84100002 4294967295
-0.13279685 0.0013587676 0.84100002 4294967295
-0.13153765 0.0013656943 0.84299999 4294967295
-0.13027099 0.0013725946 0.84500003 4294967295
-0.12899688 0.0013794678 0.847 4294967295
-0.12771532 0.0013863135 0.84899998 4294967295
-0.12612921 0.0013898575 0.84899998 4294967295
-0.12483653 0.0013966397 0.85100001 4294967295
-0.12397089 0.0014083292 0.85600001 4294967295
-0.12237177 0.0014117683 0.85600001 4294967295
-0.12105489 0.0014184688 0.85799998 4294967295
-0.11945211 0.0014218257 0.85799998 4294967295
-0.11812412 0.0014284602 0.86000001 4294967295
-0.11651767 0.001431735 0.86000001 4294967295
-0.1151785 0.0014383019 0.86199999 4294967295
-0.1135684 0.0014414942 0.86199999 4294967295
-0.11221808 0.0014479933 0.86400002 4294967295
-0.11098836 0.0014561408 0.86699998 4294967295
-0.10962132 0.0014625817 0.86900002 4294967295
-0.21709011 0.0026986133 0.85100001 4294967295
-0.21549858 0.0027046509 0.85100001 4294967295
-0.21340436 0.0027042732 0.84899998 4294967295
-0.21131767 0.0027038234 0.847 4294967295
-0.20973372 0.0027096996 0.847 4294967295
-0.20765832 0.0027091193 0.84500003 4294967295
-0.20559041 0.0027084674 0.84299999 4294967295
-0.20353004 0.0027077447 0.84100002 4294967295
-0.20195745 0.0027134037 0.84100002 4294967295
-0.19990835 0.0027125517 0.83899999 4294967295
-0.19833957 0.0027181099 0.83899999 4294967295
-0.19583265 0.0027106383 0.83499998 4294967295
-0.19427142 0.0027160821 0.83499998 4294967295
-0.19224861 0.0027149639 0.833 4294967295
-0.19069117 0.0027203078 0.833 4294967295
-0.18913375 0.0027256077 0.833 4294967295
-0.18757637 0.0027308641 0.833 4294967295
-0.18601902 0.0027360769 0.833 4294967295
-0.18401878 0.0027346646 0.83099997 4294967295
-0.18246523 0.0027397785 0.83099997 4294967295
-0.18091169 0.0027448481 0.83099997 4294967295
-0.1793582 0.002749875 0.83099997 4294967295
-0.17780474 0.0027548578 0.83099997 4294967295
-0.17625128 0.0027597973 0.83099997 4294967295
-0.17469786 0.0027646932 0.83099997 4294967295
-0.17314449 0.0027695461 0.83099997 4294967295
-0.17159115 0.0027743552 0.83099997 4294967295
-0.17003781 0.0027791208 0.83099997 4294967295
-0.16848451 0.0027838429 0.83099997 4294967295
-0.16693126 0.0027885213 0.83099997 4294967295
-0.165378 0.0027931565 0.83099997 4294967295
-0.1638248 0.002797748 0.83099997 4294967295
-0.16227163 0.0028022963 0.83099997 4294967295
-0.16071849 0.0028068007 0.83099997 4294967295
-0.15916537 0.0028112617 0.83099997 4294967295
-0.15761226 0.0028156792 0.83099997 4294967295
-0.15605919 0.0028200534 0.83099997 4294967295
-0.15487802 0.0028311813 0.833 4294967295
-0.1533213 0.0028354786 0.833 4294967295
-0.15140018 0.002832914 0.83099997 4294967295
-0.14984724 0.002837114 0.83099997 4294967295
-0.14829433 0.0028412703 0.83099997 4294967295
-0.14674145 0.0028453832 0.83099997 4294967295
-0.14553802 0.0028563105 0.833 4294967295
-0.14398144 0.0028603459 0.833 4294967295
-0.14242491 0.0028643375 0.833 4294967295
-0.1408684 0.0028682856 0.833 4294967295
-0.13964641 0.0028790862 0.83499998 4294967295
-0.13841698 0.0028898618 0.83700001 4294967295
-0.13718009 0.0029006116 0.83899999 4294967295
-0.13593577 0.002911336 0.84100002 4294967295
-0.13436444 0.0029151018 0.84100002 4294967295
-0.13279317 0.0029188234 0.84100002 4294967295
-0.131534 0.0029294507 0.84299999 4294967295
-0.13026738 0.0029400515 0.84500003 4294967295
-0.12899329 0.002950625 0.847 4294967295
-0.1277118 0.0029611711 0.84899998 4294967295
-0.12612574 0.0029647057 0.84899998 4294967295
-0.12453969 0.0029681956 0.84899998 4294967295
-0.1236778 0.0029891417 0.85399997 4294967295
-0.12236837 0.0029995712 0.85600001 4294967295
-0.12076936 0.0030029549 0.85600001 4294967295
-0.11944881 0.0030133184 0.85799998 4294967295
-0.11784614 0.0030166202 0.85799998 4294967295
-0.11651446 0.0030269166 0.86000001 4294967295
-0.11517532 0.0030371828 0.86199999 4294967295
-0.11356525 0.0030403645 0.86199999 4294967295
-0.1119552 0.0030435012 0.86199999 4294967295
-0.11060125 0.0030536612 0.86400002 4294967295
-0.109366 0.0030673279 0.86699998 4294967295
-0.21944648 0.0042864904 0.85399997 4294967295
-0.21708408 0.0042775068 0.85100001 4294967295
-0.21498615 0.00427347 0.84899998 4294967295
-0.21289577 0.0042693601 0.847 4294967295
-0.21081287 0.0042651785 0.84500003 4294967295
-0.20923269 0.0042710332 0.84500003 4294967295
-0.20716107 0.0042667212 0.84299999 4294967295
-0.20509697 0.0042623379 0.84100002 4294967295
-0.20304039 0.0042578839 0.83899999 4294967295
-0.20147157 0.0042635216 0.83899999 4294967295
-0.1999028 0.0042691152 0.83899999 4294967295
-0.19786125 0.0042644758 0.83700001 4294967295
-0.19535819 0.004249563 0.833 4294967295
-0.19333543 0.0042447699 0.83099997 4294967295
-0.19178171 0.0042501371 0.83099997 4294967295
-0.19022806 0.0042554606 0.83099997 4294967295
-0.18867442 0.0042607402 0.83099997 4294967295
-0.1871208 0.0042659771 0.83099997 4294967295
-0.18556723 0.0042711701 0.83099997 4294967295
-0.18401369 0.0042763189 0.83099997 4294967295
-0.18246016 0.0042814254 0.83099997 4294967295
-0.1809067 0.0042864881 0.83099997 4294967295
-0.17935321 0.0042915069 0.83099997 4294967295
-0.17779979 0.0042964821 0.83099997 4294967295
-0.1762464 0.0043014139 0.83099997 4294967295
-0.17469303 0.0043063024 0.83099997 4294967295
-0.172723 0.0043007717 0.829 4294967295
-0.17117342 0.0043055615 0.829 4294967295
-0.16962388 0.004310308 0.829 4294967295
-0.16807437 0.0043150107 0.829 4294967295
-0.16652489 0.0043196706 0.829 4294967295
-0.16537343 0.0043347189 0.83099997 4294967295
-0.16382027 0.0043393024 0.83099997 4294967295
-0.16226713 0.0043438431 0.83099997 4294967295
-0.16071403 0.004348339 0.83099997 4294967295
-0.15877791 0.0043423166 0.829 4294967295
-0.15722859 0.0043467158 0.829 4294967295
-0.15605488 0.0043615676 0.83099997 4294967295
-0.15450189 0.0043658894 0.83099997 4294967295
-0.15294892 0.0043701683 0.83099997 4294967295
-0.15139599 0.0043744035 0.83099997 4294967295
-0.14984308 0.0043785954 0.83099997 4294967295
-0.14829022 0.004382743 0.83099997 4294967295
-0.14673738 0.0043868474 0.83099997 4294967295
-0.14553398 0.0044014766 0.833 4294967295
-0.14397746 0.0044055032 0.833 4294967295
-0.14242098 0.0044094864 0.833 4294967295
-0.14086449 0.0044134255 0.833 4294967295
-0.13964254 0.0044279271 0.83499998 4294967295
-0.13841313 0.0044424026 0.83700001 4294967295
-0.13684928 0.0044462294 0.83700001 4294967295
-0.13560872 0.0044606454 0.83899999 4294967295
-0.13436073 0.0044750352 0.84100002 4294967295
-0.13278951 0.004478748 0.84100002 4294967295
-0.13121831 0.0044824164 0.84100002 4294967295
-0.12964714 0.0044860397 0.84100002 4294967295
-0.12898973 0.0045216507 0.847 4294967295
-0.12740742 0.0045252112 0.847 4294967295
-0.12612224 0.0045394218 0.84899998 4294967295
-0.12453625 0.0045429016 0.84899998 4294967295
-0.12323993 0.0045570475 0.85100001 4294967295
-0.1220791 0.0045765229 0.85399997 4294967295
-0.12076604 0.0045906147 0.85600001 4294967295
-0.11944552 0.0046046772 0.85799998 4294967295
-0.11784288 0.004607969 0.85799998 4294967295
-0.11651124 0.0046219644 0.86000001 4294967295
-0.11490492 0.0046251733 0.86000001 4294967295
-0.11329862 0.0046283375 0.86000001 4294967295
-0.11195213 0.0046422267 0.86199999 4294967295
-0.11059821 0.0046560853 0.86400002 4294967295
-0.10898457 0.0046591274 0.86400002 4294967295
-0.22026102 0.0058440901 0.85100001 4294967295
-0.21866952 0.0058502019 0.85100001 4294967295
-0.2165679 0.005842505 0.84899998 4294967295
-0.21447375 0.0058347364 0.847 4294967295
-0.21288985 0.0058406861 0.847 4294967295
-0.21030806 0.0058189812 0.84299999 4294967295
-0.20873168 0.0058248146 0.84299999 4294967295
-0.20666386 0.0058167712 0.84100002 4294967295
-0.20509128 0.0058225035 0.84100002 4294967295
-0.20303477 0.0058143311 0.83899999 4294967295
-0.20098576 0.005806088 0.83700001 4294967295
-0.19942077 0.0058116615 0.83700001 4294967295
-0.197383 0.0058032908 0.83499998 4294967295
-0.19535278 0.0057948506 0.833 4294967295
-0.19333005 0.0057863402 0.83099997 4294967295
-0.19177642 0.0057916995 0.83099997 4294967295
-0.19022278 0.005797015 0.83099997 4294967295
-0.18866919 0.0058022882 0.83099997 4294967295
-0.18711564 0.0058075176 0.83099997 4294967295
-0.18556209 0.0058127018 0.83099997 4294967295
-0.18400858 0.0058178445 0.83099997 4294967295
-0.18245511 0.0058229426 0.83099997 4294967295
-0.18090166 0.0058279978 0.83099997 4294967295
-0.17934825 0.0058330093 0.83099997 4294967295
-0.17779489 0.0058379779 0.83099997 4294967295
-0.17581736 0.0058288393 0.829 4294967295
-0.17426778 0.0058337077 0.829 4294967295
-0.1727182 0.0058385339 0.829 4294967295
-0.17116867 0.0058433157 0.829 4294967295
-0.16920997 0.0058339462 0.82700002 4294967295
-0.16766426 0.0058386303 0.82700002 4294967295
-0.16611853 0.0058432706 0.82700002 4294967295
-0.16497086 0.0058620092 0.829 4294967295
-0.16342147 0.0058665746 0.829 4294967295
-0.16187212 0.0058710952 0.829 4294967295
-0.16032279 0.0058755735 0.829 4294967295
-0.15877351 0.0058800071 0.829 4294967295
-0.15722424 0.0058843982 0.829 4294967295
-0.15567499 0.0058887457 0.829 4294967295
-0.15412579 0.0058930493 0.829 4294967295
-0.1525766 0.0058973092 0.829 4294967295
-0.15102746 0.0059015257 0.829 4294967295
-0.14947833 0.0059056995 0.829 4294967295
-0.14828612 0.0059240856 0.83099997 4294967295
-0.14673333 0.0059281825 0.83099997 4294967295
-0.14518054 0.0059322342 0.83099997 4294967295
-0.14362782 0.0059362431 0.83099997 4294967295
-0.14207506 0.0059402077 0.83099997 4294967295
-0.14052241 0.0059441295 0.83099997 4294967295
-0.13930422 0.0059623225 0.833 4294967295
-0.13807859 0.0059804898 0.83499998 4294967295
-0.13651851 0.005984298 0.83499998 4294967295
-0.13528173 0.0060024057 0.83700001 4294967295
-0.13403748 0.0060204868 0.83899999 4294967295
-0.13278584 0.0060385414 0.84100002 4294967295
-0.13121468 0.0060422001 0.84100002 4294967295
-0.12964356 0.0060458151 0.84100002 4294967295
-0.1286816 0.006078158 0.84500003 4294967295
-0.1274039 0.0060960953 0.847 4294967295
-0.12582166 0.0060996022 0.847 4294967295
-0.12423944 0.0061030649 0.847 4294967295
-0.1229469 0.0061209016 0.84899998 4294967295
-0.1216469 0.0061387094 0.85100001 4294967295
-0.12048055 0.0061637061 0.85399997 4294967295
-0.11916381 0.0061814599 0.85600001 4294967295
-0.11756495 0.0061847335 0.85600001 4294967295
-0.11623707 0.0062024202 0.85799998 4294967295
-0.11490175 0.0062200772 0.86000001 4294967295
-0.11329551 0.0062232302 0.86000001 4294967295
-0.11168931 0.0062263384 0.86000001 4294967295
-0.11033916 0.0062438878 0.86199999 4294967295
-0.10898157 0.0062614065 0.86400002 4294967295
-0.22025496 0.0074227341 0.85100001 4294967295
-0.21814957 0.0074113784 0.84899998 4294967295
-0.21656191 0.0074174241 0.84899998 4294967295
-0.21446782 0.0074059372 0.847 4294967295
-0.21238127 0.0073943781 0.84500003 4294967295
-0.21030223 0.0073827468 0.84299999 4294967295
-0.20872588 0.0073885731 0.84299999 4294967295
-0.20665814 0.0073768124 0.84100002 4294967295
-0.20508562 0.0073825372 0.84100002 4294967295
-0.20302914 0.007370647 0.83899999 4294967295
-0.20049995 0.0073411036 0.83499998 4294967295
-0.19893873 0.0073466562 0.83499998 4294967295
-0.19690478 0.007334555 0.833 4294967295
-0.19534738 0.0073400075 0.833 4294967295
-0.19379002 0.0073454161 0.833 4294967295
-0.19177109 0.0073331315 0.83099997 4294967295
-0.19021751 0.00733844 0.83099997 4294967295
-0.18866396 0.0073437057 0.83099997 4294967295
-0.18666011 0.0073312409 0.829 4294967295
-0.18511039 0.007336406 0.829 4294967295
-0.18356065 0.0073415278 0.829 4294967295
-0.18201096 0.0073466073 0.829 4294967295
-0.1804613 0.007351642 0.829 4294967295
-0.17891167 0.0073566339 0.829 4294967295
-0.17778996 0.0073793423 0.83099997 4294967295
-0.1758125 0.0073664864 0.829 4294967295
-0.17426296 0.0073713488 0.829 4294967295
-0.17271344 0.0073761656 0.829 4294967295
-0.17116396 0.007380941 0.829 4294967295
-0.16920531 0.0073678535 0.82700002 4294967295
-0.16765961 0.0073725302 0.82700002 4294967295
-0.16611396 0.0073771621 0.82700002 4294967295
-0.16456832 0.0073817517 0.82700002 4294967295
-0.1630227 0.0073862975 0.82700002 4294967295
-0.16108663 0.007372926 0.82499999 4294967295
-0.15954483 0.0073773731 0.82499999 4294967295
-0.15838608 0.0073996745 0.82700002 4294967295
-0.15684061 0.0074040466 0.82700002 4294967295
-0.15529513 0.0074083745 0.82700002 4294967295
-0.1537497 0.0074126595 0.82700002 4294967295
-0.15220432 0.0074169016 0.82700002 4294967295
-0.15065894 0.0074211 0.82700002 4294967295
-0.1494742 0.007443211 0.829 4294967295
-0.14792515 0.0074473326 0.829 4294967295
-0.14637615 0.0074514099 0.829 4294967295
-0.14517653 0.0074734301 0.83099997 4294967295
-0.14362383 0.0074774297 0.83099997 4294967295
-0.14207117 0.0074813864 0.83099997 4294967295
-0.14051852 0.0074852994 0.83099997 4294967295
-0.13930038 0.007507192 0.833 4294967295
-0.13774407 0.0075110267 0.833 4294967295
-0.13618778 0.0075148172 0.833 4294967295
-0.13495475 0.0075366152 0.83499998 4294967295
-0.13403381 0.0075764484 0.83899999 4294967295
-0.13278218 0.0075982031 0.84100002 4294967295
-0.13121109 0.007601853 0.84100002 4294967295
-0.12964 0.0076054581 0.84100002 4294967295
-0.12806894 0.0076090195 0.84100002 4294967295
-0.12709956 0.0076487428 0.84500003 4294967295
-0.12581821 0.0076703439 0.847 4294967295
-0.12423602 0.0076737958 0.847 4294967295
-0.12294351 0.0076953312 0.84899998 4294967295
-0.12135768 0.0076987036 0.84899998 4294967295
-0.120054 0.0077201733 0.85100001 4294967295
-0.11846451 0.0077234623 0.85100001 4294967295
-0.11728704 0.0077539464 0.85399997 4294967295
-0.11596294 0.0077753239 0.85600001 4294967295
-0.11463139 0.0077966712 0.85799998 4294967295
-0.11302893 0.0077998061 0.85799998 4294967295
-0.11168624 0.0078210849 0.86000001 4294967295
-0.11033615 0.0078423331 0.86199999 4294967295
-0.10897858 0.0078635495 0.86400002 4294967295
-0.10736505 0.0078665242 0.86400002 4294967294
-0.10636355 0.0079149948 0.86900002 4294967293
-0.21973118 0.0089800898 0.84899998 4294967295
-0.21814351 0.0089861723 0.84899998 4294967295
-0.21604581 0.0089710271 0.847 4294967295
-0.21344908 0.0089346105 0.84299999 4294967295
-0.21187276 0.0089405179 0.84299999 4294967295
-0.2097975 0.0089251557 0.84100002 4294967295
-0.20822495 0.0089309607 0.84100002 4294967295
-0.20616099 0.00891547 0.83899999 4294967295
-0.20410451 0.0088999067 0.83700001 4294967295
-0.2020556 0.0088842725 0.83499998 4294967295
-0.20001419 0.0088685695 0.833 4294967295
-0.19845673 0.0088741006 0.833 4294967295
-0.19689935 0.0088795898 0.833 4294967295
-0.19534199 0.0088850344 0.833 4294967295
-0.19331938 0.0088690901 0.83099997 4294967295
-0.1917658 0.008874434 0.83099997 4294967295
-0.18975449 0.008858365 0.829 4294967295
-0.18820472 0.0088636093 0.829 4294967295
-0.18665497 0.0088688117 0.829 4294967295
-0.18510526 0.0088739693 0.829 4294967295
-0.18355559 0.0088790841 0.829 4294967295
-0.18200594 0.0088841552 0.829 4294967295
-0.18045631 0.0088891825 0.829 4294967295
-0.17890672 0.0088941669 0.829 4294967295
-0.17735718 0.0088991076 0.829 4294967295
-0.17580764 0.0089040054 0.829 4294967295
-0.17425814 0.0089088595 0.829 4294967295
-0.17229199 0.0088921646 0.82700002 4294967295
-0.17074631 0.0088969199 0.82700002 4294967295
-0.16920063 0.0089016324 0.82700002 4294967295
-0.16724953 0.0088847606 0.82499999 4294967295
-0.16570765 0.0088893743 0.82499999 4294967295
-0.16456378 0.0089155054 0.82700002 4294967295
-0.16262397 0.0088984715 0.82499999 4294967295
-0.16108219 0.0089029558 0.82499999 4294967295
-0.15954043 0.0089073954 0.82499999 4294967295
-0.15799871 0.0089117922 0.82499999 4294967295
-0.15645696 0.0089161461 0.82499999 4294967295
-0.15491529 0.0089204554 0.82499999 4294967295
-0.15337366 0.0089247227 0.82499999 4294967295
-0.15183203 0.0089289462 0.82499999 4294967295
-0.15029044 0.0089331251 0.82499999 4294967295
-0.14910948 0.0089589283 0.82700002 4294967295
-0.14756422 0.0089630317 0.82700002 4294967295
-0.14637211 0.0089887762 0.829 4294967295
-0.14482315 0.0089928005 0.829 4294967295
-0.14361989 0.0090184873 0.83099997 4294967295
-0.14206727 0.0090224352 0.83099997 4294967295
-0.14051466 0.0090263393 0.83099997 4294967295
-0.13929656 0.009051933 0.833 4294967295
-0.13774028 0.0090557579 0.833 4294967295
-0.13618404 0.00905954 0.833 4294967295
-0.13462782 0.0090632765 0.833 4294967295
-0.13339113 0.0090887398 0.83499998 4294967295
-0.13246277 0.009135955 0.83899999 4294967295
-0.13089542 0.0091395862 0.83899999 4294967295
-0.12932812 0.0091431737 0.83899999 4294967295
-0.12806541 0.0091685206 0.84100002 4294967295
-0.12709609 0.0092156539 0.84500003 4294967295
-0.12551767 0.0092191324 0.84500003 4294967295
-0.12393928 0.0092225671 0.84500003 4294967295
-0.12294014 0.0092696296 0.84899998 4294967295
-0.12135435 0.0092729907 0.84899998 4294967295
-0.1197686 0.0092763081 0.84899998 4294967295
-0.11846127 0.0093014399 0.85100001 4294967295
-0.11728382 0.0093374746 0.85399997 4294967295
-0.11568882 0.0093406755 0.85399997 4294967295
-0.11436105 0.0093657132 0.85600001 4294967295
-0.11302584 0.009390722 0.85799998 4294967295
-0.11142347 0.009393801 0.85799998 4294967295
-0.11007714 0.009418739 0.86000001 4294967295
-0.10872334 0.0094436463 0.86199999 4294967295
-0.1071136 0.0094466042 0.86199999 4294967295
-0.10611586 0.0095043266 0.86699998 4294967290
-0.22131282 0.010548638 0.84899998 4294967295
-0.21920754 0.010529893 0.847 4294967295
-0.21762364 0.010535953 0.847 4294967295
-0.2155297 0.010517078 0.84500003 4294967295
-0.21293682 0.010473222 0.84100002 4294967295
-0.21136424 0.010479107 0.84100002 4294967295
-0.20979172 0.010484949 0.84100002 4294967295
-0.20772402 0.010465798 0.83899999 4294967295
-0.20615529 0.010471537 0.83899999 4294967295
-0.20361121 0.010427283 0.83499998 4294967295
-0.20205002 0.010432907 0.83499998 4294967295
-0.20000868 0.010413487 0.833 4294967295
-0.19845127 0.010419012 0.833 4294967295
-0.19689392 0.010424493 0.833 4294967295
-0.1953366 0.010429931 0.833 4294967295
-0.19331403 0.010410269 0.83099997 4294967295
-0.19176051 0.010415606 0.83099997 4294967295
-0.18974926 0.01039582 0.829 4294967295
-0.18819952 0.010401058 0.829 4294967295
-0.18664981 0.010406252 0.829 4294967295
-0.18510015 0.010411402 0.829 4294967295
-0.18310772 0.01039138 0.82700002 4294967295
-0.18156186 0.010396431 0.82700002 4294967295
-0.18045133 0.010426594 0.829 4294967295
-0.17890181 0.01043157 0.829 4294967295
-0.17735229 0.010436503 0.829 4294967295
-0.1758028 0.010441393 0.829 4294967295
-0.17383297 0.010421038 0.82700002 4294967295
-0.17228726 0.010425827 0.82700002 4294967295
-0.1707416 0.010430575 0.82700002 4294967295
-0.16919598 0.010435279 0.82700002 4294967295
-0.16724493 0.010414692 0.82499999 4294967295
-0.16570309 0.010419299 0.82499999 4294967295
-0.16416126 0.010423861 0.82499999 4294967295
-0.1626195 0.01042838 0.82499999 4294967295
-0.16107777 0.010432855 0.82499999 4294967295
-0.15953602 0.010437287 0.82499999 4294967295
-0.15799434 0.010441676 0.82499999 4294967295
-0.15645269 0.010446022 0.82499999 4294967295
-0.15491103 0.010450323 0.82499999 4294967295
-0.15336946 0.010454582 0.82499999 4294967295
-0.15182786 0.010458797 0.82499999 4294967295
-0.1502863 0.010462968 0.82499999 4294967295
-0.14874479 0.010467096 0.82499999 4294967295
-0.1472033 0.010471181 0.82499999 4294967295
-0.14566185 0.010475222 0.82499999 4294967295
-0.14446981 0.010504624 0.82700002 4294967295
-0.1432703 0.010534002 0.829 4294967295
-0.14206336 0.010563353 0.83099997 4294967295
-0.1405108 0.010567249 0.83099997 4294967295
-0.13929275 0.010596543 0.833 4294967295
-0.1377365 0.010600358 0.833 4294967295
-0.1361803 0.010604132 0.833 4294967295
-0.13462412 0.010607859 0.833 4294967295
-0.13338748 0.010637022 0.83499998 4294967295
-0.13214339 0.010666157 0.83700001 4294967295
-0.13089186 0.010695267 0.83899999 4294967295
-0.12932459 0.010698845 0.83899999 4294967295
-0.12806191 0.010727891 0.84100002 4294967295
-0.126491 0.010731389 0.84100002 4294967295
-0.12551424 0.010785899 0.84500003 4294967295
-0.12393589 0.010789325 0.84500003 4294967295
-0.12264718 0.010818249 0.847 4294967295
-0.12135103 0.010847146 0.84899998 4294967295
-0.11976532 0.010850453 0.84899998 4294967295
-0.11817962 0.010853713 0.84899998 4294967295
-0.11686864 0.010882506 0.85100001 4294967295
-0.11568568 0.01092406 0.85399997 4294967295
-0.11409074 0.010927205 0.85399997 4294967295
-0.11275931 0.010955904 0.85600001 4294967295
-0.11116072 0.010958967 0.85600001 4294967295
-0.10981815 0.010987594 0.85799998 4294967295
-0.10846814 0.011016192 0.86000001 4294967295
-0.10711068 0.011044756 0.86199999 4294967291
-0.10611298 0.011111738 0.86699998 4294967288
-0.10497611 0.011165889 0.87099999 4294967291
-0.22289437 0.012117025 0.84899998 4294967295
-0.22078538 0.012094622 0.847 4294967295
-0.21920151 0.012100719 0.847 4294967295
-0.21761766 0.012106773 0.847 4294967295
-0.21552373 0.012084179 0.84500003 4294967295
-0.21293092 0.012032897 0.84100002 4294967295
-0.2113584 0.012038777 0.84100002 4294967295
-0.20928702 0.012015967 0.83899999 4294967295
-0.2077183 0.012021743 0.83899999 4294967295
-0.2056582 0.011998804 0.83700001 4294967295
-0.20360561 0.011975795 0.83499998 4294967295
-0.20156051 0.011952714 0.833 4294967295
-0.20000313 0.011958275 0.833 4294967295
-0.19844581 0.011963793 0.833 4294967295
-0.19688851 0.011969266 0.833 4294967295
-0.19486222 0.011945945 0.83099997 4294967295
-0.19330871 0.011951319 0.83099997 4294967295
-0.19129372 0.011927873 0.829 4294967295
-0.18974403 0.011933146 0.829 4294967295
-0.18774033 0.011909575 0.82700002 4294967295
-0.1861944 0.011914749 0.82700002 4294967295
-0.18464851 0.011919879 0.82700002 4294967295
-0.18310268 0.011924966 0.82700002 4294967295
-0.18155687 0.011930011 0.82700002 4294967295
-0.18001105 0.011935011 0.82700002 4294967295
-0.17846529 0.011939969 0.82700002 4294967295
-0.17691955 0.011944883 0.82700002 4294967295
-0.17537385 0.011949752 0.82700002 4294967295
