# .PCD v0.7 - Point Cloud Data file format
VERSION 0.7
FIELDS x y z rgba
SIZE 4 4 4 4
TYPE F F F U
COUNT 1 1 1 1
WIDTH 1070
HEIGHT 1
VIEWPOINT 0 0 0 1 0 0 0
POINTS 1070
DATA ascii
-0.11726823 -0.19277395 0.722 4294967295
-0.11591424 -0.19276911 0.722 4294967295
-0.11471894 -0.1930313 0.72299999 4294967295
-0.11336313 -0.19302648 0.72299999 4294967295
-0.11200737 -0.19302177 0.72299999 4294967295
-0.11126381 -0.19408496 0.727 4294967295
-0.10990062 -0.19408026 0.727 4294967295
-0.10853746 -0.1940756 0.727 4294967295
-0.10459185 -0.19432874 0.72799999 4294967295
-0.10322695 -0.1943242 0.72799999 4294967295
-0.16603059 -0.19161788 0.722 4292203726
-0.16467528 -0.19161169 0.722 4294963948
-0.16399862 -0.19240171 0.72500002 4294967295
-0.16263779 -0.1923956 0.72500002 4294967295
-0.16083205 -0.19185878 0.72299999 4294967295
-0.15947503 -0.19185278 0.72299999 4294967295
-0.15746194 -0.19105077 0.72000003 4294967295
-0.1558938 -0.19077952 0.71899998 4294967295
-0.15454441 -0.19077367 0.71899998 4294967295
-0.15340813 -0.19103315 0.72000003 4294967295
-0.15184571 -0.19076206 0.71899998 4294967295
-0.15049644 -0.19075631 0.71899998 4294967295
-0.14914717 -0.1907506 0.71899998 4294967295
-0.14779797 -0.19074494 0.71899998 4294967295
-0.14644879 -0.19073932 0.71899998 4294967295
-0.14509965 -0.19073373 0.71899998 4294967295
-0.14335069 -0.19019763 0.71700001 4294967295
-0.14200537 -0.19019213 0.71700001 4294967295
-0.14066011 -0.19018666 0.71700001 4294967295
-0.13931489 -0.19018124 0.71700001 4294967295
-0.13796967 -0.19017585 0.71700001 4294967295
-0.13662449 -0.19017048 0.71700001 4294967295
-0.13565671 -0.19069561 0.71899998 4294967295
-0.13430788 -0.19069034 0.71899998 4294967295
-0.13295907 -0.19068506 0.71899998 4294967295
-0.13124421 -0.19014944 0.71700001 4294967295
-0.12989922 -0.19014427 0.71700001 4294967295
-0.12855427 -0.19013911 0.71700001 4294967295
-0.12756421 -0.19066441 0.71899998 4294967295
-0.12621558 -0.19065933 0.71899998 4294967295
-0.124867 -0.19065429 0.71899998 4294967295
-0.12351842 -0.19064929 0.71899998 4294967295
-0.12216989 -0.19064431 0.71899998 4294967295
-0.12098946 -0.19090451 0.72000003 4294967295
-0.11963916 -0.19089963 0.72000003 4294967295
-0.11828884 -0.19089471 0.72000003 4294967295
-0.1169386 -0.19088991 0.72000003 4294967295
-0.11558839 -0.1908851 0.72000003 4294967295
-0.11455553 -0.19141057 0.722 4294967295
-0.11335842 -0.19167089 0.72299999 4294967295
-0.11200269 -0.19166619 0.72299999 4294967295
-0.11125914 -0.19272186 0.727 4294967295
-0.10989597 -0.19271719 0.727 4294967295
-0.10853284 -0.19271256 0.727 4294967295
-0.10687493 -0.19217779 0.72500002 4294967295
-0.16602446 -0.19026351 0.722 4294967295
-0.16466919 -0.19025733 0.722 4294967295
-0.16331394 -0.19025125 0.722 4294967295
-0.16195878 -0.19024518 0.722 4294967295
-0.16060363 -0.19023915 0.722 4294967295
-0.15924852 -0.19023317 0.722 4294967295
-0.15723737 -0.18943682 0.71899998 4294967295
-0.15588798 -0.18943094 0.71899998 4294967295
-0.1545386 -0.18942507 0.71899998 4294967295
-0.15318929 -0.18941925 0.71899998 4294967295
-0.15141764 -0.18888664 0.71700001 4294967295
-0.15007214 -0.18888094 0.71700001 4294967295
-0.14872667 -0.18887527 0.71700001 4294967295
-0.14738126 -0.18886966 0.71700001 4294967295
-0.14603586 -0.18886401 0.71700001 4294967295
-0.14448874 -0.18859509 0.71600002 4294967295
-0.14314528 -0.18858956 0.71600002 4294967295
-0.14180189 -0.18858409 0.71600002 4294967295
-0.14045854 -0.18857867 0.71600002 4294967295
-0.13911521 -0.18857326 0.71600002 4294967295
-0.13777192 -0.18856788 0.71600002 4294967295
-0.13642867 -0.18856254 0.71600002 4294967295
-0.13527411 -0.18882062 0.71700001 4294967295
-0.13392906 -0.18881539 0.71700001 4294967295
-0.13258405 -0.18881014 0.71700001 4294967295
-0.13123906 -0.18880495 0.71700001 4294967295
-0.12971294 -0.18853647 0.71600002 4294967295
-0.1283699 -0.18853137 0.71600002 4294967295
-0.12720433 -0.18878956 0.71700001 4294967295
-0.12585948 -0.18878452 0.71700001 4294967295
-0.12451468 -0.18877952 0.71700001 4294967295
-0.1231699 -0.18877457 0.71700001 4294967295
-0.12216499 -0.18929616 0.71899998 4294967295
-0.12081654 -0.18929125 0.71899998 4294967295
-0.11946813 -0.18928637 0.71899998 4294967295
-0.11811975 -0.18928152 0.71899998 4294967295
-0.1167714 -0.1892767 0.71899998 4294967295
-0.11558364 -0.1895352 0.72000003 4294967295
-0.11423349 -0.18953039 0.72000003 4294967295
-0.11319694 -0.19005217 0.722 4294967295
-0.11199801 -0.19031067 0.72299999 4294967295
-0.11064234 -0.19030602 0.72299999 4294967295
-0.1092867 -0.19030139 0.72299999 4294967295
-0.1082297 -0.19082321 0.72500002 4294967295
-0.10687038 -0.19081861 0.72500002 4294967295
-0.10580216 -0.19134045 0.727 4294967295
-0.10458282 -0.1915991 0.72799999 4294967295
-0.1673736 -0.18891543 0.722 4294967295
-0.16601832 -0.18890928 0.722 4294967295
-0.16420698 -0.18837987 0.72000003 4294967295
-0.16285554 -0.18837382 0.72000003 4294967295
-0.16150416 -0.18836777 0.72000003 4294967295
-0.16059767 -0.188885 0.722 4294967295
-0.15858091 -0.1880942 0.71899998 4294967295
-0.15723151 -0.18808833 0.71899998 4294967295
-0.15544853 -0.18755926 0.71700001 4294967295
-0.154103 -0.18755348 0.71700001 4294967295
-0.15275744 -0.1875477 0.71700001 4294967295
-0.15120077 -0.18728042 0.71600002 4294967295
-0.14985721 -0.18727477 0.71600002 4294967295
-0.14851363 -0.18726909 0.71600002 4294967295
-0.14717014 -0.18726349 0.71600002 4294967295
-0.14582668 -0.1872579 0.71600002 4294967295
-0.14407963 -0.18672931 0.71399999 4294967295
-0.14274 -0.18672383 0.71399999 4294967295
-0.1414004 -0.1867184 0.71399999 4294967295
-0.14006083 -0.186713 0.71399999 4294967295
-0.13872127 -0.18670763 0.71399999 4294967295
-0.13738179 -0.18670231 0.71399999 4294967295
-0.13604233 -0.18669699 0.71399999 4294967295
-0.13470288 -0.18669175 0.71399999 4294967295
-0.1333635 -0.18668653 0.71399999 4294967295
-0.13202415 -0.18668136 0.71399999 4294967295
-0.13068482 -0.18667619 0.71399999 4294967295
-0.12934555 -0.18667109 0.71399999 4294967295
-0.12800629 -0.186666 0.71399999 4294967295
-0.12702189 -0.18718381 0.71600002 4294967295
-0.12567896 -0.18717878 0.71600002 4294967295
-0.12433607 -0.18717383 0.71600002 4294967295
-0.12316498 -0.18743031 0.71700001 4294967295
-0.12182028 -0.18742535 0.71700001 4294967295
-0.12047563 -0.18742047 0.71700001 4294967295
-0.119131 -0.1874156 0.71700001 4294967295
-0.1177864 -0.1874108 0.71700001 4294967295
-0.11644183 -0.18740602 0.71700001 4294967295
-0.11541836 -0.187924 0.71899998 4294967295
-0.11407014 -0.18791924 0.71899998 4294967295
-0.11287871 -0.18817596 0.72000003 4294967295
-0.11183847 -0.18869396 0.722 4294967295
-0.1104847 -0.18868932 0.722 4294967295
-0.10928213 -0.18894605 0.72299999 4294967295
-0.10792657 -0.18894146 0.72299999 4294967295
-0.10686586 -0.18945958 0.72500002 4294967295
-0.10579766 -0.18997766 0.727 4294967295
-0.10457835 -0.19023448 0.72799999 4294967295
-0.10321355 -0.19022995 0.72799999 4294967295
-0.10268822 -0.19179334 0.73400003 4294967295
-0.10131225 -0.19178887 0.73400003 4294967295
-0.099800169 -0.19152318 0.73299998 4294967295
-0.098426141 -0.1915188 0.73299998 4294967295
-0.097052142 -0.19151446 0.73299998 4294967295
-0.095678203 -0.19151017 0.73299998 4294967295
-0.16736746 -0.18756126 0.722 4294967295
-0.16601223 -0.18755513 0.722 4294967295
-0.16420093 -0.1870295 0.72000003 4294967295
-0.16284955 -0.18702345 0.72000003 4294967295
-0.16149819 -0.18701741 0.72000003 4294967295
-0.15992443 -0.18675171 0.71899998 4294967295
-0.15857504 -0.18674579 0.71899998 4294967295
-0.15678833 -0.18622048 0.71700001 4294967295
-0.15522596 -0.18595494 0.71600002 4294967295
-0.15388232 -0.18594918 0.71600002 4294967295
-0.1525387 -0.18594344 0.71600002 4294967295
-0.15077277 -0.18541831 0.71399999 4294967295
-0.14943299 -0.18541269 0.71399999 4294967295
-0.14809324 -0.18540707 0.71399999 4294967295
-0.14675352 -0.1854015 0.71399999 4294967295
-0.14541385 -0.18539597 0.71399999 4294967295
-0.14387241 -0.1851308 0.713 4294967295
-0.14253466 -0.18512537 0.713 4294967295
-0.14119698 -0.18511993 0.713 4294967295
-0.13985932 -0.18511455 0.713 4294967295
-0.13871598 -0.18536885 0.71399999 4294967295
-0.13718411 -0.18510395 0.713 4294967295
-0.13584657 -0.18509868 0.713 4294967295
-0.13450904 -0.1850934 0.713 4294967295
-0.13335833 -0.1853478 0.71399999 4294967295
-0.13201901 -0.18534264 0.71399999 4294967295
-0.13067973 -0.18533751 0.71399999 4294967295
-0.12934048 -0.1853324 0.71399999 4294967295
-0.12800127 -0.18532734 0.71399999 4294967295
-0.12666209 -0.18532234 0.71399999 4294967295
-0.12532294 -0.18531734 0.71399999 4294967295
-0.12433114 -0.18583147 0.71600002 4294967295
-0.12298831 -0.18582657 0.71600002 4294967295
-0.12164551 -0.18582165 0.71600002 4294967295
-0.12030278 -0.18581676 0.71600002 4294967295
-0.11896005 -0.18581195 0.71600002 4294967295
-0.11761738 -0.18580718 0.71600002 4294967295
-0.1164371 -0.1860619 0.71700001 4294967295
-0.11509261 -0.18605717 0.71700001 4294967295
-0.11406547 -0.18657143 0.71899998 4294967295
-0.11287407 -0.18682624 0.72000003 4294967295
-0.11152405 -0.18682161 0.72000003 4294967295
-0.1104801 -0.18733591 0.722 4294967295
-0.10912642 -0.1873313 0.722 4294967295
-0.10777279 -0.18732679 0.722 4294967295
-0.10656655 -0.18758167 0.72299999 4294967295
-0.10550214 -0.18809606 0.72500002 4294967295
-0.10443024 -0.18861045 0.727 4294967295
-0.10320912 -0.18886544 0.72799999 4294967295
-0.10184441 -0.18886101 0.72799999 4294967295
-0.10116983 -0.1901537 0.73299998 4294967295
-0.099795811 -0.19014931 0.73299998 4294967295
-0.098421805 -0.19014497 0.73299998 4294967295
-0.09704785 -0.19014062 0.73299998 4294967295
-0.094943322 -0.191429 0.73799998 4294967295
-0.17007181 -0.18621962 0.722 4294967295
-0.16871656 -0.1862134 0.722 4294967295
-0.16689773 -0.18569142 0.72000003 4294967295
-0.1655463 -0.18568532 0.72000003 4294967295
-0.16419491 -0.18567923 0.72000003 4294967295
-0.16261737 -0.18541531 0.71899998 4294967295
-0.16126794 -0.18540934 0.71899998 4294967295
-0.15947372 -0.18488768 0.71700001 4294967295
-0.1581281 -0.18488181 0.71700001 4294967295
-0.15656386 -0.1846181 0.71600002 4294967295
-0.15478663 -0.18409663 0.71399999 4294967295
-0.15344676 -0.18409087 0.71399999 4294967295
-0.15210694 -0.18408516 0.71399999 4294967295
-0.15076715 -0.1840795 0.71399999 4294967295
-0.14942738 -0.18407387 0.71399999 4294967295
-0.14788027 -0.18381047 0.713 4294967295
-0.14654249 -0.18380493 0.713 4294967295
-0.1447974 -0.18328387 0.71100003 4294967295
-0.14346343 -0.18327843 0.71100003 4294967295
-0.1421295 -0.18327299 0.71100003 4294967295
-0.14079556 -0.18326761 0.71100003 4294967295
-0.13985401 -0.18377776 0.713 4294967295
-0.13851643 -0.18377244 0.713 4294967295
-0.13717887 -0.18376717 0.713 4294967295
-0.13584134 -0.18376189 0.713 4294967295
-0.13450387 -0.18375669 0.713 4294967295
-0.13316642 -0.18375151 0.713 4294967295
-0.13145924 -0.18323098 0.71100003 4294967295
-0.13012561 -0.18322587 0.71100003 4294967295
-0.12915429 -0.18373619 0.713 4294967295
-0.127817 -0.18373117 0.713 4294967295
-0.12647974 -0.18372616 0.713 4294967295
-0.1251425 -0.18372118 0.713 4294967295
-0.12397894 -0.18397389 0.71399999 4294967295
-0.1226399 -0.18396901 0.71399999 4294967295
-0.1213009 -0.18396415 0.71399999 4294967295
-0.11996192 -0.18395931 0.71399999 4294967295
-0.11862298 -0.18395451 0.71399999 4294967295
-0.1172841 -0.18394975 0.71399999 4294967295
-0.11627001 -0.18446027 0.71600002 4294967295
-0.11492743 -0.18445557 0.71600002 4294967295
-0.11374352 -0.18470851 0.71700001 4294967295
-0.11286943 -0.18547669 0.72000003 4294967295
-0.11151944 -0.18547204 0.72000003 4294967295
-0.11016952 -0.18546744 0.72000003 4294967295
-0.1088196 -0.18546289 0.72000003 4294967295
-0.10746974 -0.18545835 0.72000003 4294967295
-0.10641468 -0.18596901 0.722 4294967295
-0.10520663 -0.18622209 0.72299999 4294967295
-0.10413854 -0.18673278 0.72500002 4294967295
-0.10306296 -0.18724345 0.727 4294967295
-0.10170013 -0.18723907 0.727 4294967295
-0.10088942 -0.18826488 0.73100001 4294967295
-0.099519186 -0.1882605 0.73100001 4294967295
-0.098148964 -0.18825616 0.73100001 4294967295
-0.096778795 -0.18825187 0.73100001 4294967295
-0.096322283 -0.19005023 0.73799998 4294967295
-0.094939075 -0.19004597 0.73799998 4294967295
-0.093302354 -0.18952672 0.736 4294967295
-0.091922946 -0.18952252 0.736 4294967295
-0.090789638 -0.19003333 0.73799998 4294967295
-0.17006563 -0.18486559 0.722 4294967295
-0.16824308 -0.18434735 0.72000003 4294967295
-0.16689165 -0.18434122 0.72000003 4294967295
-0.16554025 -0.18433513 0.72000003 4294967295
-0.16396086 -0.18407305 0.71899998 4294967295
-0.16261142 -0.18406707 0.71899998 4294967295
-0.16081347 -0.18354911 0.71700001 4294967295
-0.15924545 -0.18328722 0.71600002 4294967295
-0.15790175 -0.18328138 0.71600002 4294967295
-0.15612076 -0.18276358 0.71399999 4294967295
-0.15456413 -0.18250187 0.713 4294967295
-0.15322618 -0.18249616 0.713 4294967295
-0.15188827 -0.18249047 0.713 4294967295
-0.15012811 -0.18197294 0.71100003 4294967295
-0.14879401 -0.18196736 0.71100003 4294967295
-0.14745995 -0.18196182 0.71100003 4294967295
-0.14612596 -0.18195631 0.71100003 4294967295
-0.14458834 -0.18169491 0.70999998 4294967295
-0.14325623 -0.18168946 0.70999998 4294967295
-0.14192423 -0.18168406 0.70999998 4294967295
-0.14059222 -0.18167871 0.70999998 4294967295
-0.13926026 -0.18167339 0.70999998 4294967295
-0.13792834 -0.1816681 0.70999998 4294967295
-0.13621169 -0.18115114 0.708 4294967295
-0.13488358 -0.18114597 0.708 4294967295
-0.13355552 -0.18114078 0.708 4294967295
-0.1322275 -0.18113565 0.708 4294967295
-0.13089949 -0.18113057 0.708 4294967295
-0.12957153 -0.18112551 0.708 4294967295
-0.12860589 -0.18163213 0.70999998 4294967295
-0.12727423 -0.18162714 0.70999998 4294967295
-0.12612002 -0.18187799 0.71100003 4294967295
-0.12478658 -0.18187307 0.71100003 4294967295
-0.12380042 -0.18237975 0.713 4294967295
-0.12246328 -0.18237485 0.713 4294967295
-0.1211262 -0.18237001 0.713 4294967295
-0.11978915 -0.18236519 0.713 4294967295
-0.11845212 -0.18236041 0.713 4294967295
-0.11711514 -0.1823557 0.713 4294967295
-0.11594055 -0.18260673 0.71399999 4294967295
-0.11460174 -0.18260203 0.71399999 4294967295
-0.11358028 -0.1831089 0.71600002 4294967295
-0.11239454 -0.18336 0.71700001 4294967295
-0.11135998 -0.18386684 0.71899998 4294967295
-0.11016496 -0.18411802 0.72000003 4294967295
-0.10881509 -0.18411346 0.72000003 4294967295
-0.10746526 -0.18410894 0.72000003 4294967295
-0.10611547 -0.18410446 0.72000003 4294967295
-0.1050567 -0.1846114 0.722 4294967295
-0.10384686 -0.18486267 0.72299999 4294967295
-0.10305855 -0.18588097 0.727 4294967295
-0.10169578 -0.18587658 0.727 4294967295
-0.10047103 -0.18612792 0.72799999 4294967295
-0.099378735 -0.1866349 0.73000002 4294967295
-0.098010436 -0.18663061 0.73000002 4294967295
-0.096774548 -0.18688197 0.73100001 4294967295
-0.095404446 -0.18687773 0.73100001 4294967295
-0.094291665 -0.1873848 0.73299998 4294967295
-0.093044646 -0.18763624 0.73400003 4294967295
-0.09166903 -0.18763207 0.73400003 4294967295
-0.090539478 -0.18813917 0.736 4294967295
-0.089160182 -0.18813507 0.736 4294967295
-0.1714147 -0.18351795 0.722 4294967295
-0.16958839 -0.1830034 0.72000003 4294967295
-0.16823699 -0.18299726 0.72000003 4294967295
-0.16665377 -0.18273695 0.71899998 4294967295
-0.1653043 -0.18273088 0.71899998 4294967295
-0.16349882 -0.1822166 0.71700001 4294967295
-0.16215315 -0.18221064 0.71700001 4294967295
-0.16058329 -0.18195058 0.71600002 4294967295
-0.15879479 -0.18143648 0.71399999 4294967295
-0.15745489 -0.18143065 0.71399999 4294967295
-0.15589638 -0.18117079 0.713 4294967295
-0.15455844 -0.18116505 0.713 4294967295
-0.15279073 -0.18065119 0.71100003 4294967295
-0.15145662 -0.18064557 0.71100003 4294967295
-0.14991137 -0.18038586 0.70999998 4294967295
-0.1485792 -0.18038031 0.70999998 4294967295
-0.14724706 -0.18037477 0.70999998 4294967295
-0.14591496 -0.18036926 0.70999998 4294967295
-0.14417563 -0.17985579 0.708 4294967295
-0.14284736 -0.17985037 0.708 4294967295
-0.1415191 -0.17984501 0.708 4294967295
-0.14019091 -0.17983969 0.708 4294967295
-0.13886276 -0.1798344 0.708 4294967295
-0.1375346 -0.17982917 0.708 4294967295
-0.13601413 -0.17956996 0.70700002 4294967295
-0.13449743 -0.17931077 0.70599997 4294967295
-0.13317314 -0.17930566 0.70599997 4294967295
-0.13203567 -0.17955454 0.70700002 4294967295
-0.13070957 -0.17954949 0.70700002 4294967295
-0.12938353 -0.17954442 0.70700002 4294967295
-0.12823865 -0.17979337 0.708 4294967295
-0.12691079 -0.17978841 0.708 4294967295
-0.12593772 -0.18029135 0.70999998 4294967295
-0.12460618 -0.18028645 0.70999998 4294967295
-0.12327467 -0.18028153 0.70999998 4294967295
-0.12211497 -0.18053064 0.71100003 4294967295
-0.12078165 -0.18052582 0.71100003 4294967295
-0.11944839 -0.18052104 0.71100003 4294967295
-0.11811514 -0.18051632 0.71100003 4294967295
-0.11711044 -0.18101937 0.713 4294967295
-0.11577351 -0.18101467 0.713 4294967295
-0.11459713 -0.18126388 0.71399999 4294967295
-0.11325841 -0.18125924 0.71399999 4294967295
-0.11238996 -0.18201621 0.71700001 4294967295
-0.11104567 -0.18201166 0.71700001 4294967295
-0.11000744 -0.18251479 0.71899998 4294967295
-0.10865945 -0.18251027 0.71899998 4294967295
-0.10731154 -0.18250577 0.71899998 4294967295
-0.10611101 -0.18275513 0.72000003 4294967295
-0.10505228 -0.18325834 0.722 4294967295
-0.10369885 -0.18325393 0.722 4294967295
-0.10234542 -0.18324959 0.722 4294967295
-0.10099205 -0.18324521 0.722 4294967295
-0.10046673 -0.18476367 0.72799999 4294967295
-0.099102177 -0.18475939 0.72799999 4294967295
-0.097737655 -0.1847551 0.72799999 4294967295
-0.096637942 -0.1852584 0.73000002 4294967295
-0.09526974 -0.18525419 0.73000002 4294967295
-0.094030216 -0.18550374 0.73100001 4294967295
-0.093040504 -0.18626088 0.73400003 4294967295
-0.09166491 -0.18625672 0.73400003 4294967295
-0.090535372 -0.18676008 0.736 4294967295
-0.089156121 -0.186756 0.736 4294967295
-0.17276374 -0.18217041 0.722 4294967295
-0.17093369 -0.18165956 0.72000003 4294967295
-0.16958226 -0.18165338 0.72000003 4294967295
-0.16799721 -0.18139495 0.71899998 4294967295
-0.1661842 -0.18088432 0.71700001 4294967295
-0.16483851 -0.18087828 0.71700001 4294967295
-0.16326486 -0.18062004 0.71600002 4294967295
-0.16146882 -0.18010959 0.71399999 4294967295
-0.16012889 -0.1801037 0.71399999 4294967295
-0.15856659 -0.17984563 0.713 4294967295
-0.15722859 -0.1798398 0.713 4294967295
-0.15545338 -0.17932963 0.71100003 4294967295
-0.15411922 -0.17932394 0.71100003 4294967295
-0.15257022 -0.17906605 0.70999998 4294967295
-0.15123801 -0.17906041 0.70999998 4294967295
-0.14948358 -0.17855045 0.708 4294967295
-0.14815518 -0.17854492 0.708 4294967295
-0.14682683 -0.17853944 0.708 4294967295
-0.14549854 -0.17853402 0.708 4294967295
-0.14417025 -0.17852859 0.708 4294967295
-0.14284201 -0.1785232 0.708 4294967295
-0.14131394 -0.17826572 0.70700002 4294967295
-0.13998765 -0.1782604 0.70700002 4294967295
-0.13885751 -0.17850727 0.708 4294967295
-0.13733517 -0.17824993 0.70700002 4294967295
-0.13600898 -0.17824472 0.70700002 4294967295
-0.13449231 -0.17798744 0.70599997 4294967295
-0.13316807 -0.17798233 0.70599997 4294967295
-0.13184388 -0.17797725 0.70599997 4294967295
-0.1305197 -0.17797221 0.70599997 4294967295
-0.12919556 -0.17796722 0.70599997 4294967295
-0.12805258 -0.17821434 0.70700002 4294967295
-0.12690587 -0.17846145 0.708 4294967295
-0.12557809 -0.17845653 0.708 4294967295
-0.12425034 -0.17845166 0.708 4294967295
-0.12292262 -0.17844681 0.708 4294967295
-0.12159494 -0.17844197 0.708 4294967295
-0.12060702 -0.17894126 0.70999998 4294967295
-0.11877169 -0.17818044 0.70700002 4294967295
-0.11744598 -0.17817576 0.70700002 4294967295
-0.11612029 -0.17817108 0.70700002 4294967295
-0.11495703 -0.17841846 0.708 4294967295
-0.11411104 -0.17916985 0.71100003 4294967295
-0.11309521 -0.17966923 0.713 4294967295
-0.11191516 -0.17991662 0.71399999 4294967295
-0.11088628 -0.18041606 0.71600002 4294967295
-0.10969693 -0.1806635 0.71700001 4294967295
-0.10820164 -0.18040702 0.71600002 4294967295
-0.10685936 -0.18040256 0.71600002 4294967295
-0.10566449 -0.18065012 0.71700001 4294967295
-0.10461141 -0.1811496 0.71899998 4294967295
-0.10340724 -0.18139715 0.72000003 4294967295
-0.10205761 -0.18139282 0.72000003 4294967295
-0.10070801 -0.1813885 0.72000003 4294967295
-0.099634446 -0.18188806 0.722 4294967295
-0.098689549 -0.18263955 0.72500002 4294967295
-0.097599179 -0.18313913 0.727 4294967295
-0.096236594 -0.18313488 0.727 4294967295
-0.095004566 -0.1833826 0.72799999 4294967295
-0.093640186 -0.18337846 0.72799999 4294967295
-0.092529356 -0.18387808 0.73000002 4294967295
-0.091286168 -0.18412587 0.73100001 4294967295
-0.090285294 -0.18487741 0.73400003 4294967295
-0.089152068 -0.18537708 0.736 4294967295
-0.088130645 -0.18612862 0.73900002 4294967295
-0.17275752 -0.1808167 0.722 4294967295
-0.17092754 -0.18030962 0.72000003 4294967295
-0.16934061 -0.18005303 0.71899998 4294967295
-0.16752388 -0.17954612 0.71700001 4294967295
-0.16594642 -0.17928967 0.71600002 4294967295
-0.1632233 -0.17778127 0.70999998 4294967295
-0.16189083 -0.17777537 0.70999998 4294967295
-0.1605584 -0.17776951 0.70999998 4294967295
-0.15877751 -0.17726293 0.708 4294967295
-0.15744889 -0.17725715 0.708 4294967295
-0.15612033 -0.17725138 0.708 4294967295
-0.1547918 -0.17724569 0.708 4294967295
-0.1534633 -0.17724003 0.708 4294967295
-0.15213488 -0.17723443 0.708 4294967295
-0.15080644 -0.17722884 0.708 4294967295
-0.14926693 -0.17697297 0.70700002 4294967295
-0.14794047 -0.17696747 0.70700002 4294967295
-0.14661403 -0.17696199 0.70700002 4294967295
-0.14528765 -0.17695655 0.70700002 4294967295
-0.14396127 -0.17695118 0.70700002 4294967295
-0.14263494 -0.17694581 0.70700002 4294967295
-0.14110878 -0.17669022 0.70599997 4294967295
-0.13978438 -0.17668493 0.70599997 4294967295
-0.13846005 -0.1766797 0.70599997 4294967295
-0.13713574 -0.1766745 0.70599997 4294967295
-0.13542673 -0.17616887 0.704 4294967295
-0.13391575 -0.1759135 0.70300001 4294967295
-0.13259716 -0.17590843 0.70300001 4294967295
-0.13127863 -0.17590341 0.70300001 4294967295
-0.12996012 -0.1758984 0.70300001 4294967295
-0.12864164 -0.17589343 0.70300001 4294967295
-0.12732318 -0.17588849 0.70300001 4294967295
-0.12654249 -0.17663415 0.70599997 4294967295
-0.12539586 -0.17687948 0.70700002 4294967295
-0.12407003 -0.17687461 0.70700002 4294967295
-0.12274423 -0.17686979 0.70700002 4294967295
-0.12141843 -0.17686498 0.70700002 4294967295
-0.12026257 -0.1771104 0.708 4294967295
-0.118767 -0.17685552 0.70700002 4294967295
-0.11744133 -0.17685084 0.70700002 4294967295
-0.11611568 -0.17684616 0.70700002 4294967295
-0.11495244 -0.1770917 0.708 4294967295
-0.11410646 -0.17783748 0.71100003 4294967295
-0.11309066 -0.17833315 0.713 4294967295
-0.1117539 -0.17832857 0.713 4294967295
-0.11057205 -0.17857416 0.71399999 4294967295
-0.10923348 -0.17856966 0.71399999 4294967295
-0.10819719 -0.17906539 0.71600002 4294967295
-0.10655648 -0.17856076 0.71399999 4294967295
-0.10521802 -0.17855637 0.71399999 4294967295
-0.10417059 -0.17905217 0.71600002 4294967295
-0.10297206 -0.17929789 0.71700001 4294967295
-0.10162808 -0.17929357 0.71700001 4294967295
-0.10028413 -0.17928928 0.71700001 4294967295
-0.099216223 -0.17978513 0.71899998 4294967295
-0.098004736 -0.18003094 0.72000003 4294967295
-0.097057998 -0.18077686 0.72299999 4294967295
-0.095702931 -0.18077266 0.72299999 4294967295
-0.094869919 -0.18176861 0.727 4294967295
-0.093507454 -0.1817645 0.727 4294967295
-0.092271745 -0.18201037 0.72799999 4294967295
-0.091157228 -0.18250631 0.73000002 4294967295
-0.090158239 -0.18325226 0.73299998 4294967295
-0.088905789 -0.18349822 0.73400003 4294967295
-0.087768875 -0.18399417 0.736 4294967295
-0.1823862 -0.18099283 0.72799999 4294967295
-0.1807709 -0.18073773 0.727 4294967295
-0.17940617 -0.18073128 0.727 4294967295
-0.17804147 -0.18072487 0.727 4294967295
-0.17497571 -0.17897846 0.72000003 4294967295
-0.17362425 -0.1789722 0.72000003 4294967295
-0.17203353 -0.1787174 0.71899998 4294967295
-0.17020924 -0.17821413 0.71700001 4294967295
-0.16815698 -0.17746237 0.71399999 4294967295
-0.16658328 -0.17720778 0.713 4294967295
-0.16478164 -0.17670473 0.71100003 4294967295
-0.16275764 -0.17595322 0.708 4294967295
-0.16142896 -0.17594735 0.708 4294967295
-0.16010034 -0.17594151 0.708 4294967295
-0.15877175 -0.17593572 0.708 4294967295
-0.15744318 -0.17592996 0.708 4294967295
-0.15611465 -0.17592423 0.708 4294967295
-0.15456754 -0.17567009 0.70700002 4294967295
-0.15324095 -0.17566445 0.70700002 4294967295
-0.15191443 -0.17565885 0.70700002 4294967295
-0.15058792 -0.17565329 0.70700002 4294967295
-0.14926146 -0.17564777 0.70700002 4294967295
-0.14772578 -0.17539383 0.70599997 4294967295
-0.14640124 -0.17538841 0.70599997 4294967295
-0.14507677 -0.175383 0.70599997 4294967295
-0.14395595 -0.17562604 0.70700002 4294967295
-0.14242791 -0.17537229 0.70599997 4294967295
-0.1407038 -0.17487021 0.704 4294967295
-0.13938321 -0.17486496 0.704 4294967295
-0.13845487 -0.17535652 0.70599997 4294967295
-0.13674212 -0.17485461 0.704 4294967295
-0.13542165 -0.17484945 0.704 4294967295
-0.1339107 -0.17459598 0.70300001 4294967295
-0.13259216 -0.17459095 0.70300001 4294967295
-0.13127366 -0.17458592 0.70300001 4294967295
-0.12995517 -0.17458093 0.70300001 4294967295
-0.12863672 -0.17457597 0.70300001 4294967295
-0.12731831 -0.17457105 0.70300001 4294967295
-0.12617916 -0.17481448 0.704 4294967295
-0.12521365 -0.17530625 0.70599997 4294967295
-0.12406524 -0.17554973 0.70700002 4294967295
-0.12273945 -0.17554493 0.70700002 4294967295
-0.12141371 -0.17554015 0.70700002 4294967295
-0.120088 -0.17553541 0.70700002 4294967295
-0.11876234 -0.1755307 0.70700002 4294967295
-0.11743669 -0.17552604 0.70700002 4294967295
-0.11611108 -0.1755214 0.70700002 4294967295
-0.11494786 -0.17576505 0.708 4294967295
-0.1139414 -0.17625697 0.70999998 4294967295
-0.1126103 -0.17625242 0.70999998 4294967295
-0.11127919 -0.17624789 0.70999998 4294967295
-0.11010301 -0.17649168 0.71100003 4294967295
-0.10907606 -0.17698364 0.713 4294967295
-0.10789055 -0.17722741 0.71399999 4294967295
-0.10610441 -0.17647837 0.71100003 4294967295
-0.10477161 -0.176474 0.71100003 4294967295
-0.10372979 -0.17696607 0.713 4294967295
-0.10253693 -0.17720996 0.71399999 4294967295
-0.10148209 -0.17770205 0.71600002 4294967295
-0.10014006 -0.17769781 0.71600002 4294967295
-0.098936044 -0.17794174 0.71700001 4294967295
-0.097864419 -0.17843388 0.71899998 4294967295
-0.096919581 -0.1791742 0.722 4294967295
-0.095566437 -0.17917003 0.722 4294967295
-0.094604805 -0.17991036 0.72500002 4294967295
-0.093246117 -0.17990625 0.72500002 4294967295
-0.092140943 -0.18039842 0.727 4294967295
-0.090903431 -0.18064249 0.72799999 4294967295
-0.089785218 -0.18113473 0.73000002 4294967295
-0.088417299 -0.18113071 0.73000002 4294967295
-0.087168664 -0.18137483 0.73100001 4294967295
-0.18237972 -0.17962797 0.72799999 4294967295
-0.18076448 -0.17937475 0.727 4294967295
-0.17939979 -0.17936833 0.727 4294967295
-0.17754538 -0.17886853 0.72500002 4294967295
-0.17472644 -0.17738196 0.71899998 4294967295
-0.17289463 -0.17688233 0.71700001 4294967295
-0.17154886 -0.17687616 0.71700001 4294967295
-0.16949099 -0.17612998 0.71399999 4294967295
-0.16791545 -0.17587726 0.713 4294967295
-0.16657732 -0.17587122 0.713 4294967295
-0.16477571 -0.17537194 0.71100003 4294967295
-0.16275179 -0.17462608 0.708 4294967295
-0.16142316 -0.17462023 0.708 4294967295
-0.16009456 -0.17461441 0.708 4294967295
-0.158766 -0.17460863 0.708 4294967295
-0.15743747 -0.17460288 0.708 4294967295
-0.1558885 -0.17435057 0.70700002 4294967295
-0.15456192 -0.17434493 0.70700002 4294967295
-0.15323538 -0.17433931 0.70700002 4294967295
-0.15190889 -0.17433371 0.70700002 4294967295
-0.15058242 -0.17432816 0.70700002 4294967295
-0.14904486 -0.1740761 0.70599997 4294967295
-0.14772034 -0.17407063 0.70599997 4294967295
-0.14639586 -0.1740652 0.70599997 4294967295
-0.14507143 -0.17405982 0.70599997 4294967295
-0.14395063 -0.17430101 0.70700002 4294967295
-0.14242263 -0.17404915 0.70599997 4294967295
-0.14069857 -0.17355083 0.704 4294967295
-0.13937801 -0.17354561 0.704 4294967295
-0.1380575 -0.1735404 0.704 4294967295
-0.13654278 -0.17328876 0.70300001 4294967295
-0.13522421 -0.17328365 0.70300001 4294967295
-0.13390565 -0.17327857 0.70300001 4294967295
-0.13258715 -0.17327353 0.70300001 4294967295
-0.13126868 -0.17326853 0.70300001 4294967295
-0.12958053 -0.17277062 0.70099998 4294967295
-0.12826587 -0.17276569 0.70099998 4294967295
-0.12731345 -0.17325373 0.70300001 4294967295
-0.12599511 -0.17324886 0.70300001 4294967295
-0.12485415 -0.17349045 0.704 4294967295
-0.12353401 -0.17348565 0.704 4294967295
-0.12256108 -0.17397372 0.70599997 4294967295
-0.12123725 -0.17396897 0.70599997 4294967295
-0.11991346 -0.17396425 0.70599997 4294967295
-0.11875769 -0.17420599 0.70700002 4294967295
-0.11726596 -0.17395493 0.70599997 4294967295
-0.11594228 -0.17395033 0.70599997 4294967295
-0.11478096 -0.17419213 0.70700002 4294967295
-0.11361593 -0.17443395 0.708 4294967295
-0.1126058 -0.17492215 0.70999998 4294967295
-0.11127472 -0.17491765 0.70999998 4294967295
-0.1099437 -0.17491317 0.70999998 4294967295
-0.10861269 -0.17490874 0.70999998 4294967295
-0.10743285 -0.17515069 0.71100003 4294967295
-0.10595082 -0.17489997 0.70999998 4294967295
-0.10461994 -0.17489563 0.70999998 4294967295
-0.10343456 -0.17513767 0.71100003 4294967295
-0.10210185 -0.17513338 0.71100003 4294967295
-0.10119437 -0.17586806 0.71399999 4294967295
-0.099856138 -0.17586383 0.71399999 4294967295
-0.098793872 -0.17635223 0.71600002 4294967295
-0.097588055 -0.17659436 0.71700001 4294967295
-0.096646972 -0.17732908 0.72000003 4294967295
-0.095297605 -0.17732495 0.72000003 4294967295
-0.094339736 -0.17805967 0.72299999 4294967295
-0.093242049 -0.17854813 0.72500002 4294967295
-0.092136897 -0.17903659 0.727 4294967295
-0.090774558 -0.17903253 0.727 4294967295
-0.089535244 -0.17927477 0.72799999 4294967295
-0.088171102 -0.17927079 0.72799999 4294967295
-0.087045483 -0.17975932 0.73000002 4294967295
-0.18212277 -0.17801836 0.727 4294967295
-0.18026082 -0.1775222 0.72500002 4294967295
-0.17889993 -0.17751582 0.72500002 4294967295
-0.17606977 -0.1760404 0.71899998 4294967295
-0.17472024 -0.17603415 0.71899998 4294967295
-0.17264736 -0.17529349 0.71600002 4294967295
-0.17130353 -0.17528734 0.71600002 4294967295
-0.16948496 -0.1747916 0.71399999 4294967295
-0.16790946 -0.17454076 0.713 4294967295
-0.16657138 -0.17453477 0.713 4294967295
-0.16476983 -0.17403924 0.71100003 4294967295
-0.16274597 -0.17329901 0.708 4294967295
-0.16141735 -0.17329317 0.708 4294967295
-0.15986268 -0.17304263 0.70700002 4294967295
-0.15853605 -0.17303687 0.70700002 4294967295
-0.15720946 -0.17303117 0.70700002 4294967295
-0.15588287 -0.17302547 0.70700002 4294967295
-0.15455633 -0.17301984 0.70700002 4294967295
-0.15322983 -0.17301424 0.70700002 4294967295
-0.15190336 -0.17300867 0.70700002 4294967295
-0.15036394 -0.17275843 0.70599997 4294967295
-0.14903942 -0.17275295 0.70599997 4294967295
-0.14729647 -0.17225814 0.704 4294967295
-0.14597578 -0.17225274 0.704 4294967295
-0.14465512 -0.17224739 0.704 4294967295
-0.14394532 -0.17297606 0.70700002 4294967295
-0.14181221 -0.17199214 0.70300001 4294967295
-0.14049353 -0.17198689 0.70300001 4294967295
-0.13917488 -0.17198169 0.70300001 4294967295
-0.13785627 -0.17197654 0.70300001 4294967295
-0.13653769 -0.1719714 0.70300001 4294967295
-0.13521916 -0.1719663 0.70300001 4294967295
-0.13351968 -0.17147201 0.70099998 4294967295
-0.13220496 -0.17146701 0.70099998 4294967295
-0.13089028 -0.17146203 0.70099998 4294967295
-0.12957563 -0.17145708 0.70099998 4294967295
-0.128261 -0.17145218 0.70099998 4294967295
-0.12694642 -0.17144732 0.70099998 4294967295
-0.12563187 -0.17144249 0.70099998 4294967295
-0.12467203 -0.1719268 0.70300001 4294967295
-0.12335379 -0.17192201 0.70300001 4294967295
-0.12220917 -0.17216182 0.704 4294967295
-0.12088913 -0.17215711 0.704 4294967295
-0.11956911 -0.17215241 0.704 4294967295
-0.11824914 -0.17214777 0.704 4294967295
-0.11692918 -0.17214316 0.704 4294967295
-0.11560928 -0.17213857 0.704 4294967295
-0.11461408 -0.17262302 0.70599997 4294967295
-0.11345095 -0.17286302 0.70700002 4294967295
-0.11228412 -0.17310297 0.708 4294967295
-0.11095684 -0.17309852 0.708 4294967295
-0.10962959 -0.17309408 0.708 4294967295
-0.10830238 -0.17308968 0.708 4294967295
-0.10727739 -0.17357422 0.70999998 4294967295
-0.1059465 -0.17356987 0.70999998 4294967295
-0.10461564 -0.17356554 0.70999998 4294967295
-0.10328481 -0.17356125 0.70999998 4294967295
-0.10209762 -0.17380145 0.71100003 4294967295
-0.10104844 -0.17428611 0.713 4294967295
-0.099851936 -0.17452632 0.71399999 4294967295
-0.098789714 -0.17501101 0.71600002 4294967295
-0.097447813 -0.17500684 0.71600002 4294967295
-0.096508615 -0.17573595 0.71899998 4294967295
-0.09516117 -0.17573184 0.71899998 4294967295
-0.094205178 -0.17646097 0.722 4294967295
-0.092980787 -0.17670128 0.72299999 4294967295
-0.091879398 -0.17718606 0.72500002 4294967295
-0.090520836 -0.17718202 0.72500002 4294967295
-0.089408278 -0.1776668 0.727 4294967295
-0.088046052 -0.17766283 0.727 4294967295
-0.086803086 -0.17790326 0.72799999 4294967295
-0.18348102 -0.17666206 0.727 4294967295
-0.18086384 -0.17544064 0.722 4294967295
-0.17901133 -0.17494829 0.72000003 4294967295
-0.17741311 -0.17469898 0.71899998 4294967295
-0.17557381 -0.17420676 0.71700001 4294967295
-0.17422806 -0.17420056 0.71700001 4294967295
-0.17264122 -0.17395143 0.71600002 4294967295
-0.17129743 -0.17394531 0.71600002 4294967295
-0.16947894 -0.17345335 0.71399999 4294967295
-0.1674325 -0.17271855 0.71100003 4294967295
-0.16609821 -0.17271258 0.71100003 4294967295
-0.16406873 -0.17197794 0.708 4294967295
-0.16274014 -0.17197208 0.708 4294967295
-0.16141158 -0.17196625 0.708 4294967295
-0.15985696 -0.17171758 0.70700002 4294967295
-0.15853037 -0.17171186 0.70700002 4294967295
-0.15720379 -0.17170615 0.70700002 4294967295
-0.15565675 -0.17145762 0.70599997 4294967295
-0.15433213 -0.17145202 0.70599997 4294967295
-0.15300754 -0.17144644 0.70599997 4294967295
-0.151683 -0.1714409 0.70599997 4294967295
-0.15035848 -0.17143539 0.70599997 4294967295
-0.14861181 -0.1709443 0.704 4294967295
-0.14729112 -0.17093888 0.704 4294967295
-0.14576313 -0.1706907 0.70300001 4294967295
-0.14444438 -0.17068537 0.70300001 4294967295
-0.14312567 -0.17068008 0.70300001 4294967295
-0.14180698 -0.17067482 0.70300001 4294967295
-0.14048834 -0.1706696 0.70300001 4294967295
-0.1387738 -0.17017888 0.70099998 4294967295
-0.13745897 -0.17017373 0.70099998 4294967295
-0.13614418 -0.17016862 0.70099998 4294967295
-0.13482942 -0.17016357 0.70099998 4294967295
-0.1335147 -0.17015855 0.70099998 4294967295
-0.13220002 -0.17015354 0.70099998 4294967295
-0.13088536 -0.1701486 0.70099998 4294967295
-0.12957074 -0.17014366 0.70099998 4294967295
-0.12825614 -0.17013878 0.70099998 4294967295
-0.12694159 -0.17013392 0.70099998 4294967295
-0.12562707 -0.17012909 0.70099998 4294967295
-0.12431259 -0.17012431 0.70099998 4294967295
-0.12334906 -0.17060493 0.70300001 4294967295
-0.12203089 -0.17060021 0.70300001 4294967295
-0.12071275 -0.1705955 0.70300001 4294967295
-0.11956448 -0.1708335 0.704 4294967295
-0.11824454 -0.17082886 0.704 4294967295
-0.11692463 -0.17082427 0.704 4294967295
-0.11560474 -0.1708197 0.704 4294967295
-0.1142849 -0.17081517 0.704 4294967295
-0.113286 -0.17129591 0.70599997 4294967295
-0.11212107 -0.17153406 0.70700002 4294967295
-0.11095241 -0.1717722 0.708 4294967295
-0.10962521 -0.1717678 0.708 4294967295
-0.10829803 -0.17176341 0.708 4294967295
-0.10727305 -0.17224422 0.70999998 4294967295
-0.10594219 -0.17223988 0.70999998 4294967295
-0.10461137 -0.17223556 0.70999998 4294967295
-0.10328058 -0.17223129 0.70999998 4294967295
-0.10209341 -0.17246965 0.71100003 4294967295
-0.10104425 -0.17295057 0.713 4294967295
-0.099847749 -0.17318891 0.71399999 4294967295
-0.098785564 -0.17366986 0.71600002 4294967295
-0.097443692 -0.17366572 0.71600002 4294967295
-0.096236072 -0.17390414 0.71700001 4294967295
-0.095157094 -0.17438512 0.71899998 4294967295
-0.093809709 -0.17438106 0.71899998 4294967295
-0.092590965 -0.17461956 0.72000003 4294967295
-0.091495216 -0.17510058 0.722 4294967295
-0.090267159 -0.17533909 0.72299999 4294967295
-0.089158386 -0.17582019 0.72500002 4294967295
-0.088042125 -0.17630123 0.727 4294967295
-0.086679958 -0.17629732 0.727 4294967295
-0.085317828 -0.17629342 0.727 4294967295
-0.085226029 -0.17895694 0.73799998 4294967295
-0.083843365 -0.17895305 0.73799998 4294967295
-0.082460739 -0.17894921 0.73799998 4294967295
-0.18382224 -0.17434134 0.72299999 4294967295
-0.18246508 -0.17433488 0.72299999 4294967295
-0.18085746 -0.17408735 0.722 4294967295
-0.17900503 -0.17359878 0.72000003 4294967295
-0.17740686 -0.17335136 0.71899998 4294967295
-0.17556761 -0.17286293 0.71700001 4294967295
-0.17397892 -0.17261565 0.71600002 4294967295
-0.17215289 -0.17212734 0.71399999 4294967295
-0.17081288 -0.17212123 0.71399999 4294967295
-0.16923557 -0.17187414 0.713 4294967295
-0.16719106 -0.17114496 0.70999998 4294967295
-0.16539149 -0.17065696 0.708 4294967295
-0.16383116 -0.17041005 0.70700002 4294967295
-0.16250449 -0.17040421 0.70700002 4294967295
-0.16117786 -0.17039841 0.70700002 4294967295
-0.15962513 -0.17015164 0.70599997 4294967295
-0.15830043 -0.17014593 0.70599997 4294967295
-0.15697581 -0.17014025 0.70599997 4294967295
-0.15565117 -0.1701346 0.70599997 4294967295
-0.15432659 -0.17012902 0.70599997 4294967295
-0.15300202 -0.17012346 0.70599997 4294967295
-0.15124784 -0.16963603 0.704 4294967295
-0.14992711 -0.16963056 0.704 4294967295
-0.14860642 -0.16962512 0.704 4294967295
-0.14707656 -0.16937879 0.70300001 4294967295
-0.14575781 -0.16937342 0.70300001 4294967295
-0.1444391 -0.16936812 0.70300001 4294967295
-0.14312042 -0.16936284 0.70300001 4294967295
-0.14139836 -0.16887578 0.70099998 4294967295
-0.14008349 -0.16887058 0.70099998 4294967295
-0.13876867 -0.16886543 0.70099998 4294967295
-0.1374539 -0.16886032 0.70099998 4294967295
-0.13613912 -0.16885521 0.70099998 4294967295
-0.13482441 -0.16885018 0.70099998 4294967295
-0.13331927 -0.1686043 0.69999999 4294967295
-0.1320065 -0.16859932 0.69999999 4294967295
-0.13069376 -0.16859439 0.69999999 4294967295
-0.12938105 -0.1685895 0.69999999 4294967295
-0.12806836 -0.16858463 0.69999999 4294967295
-0.1267557 -0.16857979 0.69999999 4294967295
-0.1254431 -0.16857499 0.69999999 4294967295
-0.12430786 -0.16881105 0.70099998 4294967295
-0.12299343 -0.1688063 0.70099998 4294967295
-0.12167905 -0.16880161 0.70099998 4294967295
-0.1207081 -0.16927853 0.70300001 4294967295
-0.11939003 -0.16927388 0.70300001 4294967295
-0.11807201 -0.16926928 0.70300001 4294967295
-0.11692007 -0.16950546 0.704 4294967295
-0.11560021 -0.16950092 0.704 4294967295
-0.1142804 -0.16949639 0.704 4294967295
-0.11328154 -0.1699734 0.70599997 4294967295
-0.11211663 -0.17020971 0.70700002 4294967295
-0.110948 -0.17044601 0.708 4294967295
-0.10962083 -0.1704416 0.708 4294967295
-0.10829367 -0.17043722 0.708 4294967295
-0.10696657 -0.17043288 0.708 4294967295
-0.10563949 -0.17042856 0.708 4294967295
-0.10431243 -0.17042428 0.708 4294967295
-0.10327635 -0.17090143 0.70999998 4294967295
-0.1020892 -0.17113793 0.71100003 4294967295
-0.10104006 -0.17161509 0.713 4294967295
-0.099843606 -0.17185161 0.71399999 4294967295
-0.098781422 -0.17232883 0.71600002 4294967295
-0.097439595 -0.17232469 0.71600002 4294967295
-0.09609779 -0.17232059 0.71600002 4294967295
-0.094888359 -0.17255719 0.71700001 4294967295
-0.093805686 -0.17303446 0.71899998 4294967295
-0.092586972 -0.17327109 0.72000003 4294967295
-0.091237813 -0.17326711 0.72000003 4294967295
-0.090138361 -0.17374443 0.722 4294967295
-0.089154452 -0.17446239 0.72500002 4294967295
-0.087796032 -0.17445847 0.72500002 4294967295
-0.086676076 -0.17493582 0.727 4294967295
-0.085431337 -0.17517258 0.72799999 4294967295
-0.084413826 -0.17589058 0.73100001 4294967295
-0.083044313 -0.17588675 0.73100001 4294967295
-0.082233474 -0.17708598 0.736 4294967295
-0.081074357 -0.17756338 0.73799998 4294967295
-0.079799823 -0.17780021 0.73900002 4294967295
-0.18381585 -0.17298625 0.72299999 4294967295
-0.18245873 -0.1729798 0.72299999 4294967295
-0.18085112 -0.17273416 0.722 4294967295
-0.17949595 -0.17272779 0.722 4294967295
-0.17740062 -0.17200382 0.71899998 4294967295
-0.17556143 -0.17151916 0.71700001 4294967295
-0.1739728 -0.17127377 0.71600002 4294967295
-0.17214683 -0.17078924 0.71399999 4294967295
-0.17080685 -0.17078315 0.71399999 4294967295
-0.1692296 -0.17053795 0.713 4294967295
-0.16718516 -0.16981442 0.70999998 4294967295
-0.16538563 -0.16933018 0.708 4294967295
-0.16382536 -0.16908514 0.70700002 4294967295
-0.16226886 -0.16884017 0.70599997 4294967295
-0.16094412 -0.1688344 0.70599997 4294967295
-0.15961944 -0.16882867 0.70599997 4294967295
-0.15829478 -0.16882297 0.70599997 4294967295
-0.15697017 -0.16881731 0.70599997 4294967295
-0.15564559 -0.16881169 0.70599997 4294967295
-0.15388387 -0.16832791 0.704 4294967295
-0.15256311 -0.16832237 0.704 4294967295
-0.15124239 -0.1683169 0.704 4294967295
-0.14970875 -0.16807239 0.70300001 4294967295
-0.14838997 -0.16806695 0.70300001 4294967295
-0.14707123 -0.16806158 0.70300001 4294967295
-0.14533785 -0.16757815 0.70099998 4294967295
-0.14402293 -0.16757284 0.70099998 4294967295
-0.14270803 -0.1675676 0.70099998 4294967295
-0.1411915 -0.16732338 0.69999999 4294967295
-0.13987854 -0.1673182 0.69999999 4294967295
-0.13856561 -0.16731307 0.69999999 4294967295
-0.13725276 -0.16730796 0.69999999 4294967295
-0.13593991 -0.16730291 0.69999999 4294967295
-0.1346271 -0.16729787 0.69999999 4294967295
-0.13331431 -0.16729289 0.69999999 4294967295
-0.13200158 -0.16728795 0.69999999 4294967295
-0.13068886 -0.167283 0.69999999 4294967295
-0.12937619 -0.16727813 0.69999999 4294967295
-0.12806354 -0.16727328 0.69999999 4294967295
-0.12675093 -0.16726846 0.69999999 4294967295
-0.12543836 -0.16726367 0.69999999 4294967295
-0.12412582 -0.16725893 0.69999999 4294967295
-0.12281331 -0.16725422 0.69999999 4294967295
-0.12167439 -0.16748846 0.70099998 4294967295
-0.12036009 -0.16748382 0.70099998 4294967295
-0.11904578 -0.1674792 0.70099998 4294967295
-0.11806743 -0.16795242 0.70300001 4294967295
-0.11674945 -0.16794784 0.70300001 4294967295
-0.11559572 -0.16818222 0.704 4294967295
-0.11460059 -0.16865548 0.70599997 4294967295
-0.11327709 -0.168651 0.70599997 4294967295
-0.11211222 -0.16888545 0.70700002 4294967295
-0.11094361 -0.16911989 0.708 4294967295
-0.10961646 -0.16911548 0.708 4294967295
-0.10828934 -0.16911113 0.708 4294967295
-0.10696226 -0.1691068 0.708 4294967295
-0.10563522 -0.16910249 0.708 4294967295
-0.10430822 -0.16909823 0.708 4294967295
-0.10327213 -0.16957165 0.70999998 4294967295
-0.10194144 -0.16956745 0.70999998 4294967295
-0.1011776 -0.17051855 0.71399999 4294967295
-0.099839479 -0.17051437 0.71399999 4294967295
-0.098363444 -0.17027144 0.713 4294967295
-0.09702725 -0.17026733 0.713 4294967295
-0.095825315 -0.17050207 0.71399999 4294967295
-0.094884329 -0.17121442 0.71700001 4294967295
-0.093540758 -0.17121038 0.71700001 4294967295
-0.092582978 -0.17192273 0.72000003 4294967295
-0.09123385 -0.17191875 0.72000003 4294967295
-0.090134442 -0.17239234 0.722 4294967295
-0.088904604 -0.17262717 0.72299999 4294967295
-0.087792143 -0.17310081 0.72500002 4294967295
-0.086672217 -0.17357442 0.727 4294967295
-0.0854275 -0.17380932 0.72799999 4294967295
-0.084294535 -0.17428298 0.73000002 4294967295
-0.083040521 -0.1745179 0.73100001 4294967295
-0.082006246 -0.17523031 0.73400003 4294967295
-0.080850907 -0.175704 0.736 4294967295
-0.079688117 -0.17617773 0.73799998 4294967295
-0.078411765 -0.1764127 0.73900002 4294967295
-0.077027462 -0.17640901 0.73900002 4294967295
-0.1838094 -0.17163126 0.72299999 4294967295
-0.18219997 -0.17138746 0.722 4294967295
-0.18034385 -0.17090635 0.72000003 4294967295
-0.17874385 -0.17066269 0.71899998 4294967295
-0.17739439 -0.1706564 0.71899998 4294967295
-0.17555527 -0.17017551 0.71700001 4294967295
-0.17396669 -0.16993201 0.71600002 4294967295
-0.17214079 -0.16945125 0.71399999 4294967295
-0.17056164 -0.16920786 0.713 4294967295
-0.16874894 -0.16872725 0.71100003 4294967295
-0.16717926 -0.16848399 0.70999998 4294967295
-0.16537978 -0.16800348 0.708 4294967295
-0.16381957 -0.16776036 0.70700002 4294967295
-0.16180345 -0.16704273 0.704 4294967295
-0.16048251 -0.167037 0.704 4294967295
-0.15893552 -0.16679402 0.70300001 4294967295
-0.15761654 -0.16678837 0.70300001 4294967295
-0.15651992 -0.16702001 0.704 4294967295
-0.15497868 -0.16677718 0.70300001 4294967295
-0.15365979 -0.16677165 0.70300001 4294967295
-0.15255764 -0.16700336 0.704 4294967295
-0.15123697 -0.16699788 0.704 4294967295
-0.14970337 -0.16675524 0.70300001 4294967295
-0.14796247 -0.16627544 0.70099998 4294967295
-0.14664751 -0.16627011 0.70099998 4294967295
-0.14533257 -0.16626482 0.70099998 4294967295
-0.14381225 -0.16602238 0.69999999 4294967295
-0.14249928 -0.16601714 0.69999999 4294967295
-0.14118634 -0.16601196 0.69999999 4294967295
-0.13987342 -0.16600679 0.69999999 4294967295
-0.13856056 -0.16600169 0.69999999 4294967295
-0.13724771 -0.16599661 0.69999999 4294967295
-0.13593489 -0.16599156 0.69999999 4294967295
-0.13462213 -0.16598655 0.69999999 4294967295
-0.13330938 -0.16598158 0.69999999 4294967295
-0.13199668 -0.16597666 0.69999999 4294967295
-0.13031062 -0.16549754 0.69800001 4294967295
-0.12900172 -0.16549267 0.69800001 4294967295
-0.12805875 -0.16596203 0.69999999 4294967295
-0.12674616 -0.16595723 0.69999999 4294967295
-0.12543362 -0.16595247 0.69999999 4294967295
-0.12412111 -0.16594772 0.69999999 4294967295
-0.12280864 -0.16594303 0.69999999 4294967295
-0.12149619 -0.16593836 0.69999999 4294967295
-0.12035547 -0.16617079 0.70099998 4294967295
-0.1190412 -0.16616616 0.70099998 4294967295
-0.117727 -0.1661616 0.70099998 4294967295
-0.1164128 -0.16615707 0.70099998 4294967295
-0.11509866 -0.16615257 0.70099998 4294967295
-0.11378451 -0.16614808 0.70099998 4294967295
-0.11327264 -0.1673287 0.70599997 4294967295
-0.11210781 -0.16756128 0.70700002 4294967295
-0.11078253 -0.16755687 0.70700002 4294967295
-0.1094573 -0.1675525 0.70700002 4294967295
-0.10813209 -0.16754815 0.70700002 4294967295
-0.10680691 -0.16754383 0.70700002 4294967295
-0.1054818 -0.16753958 0.70700002 4294967295
-0.104304 -0.16777229 0.708 4294967295
-0.10297704 -0.16776806 0.708 4294967295
-0.10165014 -0.16776389 0.708 4294967295
-0.10060665 -0.16823362 0.70999998 4294967295
-0.099276043 -0.16822949 0.70999998 4294967295
-0.098083451 -0.16846234 0.71100003 4294967295
-0.096614964 -0.16822132 0.70999998 4294967295
-0.095284469 -0.16821727 0.70999998 4294967295
-0.094351001 -0.16892405 0.713 4294967295
-0.0931454 -0.16915697 0.71399999 4294967295
-0.092064694 -0.16962683 0.71600002 4294967295
-0.090849794 -0.1698598 0.71700001 4294967295
-0.090130523 -0.17104036 0.722 4294967295
-0.088777751 -0.17103644 0.722 4294967295
-0.087546095 -0.17126946 0.72299999 4294967295
-0.086429954 -0.17173935 0.72500002 4294967295
-0.085423686 -0.17244616 0.72799999 4294967295
-0.08429075 -0.1729161 0.73000002 4294967295
-0.083036751 -0.17314915 0.73100001 4294967295
-0.081890769 -0.17361912 0.73299998 4294967295
-0.080627486 -0.17385224 0.73400003 4294967295
-0.079684399 -0.17479591 0.73799998 4294967295
-0.078301966 -0.1747922 0.73799998 4294967295
-0.077023812 -0.17502537 0.73900002 4294967295
-0.18490402 -0.17004731 0.722 4294967295
-0.18354881 -0.17004088 0.722 4294967295
-0.18219362 -0.17003448 0.722 4294967295
-0.1800871 -0.16932163 0.71899998 4294967295
-0.17824046 -0.16884439 0.71700001 4294967295
-0.17689478 -0.16883816 0.71700001 4294967295
-0.17481463 -0.16812555 0.71399999 4294967295
-0.17347467 -0.16811943 0.71399999 4294967295
-0.17189366 -0.16787791 0.713 4294967295
-0.17007725 -0.16740099 0.71100003 4294967295
-0.16874301 -0.16739501 0.71100003 4294967295
-0.16670246 -0.16668279 0.708 4294967295
