# .PCD v0.7 - Point Cloud Data file format
VERSION 0.7
FIELDS x y z rgba
SIZE 4 4 4 4
TYPE F F F U
COUNT 1 1 1 1
WIDTH 1059
HEIGHT 1
VIEWPOINT 0 0 0 1 0 0 0
POINTS 1059
DATA ascii
-0.11080367 -0.0084238527 1.437 4281284663
-0.10948033 -0.008417991 1.4360001 4281416249
-0.1082341 -0.008417991 1.4360001 4281416249
-0.10668985 -0.0083945422 1.432 4281415994
-0.10544709 -0.0083945422 1.432 4281350202
-0.10413156 -0.0083886804 1.4310001 4281350202
-0.10288967 -0.0083886804 1.4310001 4281284409
-0.10171881 -0.0083945422 1.432 4281349689
-0.10047605 -0.0083945422 1.432 4281283896
-0.099510483 -0.008417991 1.4360001 4281283639
-0.098332681 -0.0084238527 1.437 4281349432
-0.097220704 -0.0084355772 1.439 4281415225
-0.096238643 -0.008459026 1.4430001 4281415225
-0.09505216 -0.0084648877 1.4440001 4281415225
-0.093798988 -0.0084648877 1.4440001 4281349432
-0.092417628 -0.0084531633 1.442 4281415479
-0.091039747 -0.0084414398 1.4400001 4281283893
-0.089665338 -0.0084297154 1.4380001 4281152307
-0.084017247 -0.0081248851 1.386 4281087284
-0.082635157 -0.0081072999 1.383 4281218870
-0.081140503 -0.0080779884 1.378 4280955698
-0.079712547 -0.0080545405 1.3740001 4280824112
-0.078462973 -0.0080486778 1.373 4280758319
-0.077271417 -0.0080486778 1.373 4280758319
-0.076246098 -0.008066264 1.376 4280758319
-0.075106479 -0.0080721267 1.3770001 4280824112
-0.074018799 -0.0080838511 1.3790001 4280824110
-0.073033273 -0.0081072999 1.383 4280758317
-0.071884975 -0.0081131617 1.3840001 4280824110
-0.070683874 -0.0081131617 1.3840001 4280889903
-0.069683582 -0.0081366096 1.388 4280824110
-0.068528347 -0.0081424722 1.3890001 4280692524
-0.067371376 -0.008148334 1.3900001 4280626731
-0.066403069 -0.0081776446 1.3950001 4280626731
-0.065239154 -0.0081835063 1.396 4280692524
-0.064119361 -0.0081952307 1.3980001 4280626731
-0.062001761 -0.0082362648 1.4050001 4280692526
-0.060868952 -0.0082479902 1.4070001 4280758319
-0.059732683 -0.0082597136 1.409 4280824112
-0.058717508 -0.0082890242 1.414 4280889905
-0.057531029 -0.0082948869 1.4150001 4280955698
-0.05634281 -0.0083007487 1.416 4280889905
-0.055308551 -0.0083300592 1.4210001 4280824112
-0.054151446 -0.0083417837 1.4230001 4280889905
-0.052990865 -0.0083535081 1.4250001 4281087284
-0.052008413 -0.0083945422 1.432 4281283893
-0.050801102 -0.0084004039 1.4330001 4281218100
-0.049626641 -0.0084121292 1.4350001 4281086260
-0.14673652 -0.0072354134 1.447 4279902238
-0.14517912 -0.0072204121 1.4440001 4279770651
-0.14332792 -0.007190411 1.4380001 4279704858
-0.14217876 -0.0071954108 1.439 4279770652
-0.14092994 -0.0071954108 1.439 4279902238
-0.14006937 -0.0072154123 1.4430001 4280033824
-0.13891326 -0.0072204121 1.4440001 4280099617
-0.13785075 -0.0072304127 1.4460001 4280099617
-0.12504169 -0.0072154123 1.4430001 4280824110
-0.12378938 -0.0072154123 1.4430001 4280824110
-0.12245216 -0.0072104111 1.442 4280955696
-0.12120073 -0.0072104111 1.442 4281087282
-0.11994928 -0.0072104111 1.442 4281153075
-0.11878016 -0.0072154123 1.4430001 4281153075
-0.11760929 -0.0072204121 1.4440001 4281153075
-0.11635612 -0.0072204121 1.4440001 4281087282
-0.11494353 -0.0072104111 1.442 4281021489
-0.11361325 -0.0072054113 1.4410001 4281021489
-0.1122847 -0.0072004111 1.4400001 4281153076
-0.11080367 -0.0071854098 1.437 4281284661
-0.10940409 -0.0071754097 1.4350001 4281284663
-0.10808336 -0.0071704094 1.434 4281284663
-0.10661535 -0.0071554086 1.4310001 4281218870
-0.10537346 -0.0071554086 1.4310001 4281153077
-0.10405879 -0.0071504083 1.4300001 4281087030
-0.10281777 -0.0071504083 1.4300001 4281021237
-0.10164778 -0.0071554086 1.4310001 4281217846
-0.10040589 -0.0071554086 1.4310001 4281217846
-0.099510483 -0.00718041 1.4360001 4281217846
-0.098332681 -0.0071854098 1.437 4281283639
-0.097153142 -0.007190411 1.4380001 4281283639
-0.096171945 -0.0072104111 1.442 4281283639
-0.094986334 -0.0072154123 1.4430001 4281218101
-0.093734026 -0.0072154123 1.4430001 4281218101
-0.092353545 -0.0072054113 1.4410001 4281283893
-0.091039747 -0.0072004111 1.4400001 4281086514
-0.089665338 -0.007190411 1.4380001 4280954928
-0.083956622 -0.0069253952 1.3850001 4281020721
-0.082575403 -0.0069103944 1.3820001 4281284149
-0.081081621 -0.0068853931 1.3770001 4281153077
-0.079712547 -0.0068703922 1.3740001 4281021491
-0.078462973 -0.006865392 1.373 4280955698
-0.077271417 -0.006865392 1.373 4280824112
-0.07619068 -0.0068753925 1.3750001 4280824112
-0.075051934 -0.0068803928 1.376 4280889905
-0.073911451 -0.0068853931 1.3770001 4280889903
-0.072927654 -0.0069053941 1.381 4280758317
-0.071833037 -0.0069153947 1.383 4280758317
-0.070683874 -0.0069203954 1.3840001 4280824110
-0.069683582 -0.006940396 1.388 4280692524
-0.068528347 -0.0069453968 1.3890001 4280626731
-0.067322902 -0.0069453968 1.3890001 4280626731
-0.066355459 -0.0069703981 1.3940001 4280692524
-0.065239154 -0.0069803987 1.396 4280758317
-0.064119361 -0.0069903992 1.3980001 4280692524
-0.062001761 -0.0070254011 1.4050001 4280691754
-0.060868952 -0.0070354016 1.4070001 4280758317
-0.059732683 -0.0070454022 1.409 4280889903
-0.058759037 -0.0070754043 1.4150001 4280955696
-0.057531029 -0.0070754043 1.4150001 4280955696
-0.05634281 -0.0070804046 1.416 4280889903
-0.055347469 -0.0071104057 1.4220001 4280758317
-0.054189499 -0.0071204067 1.424 4280758319
-0.052990865 -0.007125407 1.4250001 4280889905
-0.052008413 -0.0071604084 1.432 4281349686
-0.050836556 -0.0071704094 1.434 4281152307
-0.049626641 -0.0071754097 1.4350001 4281218100
-0.14653371 -0.0059800749 1.4450001 4279836444
-0.14507858 -0.0059717977 1.4430001 4279770651
-0.14312859 -0.005942829 1.4360001 4279770650
-0.14198115 -0.0059469673 1.437 4279836443
-0.14063612 -0.005942829 1.4360001 4279968030
-0.13977817 -0.0059593827 1.4400001 4280099615
-0.13872086 -0.0059676599 1.442 4280099616
-0.13766009 -0.0059759365 1.4440001 4280099616
-0.12495504 -0.0059676599 1.442 4280560938
-0.12361781 -0.0059635211 1.4410001 4280692524
-0.12228232 -0.0059593827 1.4400001 4280889390
-0.12094858 -0.0059552444 1.439 4281020976
-0.11978292 -0.0059593827 1.4400001 4281152305
-0.11853321 -0.0059593827 1.4400001 4281218098
-0.11736495 -0.0059635211 1.4410001 4281087026
-0.11619497 -0.0059676599 1.442 4280955696
-0.11486381 -0.0059635211 1.4410001 4280889903
-0.11361325 -0.0059635211 1.4410001 4280889903
-0.11220672 -0.0059552444 1.439 4280955696
-0.11072657 -0.005942829 1.4360001 4281087282
-0.10940409 -0.0059386906 1.4350001 4281153077
-0.10808336 -0.0059345518 1.434 4281153077
-0.10661535 -0.0059221364 1.4310001 4281021491
-0.10529982 -0.005917998 1.4300001 4280955698
-0.10398602 -0.0059138597 1.429 4280889905
-0.10274587 -0.0059138597 1.429 4280889905
-0.10157675 -0.005917998 1.4300001 4281021235
-0.10040589 -0.0059221364 1.4310001 4281087028
-0.099441186 -0.0059386906 1.4350001 4281086515
-0.098264247 -0.005942829 1.4360001 4281086515
-0.097153142 -0.0059511056 1.4380001 4281086515
-0.096105255 -0.0059635211 1.4410001 4281086515
-0.094920509 -0.0059676599 1.442 4281086514
-0.093669072 -0.0059676599 1.442 4281086514
-0.092353545 -0.0059635211 1.4410001 4281152307
-0.090850085 -0.0059469673 1.437 4281086514
-0.083896011 -0.0057276292 1.3840001 4280889135
-0.082336396 -0.0057027983 1.378 4281218100
-0.081022739 -0.0056945211 1.376 4281349943
-0.079712547 -0.0056862445 1.3740001 4281349686
-0.078462973 -0.0056821061 1.373 4281021491
-0.077215135 -0.0056779673 1.3720001 4280824112
-0.07607986 -0.0056821061 1.373 4280824112
-0.074997388 -0.0056903828 1.3750001 4280889905
-0.073857777 -0.0056945211 1.376 4280889903
-0.072927654 -0.0057152133 1.381 4280824110
-0.071781091 -0.005719352 1.3820001 4280758317
-0.0706328 -0.0057234904 1.383 4280758317
-0.06963338 -0.0057400442 1.3870001 4280626731
-0.068479009 -0.0057441825 1.388 4280692524
-0.067371376 -0.0057524596 1.3900001 4280692524
-0.066355459 -0.0057690134 1.3940001 4280758317
-0.065239154 -0.0057772906 1.396 4280889133
-0.064073496 -0.0057814289 1.3970001 4280823340
-0.061957631 -0.0058103981 1.404 4280691754
-0.060868952 -0.0058228136 1.4070001 4280823340
-0.059732683 -0.0058310903 1.409 4281020719
-0.058759037 -0.0058559212 1.4150001 4281152305
-0.057571691 -0.00586006 1.416 4281152305
-0.0563826 -0.0058641983 1.4170001 4280889903
-0.055347469 -0.0058848904 1.4220001 4280758317
-0.054189499 -0.0058931671 1.424 4280758317
-0.053028055 -0.0059014442 1.4260001 4280824110
-0.052008413 -0.0059262747 1.432 4281152307
-0.050836556 -0.0059345518 1.434 4281283893
-0.049661223 -0.005942829 1.4360001 4281086514
-0.15019181 -0.0047314609 1.4440001 4279770652
-0.14893864 -0.0047314609 1.4440001 4279770651
-0.14778775 -0.0047347373 1.4450001 4279836443
-0.14602667 -0.0047183544 1.4400001 4279770650
-0.14427426 -0.0047019711 1.4350001 4279902236
-0.14263022 -0.0046888646 1.4310001 4279902236
-0.14138833 -0.0046888646 1.4310001 4279902236
-0.14014643 -0.0046888646 1.4310001 4279968029
-0.13919576 -0.0046986942 1.434 4280033822
-0.13804746 -0.0047019711 1.4350001 4280099615
-0.13699275 -0.0047085243 1.437 4280099615
-0.12629399 -0.0047281841 1.4430001 4280362789
-0.12460841 -0.0047118012 1.4380001 4280428582
-0.12327467 -0.0047085243 1.437 4280494632
-0.12194265 -0.0047052475 1.4360001 4280625961
-0.12044427 -0.0046954178 1.4330001 4280757547
-0.11911745 -0.004692141 1.432 4280889133
-0.11803932 -0.0046986942 1.434 4281020719
-0.11687627 -0.0047019711 1.4350001 4281086512
-0.1157115 -0.0047052475 1.4360001 4280955183
-0.11454497 -0.0047085243 1.437 4280823853
-0.11321902 -0.0047052475 1.4360001 4280758317
-0.11197279 -0.0047052475 1.4360001 4280824110
-0.11064946 -0.0047019711 1.4350001 4280955696
-0.10940409 -0.0047019711 1.4350001 4281021490
-0.10808336 -0.0046986942 1.434 4280955696
-0.10668985 -0.004692141 1.432 4280758319
-0.10537346 -0.0046888646 1.4310001 4280692526
-0.10405879 -0.0046855882 1.4300001 4280758319
-0.10288967 -0.0046888646 1.4310001 4280889905
-0.10171881 -0.004692141 1.432 4280889905
-0.10054622 -0.0046954178 1.4330001 4280889905
-0.099510483 -0.0047052475 1.4360001 4280955185
-0.098401114 -0.0047118012 1.4380001 4280954928
-0.097153142 -0.0047118012 1.4380001 4281020721
-0.096038565 -0.0047183544 1.4400001 4281086514
-0.094788857 -0.0047183544 1.4400001 4281152307
-0.093539156 -0.0047183544 1.4400001 4281152307
-0.092033096 -0.0047052475 1.4360001 4281218100
-0.090660416 -0.0046986942 1.434 4281283893
-0.07965453 -0.0044988198 1.373 4281349686
-0.078291535 -0.0044889897 1.3700001 4280955698
-0.077046297 -0.0044857133 1.3690001 4280758319
-0.07596904 -0.0044922666 1.3710001 4280758319
-0.074833758 -0.004495543 1.3720001 4280824112
-0.073750429 -0.0045020962 1.3740001 4280824110
-0.072822034 -0.0045184796 1.3790001 4280824110
-0.071677215 -0.0045217564 1.3800001 4280758317
-0.070581727 -0.0045283097 1.3820001 4280692524
-0.06963338 -0.0045446926 1.3870001 4280692524
-0.068479009 -0.0045479694 1.388 4280692524
-0.067322902 -0.0045512463 1.3890001 4280692524
-0.066355459 -0.0045676292 1.3940001 4280692524
-0.065192416 -0.0045709056 1.3950001 4280823340
-0.06402763 -0.0045741824 1.396 4280823340
-0.0630861 -0.0045938422 1.4020001 4280823340
-0.061957631 -0.0046003954 1.404 4280823340
-0.060825698 -0.0046069487 1.406 4280757547
-0.058675982 -0.0046298853 1.4130001 4281152305
-0.057490371 -0.0046331622 1.414 4281086512
-0.056303024 -0.0046364386 1.4150001 4280954926
-0.055269625 -0.0046528215 1.4200001 4280823340
-0.054113388 -0.0046593747 1.4220001 4280823340
-0.052953683 -0.004665928 1.424 4280954926
-0.051935777 -0.0046855882 1.4300001 4281218098
-0.050765652 -0.004692141 1.432 4281218098
-0.049592059 -0.0046986942 1.434 4281152307
-0.14987978 -0.0034797408 1.4410001 4279704858
-0.14862922 -0.0034797408 1.4410001 4279770650
-0.14737865 -0.0034797408 1.4410001 4279770650
-0.14551963 -0.003465252 1.4350001 4279770650
-0.1440732 -0.0034604224 1.4330001 4279836443
-0.14253056 -0.0034531779 1.4300001 4279902236
-0.14128953 -0.0034531779 1.4300001 4279902236
-0.1400485 -0.0034531779 1.4300001 4279902236
-0.13900161 -0.0034580075 1.432 4279902236
-0.13775885 -0.0034580075 1.432 4279968029
-0.13651609 -0.0034580075 1.432 4279968029
-0.12620647 -0.0034821557 1.442 4280231203
-0.12452176 -0.0034700814 1.437 4280231203
-0.12310309 -0.003465252 1.4350001 4280231203
-0.12151806 -0.0034555928 1.4310001 4280428582
-0.12027617 -0.0034555928 1.4310001 4280494375
-0.11903428 -0.0034555928 1.4310001 4280494377
-0.11787469 -0.0034580075 1.432 4280625963
-0.11663193 -0.0034580075 1.432 4280757547
-0.11546976 -0.0034604224 1.4330001 4280757547
-0.11430584 -0.0034628371 1.434 4280626216
-0.11306134 -0.0034628371 1.434 4280626216
-0.11189482 -0.003465252 1.4350001 4280692012
-0.11064946 -0.003465252 1.4350001 4280823598
-0.10940409 -0.003465252 1.4350001 4280889133
-0.10808336 -0.0034628371 1.434 4280823340
-0.10676435 -0.0034604224 1.4330001 4280691754
-0.10544709 -0.0034580075 1.432 4280626218
-0.10420433 -0.0034580075 1.432 4280757805
-0.10303348 -0.0034604224 1.4330001 4280889392
-0.10186088 -0.0034628371 1.434 4280955185
-0.10061639 -0.0034628371 1.434 4281020721
-0.099649079 -0.0034724963 1.4380001 4280954928
-0.098401114 -0.0034724963 1.4380001 4280954928
-0.097220704 -0.0034749112 1.439 4280954928
-0.094788857 -0.0034773259 1.4400001 4281086514
-0.093539156 -0.0034773259 1.4400001 4281152307
-0.091904916 -0.0034628371 1.434 4281152307
-0.090597197 -0.0034604224 1.4330001 4281152307
-0.079538502 -0.0033107041 1.3710001 4281415479
-0.078291535 -0.0033082895 1.3700001 4281086769
-0.077046297 -0.0033058745 1.3690001 4280889134
-0.07591363 -0.0033082895 1.3700001 4280823340
-0.07477922 -0.0033107041 1.3710001 4280823340
-0.073696747 -0.0033155337 1.373 4280757547
-0.072769225 -0.0033276079 1.378 4280823340
-0.07162527 -0.0033300226 1.3790001 4280889133
-0.070530653 -0.0033348522 1.381 4280823340
-0.069583178 -0.0033469263 1.386 4280757547
-0.068479009 -0.0033517557 1.388 4280823340
-0.067322902 -0.0033541706 1.3890001 4280823338
-0.066355459 -0.0033662447 1.3940001 4280757545
-0.065145679 -0.0033662447 1.3940001 4280757545
-0.063981764 -0.0033686596 1.3950001 4280757545
-0.063041098 -0.0033831485 1.401 4280757545
-0.061913505 -0.0033879781 1.4030001 4280625959
-0.060782433 -0.0033928077 1.4050001 4280691754
-0.05859293 -0.0034072965 1.411 4281152305
-0.05744971 -0.0034121261 1.4130001 4280954926
-0.056263231 -0.0034145408 1.414 4280823340
-0.055230703 -0.0034266151 1.419 4280889133
-0.054075334 -0.0034314445 1.4210001 4280954926
-0.052879307 -0.0034338594 1.4220001 4280954926
-0.051899459 -0.0034507629 1.429 4281086512
-0.050730206 -0.0034555928 1.4310001 4281218098
-0.049557477 -0.0034604224 1.4330001 4281152307
-0.14915171 -0.0022269797 1.434 4279704858
-0.14790723 -0.0022269797 1.434 4279704857
-0.14656046 -0.0022254267 1.4330001 4279770650
-0.14531682 -0.0022254267 1.4330001 4279770650
-0.14397265 -0.0022238737 1.432 4279836443
-0.14243087 -0.0022192148 1.429 4279902236
-0.14119072 -0.0022192148 1.429 4279902236
-0.13995056 -0.0022192148 1.429 4279836443
-0.13880749 -0.0022207678 1.4300001 4279836443
-0.13766265 -0.0022223208 1.4310001 4279836443
-0.13642076 -0.0022223208 1.4310001 4279902236
-0.1356512 -0.0022300857 1.4360001 4279836443
-0.13459215 -0.0022331916 1.4380001 4279902236
-0.12460841 -0.0022331916 1.4380001 4280033824
-0.12318888 -0.0022300857 1.4360001 4280033824
-0.12134822 -0.0022192148 1.429 4280231202
-0.12010806 -0.0022192148 1.429 4280231202
-0.11878473 -0.0022176618 1.4280001 4280231203
-0.11754544 -0.0022176618 1.4280001 4280296997
-0.11638759 -0.0022192148 1.429 4280428582
-0.11514743 -0.0022192148 1.429 4280428582
-0.11422613 -0.0022254267 1.4330001 4280428580
-0.11306134 -0.0022269797 1.434 4280494373
-0.11197279 -0.0022300857 1.4360001 4280560169
-0.11095788 -0.0022347446 1.439 4280625963
-0.10683886 -0.0022269797 1.434 4280560168
-0.10559437 -0.0022269797 1.434 4280560168
-0.10434987 -0.0022269797 1.434 4280691756
-0.10317728 -0.0022285327 1.4350001 4280757549
-0.10193191 -0.0022285327 1.4350001 4280823342
-0.093084447 -0.0022254267 1.4330001 4280889135
-0.091776729 -0.0022238737 1.432 4280954928
-0.090407528 -0.0022207678 1.4300001 4280954928
-0.079480492 -0.0021275887 1.3700001 4281349686
-0.078234382 -0.0021260357 1.3690001 4281152306
-0.076990016 -0.0021244828 1.368 4280889133
-0.075858213 -0.0021260357 1.3690001 4280823340
-0.07477922 -0.0021291417 1.3710001 4280823340
-0.073643073 -0.0021306947 1.3720001 4280757547
-0.072716422 -0.0021384596 1.3770001 4280757547
-0.07162527 -0.0021415656 1.3790001 4280889133
-0.070479587 -0.0021431188 1.3800001 4280823340
-0.069583178 -0.0021524364 1.386 4280691754
-0.068429679 -0.0021539896 1.3870001 4280757547
-0.067322902 -0.0021570954 1.3890001 4280757545
-0.066307865 -0.0021633073 1.393 4280757545
-0.065145679 -0.0021648605 1.3940001 4280757545
-0.063981764 -0.0021664135 1.3950001 4280691752
-0.062996097 -0.0021741784 1.4000001 4280691752
-0.061869375 -0.0021772843 1.4020001 4280691752
-0.060739171 -0.0021803901 1.404 4280691754
-0.058551405 -0.0021897082 1.4100001 4281020719
-0.057409056 -0.0021928141 1.4120001 4280954926
-0.056223441 -0.0021943669 1.4130001 4280823340
-0.055191781 -0.002202132 1.4180001 4280889133
-0.05403728 -0.0022052377 1.4200001 4280889133
-0.052842122 -0.002206791 1.4210001 4280889133
-0.05182682 -0.0022161088 1.427 4281020719
-0.050694752 -0.0022207678 1.4300001 4281218098
-0.049453728 -0.0022207678 1.4300001 4281218100
-0.14883968 -0.00098904886 1.4310001 4279770651
-0.14770094 -0.00098974002 1.432 4279704857
-0.14656046 -0.00099043117 1.4330001 4279770650
-0.14531682 -0.00099043117 1.4330001 4279770650
-0.1440732 -0.00099043117 1.4330001 4279836443
-0.14282957 -0.00099043117 1.4330001 4279968029
-0.14148714 -0.00098974002 1.432 4279902236
-0.14024436 -0.00098974002 1.432 4279836443
-0.13900161 -0.00098974002 1.432 4279770650
-0.13775885 -0.00098974002 1.432 4279770650
-0.13651609 -0.00098974002 1.432 4279770650
-0.13574566 -0.0009931958 1.437 4279770650
-0.13459215 -0.00099388696 1.4380001 4279836443
-0.12460841 -0.00099388696 1.4380001 4279902238
-0.12318888 -0.00099250465 1.4360001 4279968031
-0.12151806 -0.00098904886 1.4310001 4280033823
-0.12019212 -0.00098835758 1.4300001 4280099615
-0.1189511 -0.00098835758 1.4300001 4280099617
-0.11771007 -0.00098835758 1.4300001 4280165410
-0.11646905 -0.00098835758 1.4300001 4280231202
-0.11522802 -0.00098835758 1.4300001 4280231202
-0.11430584 -0.00099112233 1.434 4280296994
-0.11314019 -0.00099181349 1.4350001 4280428580
-0.11205077 -0.0009931958 1.437 4280428582
-0.093084447 -0.00099043117 1.4330001 4280757547
-0.091776729 -0.00098974002 1.432 4280757548
-0.090470754 -0.00098904886 1.4310001 4280889133
-0.08066944 -0.00094688818 1.3700001 4281152305
-0.079422474 -0.00094619702 1.3690001 4281283891
-0.078177236 -0.0009455058 1.368 4281152305
-0.076933742 -0.00094481464 1.3670001 4280889133
-0.075802803 -0.0009455058 1.368 4280691754
-0.074670129 -0.00094619702 1.3690001 4280757547
-0.073589399 -0.00094757928 1.3710001 4280757547
-0.072716422 -0.00095172628 1.3770001 4280823340
-0.07162527 -0.00095310854 1.3790001 4280823340
-0.070530653 -0.00095449091 1.381 4280823340
-0.069683582 -0.00095932902 1.388 4280757547
-0.068528347 -0.00096002017 1.3890001 4280757547
-0.067419842 -0.00096140243 1.391 4280757545
-0.066403069 -0.00096416712 1.3950001 4280823338
-0.065239154 -0.00096485828 1.396 4280757545
-0.06402763 -0.00096485828 1.396 4280691752
-0.062996097 -0.00096762291 1.4000001 4280625959
-0.061825242 -0.00096831413 1.401 4280691752
-0.060652651 -0.00096900528 1.4020001 4280691754
-0.059647892 -0.00097246101 1.4070001 4280823340
-0.058468353 -0.00097315217 1.4080001 4280823340
-0.057287082 -0.00097384339 1.409 4280823340
-0.055036094 -0.00097729906 1.414 4280889133
-0.053885065 -0.00097868149 1.416 4280889133
-0.052693374 -0.00097937265 1.4170001 4280823340
-0.05175418 -0.00098490191 1.4250001 4280954926
-0.050623853 -0.00098697538 1.4280001 4281218098
-0.049453728 -0.00098835758 1.4300001 4281283893
-0.14976694 0.00024371107 1.4280001 4279770650
-0.14863166 0.00024388173 1.429 4279770650
-0.14749466 0.0002440524 1.4300001 4279770650
-0.14656046 0.00024456441 1.4330001 4279770650
-0.14531682 0.00024456441 1.4330001 4279836443
-0.14417374 0.00024473507 1.434 4279902236
-0.14292924 0.00024473507 1.434 4279902236
-0.14168474 0.00024473507 1.434 4279770650
-0.14044024 0.00024473507 1.434 4279704857
-0.13919576 0.00024473507 1.434 4279770650
-0.13795125 0.00024473507 1.434 4279770650
-0.13670675 0.00024473507 1.434 4279770650
-0.12160297 0.00024439374 1.432 4279968031
-0.12036021 0.00024439374 1.432 4280033822
-0.11903428 0.00024422308 1.4310001 4280099616
-0.11779238 0.00024422308 1.4310001 4280165410
-0.11655049 0.00024422308 1.4310001 4280165409
-0.1153086 0.00024422308 1.4310001 4280165408
-0.11438555 0.00024490574 1.4350001 4280231201
-0.093149409 0.00024473507 1.434 4280757547
-0.091776729 0.00024439374 1.432 4280823340
-0.090470754 0.00024422308 1.4310001 4280889133
-0.08066944 0.00023381245 1.3700001 4281020719
-0.079422474 0.00023364178 1.3690001 4281283891
-0.078177236 0.0002334711 1.368 4281152305
-0.076933742 0.00023330044 1.3670001 4280823340
-0.075802803 0.0002334711 1.368 4280560168
-0.074670129 0.00023364178 1.3690001 4280691754
-0.073589399 0.00023398311 1.3710001 4280757547
-0.072769225 0.00023517777 1.378 4280823340
-0.071677215 0.0002355191 1.3800001 4280823340
-0.070581727 0.00023586044 1.3820001 4280823340
-0.069733791 0.00023705509 1.3890001 4280823340
-0.068577684 0.00023722576 1.3900001 4280691754
-0.067468308 0.00023756709 1.3920001 4280691752
-0.06645067 0.00023824976 1.396 4280757545
-0.065239154 0.00023824976 1.396 4280823338
-0.064073496 0.00023842043 1.3970001 4280757545
-0.062996097 0.00023893242 1.4000001 4280691752
-0.061825242 0.00023910309 1.401 4280625959
-0.060652651 0.00023927375 1.4020001 4280691752
-0.059563104 0.00023978575 1.4050001 4280691752
-0.058426827 0.00024012709 1.4070001 4280691754
-0.057205763 0.00024012709 1.4070001 4280691754
-0.054997172 0.00024115108 1.4130001 4280954926
-0.053847011 0.00024149241 1.4150001 4280954926
-0.052693374 0.00024183374 1.4170001 4280889133
-0.05175418 0.00024319907 1.4250001 4280954926
-0.050623853 0.00024371107 1.4280001 4281152305
-0.049488313 0.00024422308 1.4310001 4281349686
-0.15283991 0.0014682026 1.4220001 4279770653
-0.15139259 0.0014661376 1.4200001 4279836445
-0.15005451 0.0014651051 1.419 4279704858
-0.14892791 0.0014661376 1.4200001 4279704857
-0.14790359 0.0014682026 1.4220001 4279704857
-0.1468758 0.0014702675 1.424 4279704857
-0.14625363 0.0014764626 1.4300001 4279770650
-0.14521541 0.0014785274 1.432 4279836443
-0.14417374 0.0014805924 1.434 4279836443
-0.13929282 0.001481625 1.4350001 4279770650
-0.13795125 0.0014805924 1.434 4279770650
-0.13670675 0.0014805924 1.434 4279770650
-0.13555673 0.001481625 1.4350001 4279770650
-0.13431136 0.001481625 1.4350001 4279770650
-0.12293153 0.0014795599 1.4330001 4279836446
-0.12143315 0.0014764626 1.4300001 4279902237
-0.12010806 0.00147543 1.429 4279902237
-0.1188679 0.00147543 1.429 4279968031
-0.11762775 0.00147543 1.429 4280033824
-0.11638759 0.00147543 1.429 4280033822
-0.11514743 0.00147543 1.429 4280033822
-0.11430584 0.0014805924 1.434 4280033822
-0.08072833 0.0014155456 1.3710001 4280889133
-0.079422474 0.0014134805 1.3690001 4281218098
-0.078177236 0.001412448 1.368 4281152305
-0.076933742 0.0014114155 1.3670001 4280823340
-0.075802803 0.001412448 1.368 4280625961
-0.074670129 0.0014134805 1.3690001 4280691754
-0.073589399 0.0014155456 1.3710001 4280823340
-0.072769225 0.0014227729 1.378 4280757547
-0.071677215 0.001424838 1.3800001 4280757547
-0.070581727 0.0014269029 1.3820001 4280757547
-0.069783993 0.0014351628 1.3900001 4280691753
-0.068627015 0.0014361953 1.391 4280625959
-0.067516781 0.0014382603 1.393 4280625959
-0.06645067 0.0014413578 1.396 4280691752
-0.065285876 0.0014423903 1.3970001 4280757545
-0.064073496 0.0014423903 1.3970001 4280757545
-0.062996097 0.0014454877 1.4000001 4280625959
-0.061781112 0.0014454877 1.4000001 4280560166
-0.060609385 0.0014465202 1.401 4280625959
-0.05952071 0.0014496177 1.404 4280691752
-0.05830225 0.0014496177 1.404 4280625961
-0.057124451 0.0014506502 1.4050001 4280560168
-0.056143861 0.0014568452 1.411 4280691754
-0.054997172 0.0014589102 1.4130001 4281020719
-0.053847011 0.0014609752 1.4150001 4281086512
-0.051717862 0.0014702675 1.424 4280954926
-0.050588399 0.001473365 1.427 4281218098
-0.049453728 0.0014764626 1.4300001 4281415479
-0.15262495 0.0026899294 1.4200001 4279836445
-0.15128599 0.0026880351 1.419 4279770652
-0.14984301 0.0026842465 1.4170001 4279704858
-0.14882304 0.0026880351 1.419 4279639064
-0.14779957 0.0026918238 1.4210001 4279639064
-0.14677264 0.0026956124 1.4230001 4279704857
-0.14615135 0.0027069785 1.429 4279704857
-0.1450126 0.0027088725 1.4300001 4279770650
-0.1440732 0.0027145555 1.4330001 4279770650
-0.13785505 0.0027145555 1.4330001 4279704857
-0.13661143 0.0027145555 1.4330001 4279704857
-0.13536781 0.0027145555 1.4330001 4279704857
-0.13412417 0.0027145555 1.4330001 4279704857
-0.12408849 0.0027126612 1.432 4279968031
-0.12258837 0.0027069785 1.429 4279902238
-0.12109346 0.0027012953 1.4260001 4279968029
-0.11985591 0.0027012953 1.4260001 4279902236
-0.11861835 0.0027012953 1.4260001 4279902238
-0.11738081 0.0027012953 1.4260001 4279902238
-0.11622471 0.0027031896 1.427 4279902236
-0.11498629 0.0027031896 1.427 4279902236
-0.11414641 0.0027126612 1.432 4279968029
-0.080433905 0.0025876365 1.3660001 4280691752
-0.079248428 0.0025876365 1.3660001 4281086510
-0.078005798 0.0025857422 1.365 4281152305
-0.076821178 0.0025857422 1.365 4280889133
-0.075691983 0.0025876365 1.3660001 4280757547
-0.074561045 0.0025895308 1.3670001 4280757547
-0.073428363 0.0025914251 1.368 4280823340
-0.072663613 0.0026065796 1.376 4280757547
-0.071573332 0.0026103682 1.378 4280757545
-0.070530653 0.0026160511 1.381 4280823338
-0.069683582 0.0026293115 1.388 4280625959
-0.068577684 0.0026330999 1.3900001 4280625959
-0.067419842 0.0026349942 1.391 4280625959
-0.066403069 0.0026425715 1.3950001 4280691752
-0.065239154 0.0026444658 1.396 4280691752
-0.06402763 0.0026444658 1.396 4280625959
-0.06295111 0.0026501487 1.399 4280625959
-0.061781112 0.002652043 1.4000001 4280560166
-0.060609385 0.0026539373 1.401 4280625961
-0.05947832 0.0026577259 1.4030001 4280625961
-0.05830225 0.0026596205 1.404 4280560168
-0.057124451 0.0026615148 1.4050001 4280428582
-0.056104071 0.0026709861 1.4100001 4280691754
-0.05495825 0.0026747747 1.4120001 4281020719
-0.053808954 0.0026785636 1.414 4281152305
-0.051717862 0.0026975067 1.424 4280889135
-0.050588399 0.0027031896 1.427 4281152307
-0.15240997 0.003908209 1.4180001 4279836445
-0.15107276 0.0039054528 1.4170001 4279836444
-0.14963152 0.0038999405 1.4150001 4279704858
-0.14871815 0.003908209 1.4180001 4279639064
-0.14769556 0.0039137215 1.4200001 4279639064
-0.14666951 0.0039192336 1.4220001 4279704857
-0.1459468 0.0039330143 1.427 4279704857
-0.14491118 0.0039385268 1.429 4279704857
-0.14387211 0.0039440389 1.4310001 4279704857
-0.13517886 0.0039440389 1.4310001 4279639064
-0.13269509 0.0039440389 1.4310001 4279704857
-0.1314532 0.0039440389 1.4310001 4279704857
-0.13021131 0.0039440389 1.4310001 4279770650
-0.12896942 0.0039440389 1.4310001 4279836443
-0.12374188 0.0039357701 1.4280001 4279968030
-0.12233102 0.0039302581 1.4260001 4279968031
-0.12083871 0.0039219894 1.4230001 4280033822
-0.11960376 0.0039219894 1.4230001 4279968029
-0.11836881 0.0039219894 1.4230001 4279968030
-0.11721618 0.0039247461 1.424 4279902238
-0.11606181 0.0039275023 1.4250001 4279836444
-0.11482512 0.0039275023 1.4250001 4279902236
-0.113987 0.0039412826 1.4300001 4279968029
-0.080316149 0.0037593772 1.3640001 4280560166
-0.0791324 0.0037593772 1.3640001 4280954924
-0.077891506 0.0037566214 1.363 4281086510
-0.076652341 0.0037538649 1.3620001 4280954924
-0.075636566 0.0037621337 1.365 4280823338
-0.074506499 0.0037648894 1.3660001 4280823338
-0.073374696 0.0037676457 1.3670001 4280889131
-0.072610803 0.0037896947 1.3750001 4280823338
-0.071521394 0.0037952075 1.3770001 4280823338
-0.070479587 0.0038034755 1.3800001 4280823338
-0.06963338 0.0038227686 1.3870001 4280691752
-0.068528347 0.0038282808 1.3890001 4280625959
-0.067371376 0.0038310371 1.3900001 4280625959
-0.066355459 0.0038420616 1.3940001 4280691752
-0.065192416 0.0038448179 1.3950001 4280691752
-0.06402763 0.0038475737 1.396 4280625959
-0.06295111 0.0038558424 1.399 4280625959
-0.061736986 0.0038558424 1.399 4280691752
-0.060566124 0.0038585986 1.4000001 4280691754
-0.05947832 0.0038668667 1.4030001 4280625961
-0.05830225 0.0038696232 1.404 4280494375
-0.057083789 0.0038696232 1.404 4280428582
-0.056104071 0.0038861597 1.4100001 4280625963
-0.05495825 0.003891672 1.4120001 4281020721
-0.0537709 0.0038944283 1.4130001 4281086514
-0.051645227 0.0039192336 1.4220001 4280823342
-0.050517496 0.0039275023 1.4250001 4281020721
-0.1560726 0.0051700748 1.429 4279836702
-0.154074 0.0051447493 1.4220001 4279836445
-0.15219502 0.0051230411 1.416 4279836443
-0.15085952 0.0051194234 1.4150001 4279836443
-0.14952578 0.0051158052 1.414 4279770650
-0.14861327 0.0051266593 1.4170001 4279704857
-0.14759156 0.0051338952 1.419 4279639064
-0.14646322 0.0051375134 1.4200001 4279704857
-0.14563999 0.0051519852 1.424 4279704857
-0.14450556 0.0051556029 1.4250001 4279704857
-0.14336942 0.0051592207 1.4260001 4279639064
-0.13747025 0.0051700748 1.429 4279770650
-0.13613477 0.0051664566 1.4280001 4279704857
-0.13470654 0.0051592207 1.4260001 4279639064
-0.13346899 0.0051592207 1.4260001 4279639064
-0.13223144 0.0051592207 1.4260001 4279704857
-0.13081017 0.0051519852 1.424 4279770650
-0.12939237 0.0051447493 1.4220001 4279836443
-0.12797803 0.0051375134 1.4200001 4279902236
-0.12683493 0.0051411311 1.4210001 4279770650
-0.12560172 0.0051411311 1.4210001 4279770650
-0.12428099 0.0051375134 1.4200001 4279836443
-0.12287533 0.0051302775 1.4180001 4279902236
-0.12155894 0.0051266593 1.4170001 4279902237
-0.12024429 0.0051230411 1.416 4279968029
-0.11901541 0.0051230411 1.416 4279902236
-0.11778653 0.0051230411 1.416 4279902238
-0.11680461 0.0051338952 1.419 4279902238
-0.11565457 0.0051375134 1.4200001 4279836444
-0.1145028 0.0051411311 1.4210001 4279902236
-0.11374786 0.0051628388 1.427 4279968029
-0.10333111 0.0051375134 1.4200001 4279902238
-0.10209876 0.0051375134 1.4200001 4279968031
-0.10086642 0.0051375134 1.4200001 4280033824
-0.099914737 0.0051519852 1.424 4279968031
-0.098817512 0.0051592207 1.4260001 4279836445
-0.080080613 0.0049204351 1.36 4280428580
-0.07884232 0.0049168169 1.3590001 4280823338
-0.077662915 0.0049168169 1.3590001 4281152303
-0.076483503 0.0049168169 1.3590001 4280954924
-0.075525746 0.0049312892 1.363 4280823338
-0.074397415 0.004934907 1.3640001 4280823338
-0.073321015 0.0049421429 1.3660001 4280954924
-0.072558001 0.0049710865 1.3740001 4280954924
-0.071469456 0.0049783224 1.376 4280823338
-0.070377432 0.0049855583 1.378 4280757545
-0.069532968 0.0050108843 1.3850001 4280691752
-0.068429679 0.0050181202 1.3870001 4280494373
-0.067322902 0.0050253561 1.3890001 4280494373
-0.066307865 0.0050398284 1.393 4280625959
-0.065145679 0.0050434461 1.3940001 4280691752
-0.063981764 0.0050470643 1.3950001 4280691752
-0.06295111 0.0050615356 1.399 4280691752
-0.061781112 0.0050651538 1.4000001 4280823338
-0.060609385 0.0050687715 1.401 4280757547
-0.059563104 0.0050832434 1.4050001 4280625961
-0.058385305 0.0050868616 1.406 4280428582
-0.057205763 0.0050904793 1.4070001 4280428582
-0.056064282 0.0050977156 1.409 4280691756
-0.054919325 0.0051049516 1.411 4280954928
-0.053732846 0.0051085693 1.4120001 4281086514
-0.15585417 0.0063926638 1.427 4279836446
-0.154074 0.0063702646 1.4220001 4279770652
-0.15219502 0.0063433857 1.416 4279704858
-0.15096615 0.0063433857 1.416 4279704857
-0.14963152 0.006338906 1.4150001 4279704857
-0.14861327 0.0063478653 1.4170001 4279704857
-0.14759156 0.0063568251 1.419 4279639064
-0.14646322 0.0063613052 1.4200001 4279639064
-0.14574225 0.006383704 1.4250001 4279639064
-0.14460696 0.0063881837 1.4260001 4279639064
-0.14346996 0.0063926638 1.427 4279639064
-0.1359441 0.0063881837 1.4260001 4279639064
-0.13461208 0.006383704 1.4250001 4279573271
-0.13337541 0.006383704 1.4250001 4279639064
-0.13213871 0.006383704 1.4250001 4279704857
-0.13062644 0.0063702646 1.4220001 4279770650
-0.12911938 0.0063568251 1.419 4279836443
-0.12779777 0.0063523455 1.4180001 4279836444
-0.12656717 0.0063523455 1.4180001 4279836444
-0.12542495 0.0063568251 1.419 4279836445
-0.12401842 0.0063478653 1.4170001 4279836444
-0.12278868 0.0063478653 1.4170001 4279770653
-0.12147316 0.0063433857 1.416 4279836445
-0.12015936 0.006338906 1.4150001 4279902238
-0.11893135 0.006338906 1.4150001 4279902236
-0.11770335 0.006338906 1.4150001 4279836445
-0.11672229 0.0063523455 1.4180001 4279836445
-0.11565457 0.0063613052 1.4200001 4279770652
-0.1145028 0.0063657844 1.4210001 4279902237
-0.10325835 0.0063568251 1.419 4279902238
-0.10202687 0.0063568251 1.419 4279902238
-0.1007954 0.0063568251 1.419 4279968030
-0.099774405 0.0063702646 1.4220001 4279902236
-0.098748215 0.006383704 1.4250001 4279836445
-0.080021724 0.0060880375 1.3590001 4280231201
-0.07884232 0.0060880375 1.3590001 4280757545
-0.077605769 0.0060835578 1.358 4281086510
-0.076427229 0.0060835578 1.358 4281086510
-0.075470336 0.006101477 1.3620001 4280823338
-0.074397415 0.0061104363 1.3640001 4280823338
-0.073321015 0.0061193961 1.3660001 4280954924
-0.072558001 0.0061552348 1.3740001 4280889131
-0.071469456 0.0061641941 1.376 4280757545
-0.070377432 0.0061731534 1.378 4280625959
-0.069583178 0.0062089921 1.386 4280494373
-0.068429679 0.0062134718 1.3870001 4280428580
-0.067322902 0.0062224311 1.3890001 4280494375
-0.066307865 0.0062403507 1.393 4280625961
-0.065145679 0.0062448303 1.3940001 4280757547
-0.063981764 0.0062493104 1.3950001 4280757547
-0.06295111 0.0062672296 1.399 4280757549
-0.061825242 0.0062761889 1.401 4280757549
-0.060652651 0.006280669 1.4020001 4280691754
-0.059605502 0.0062985881 1.406 4280494375
-0.058385305 0.0062985881 1.406 4280362789
-0.057205763 0.0063030673 1.4070001 4280494375
-0.056104071 0.0063165068 1.4100001 4280691754
-0.054919325 0.0063209869 1.411 4280889133
-0.053732846 0.0063254666 1.4120001 4281020719
-0.15574494 0.0076171462 1.4260001 4279836447
-0.15396564 0.0075904382 1.4210001 4279770653
-0.1523025 0.0075690718 1.4170001 4279704859
-0.15096615 0.0075637302 1.416 4279704859
-0.14963152 0.0075583882 1.4150001 4279704858
-0.14871815 0.0075744139 1.4180001 4279704857
-0.14759156 0.0075797555 1.419 4279639064
-0.14656636 0.0075904382 1.4210001 4279573271
-0.14574225 0.0076118046 1.4250001 4279507478
-0.14460696 0.0076171462 1.4260001 4279573271
-0.13451762 0.007606463 1.424 4279639064
-0.13328181 0.007606463 1.424 4279639064
-0.13195325 0.0076011219 1.4230001 4279704857
-0.13035086 0.0075797555 1.419 4279704857
-0.12893739 0.0075690718 1.4170001 4279770650
-0.1275274 0.0075583882 1.4150001 4279836444
-0.12638865 0.0075637302 1.416 4279836445
-0.12515979 0.0075637302 1.416 4279836445
-0.12384338 0.0075583882 1.4150001 4279770652
-0.12261537 0.0075583882 1.4150001 4279704861
-0.12130158 0.0075530475 1.414 4279770654
-0.12007444 0.0075530475 1.414 4279836445
-0.1188473 0.0075530475 1.414 4279836445
-0.11770335 0.0075583882 1.4150001 4279770652
-0.11672229 0.0075744139 1.4180001 4279704859
-0.11557313 0.0075797555 1.419 4279704859
-0.11442222 0.0075850966 1.4200001 4279770652
-0.10318558 0.0075744139 1.4180001 4279902238
-0.10195497 0.0075744139 1.4180001 4279902238
-0.10058229 0.0075637302 1.416 4279902236
-0.099563912 0.0075797555 1.419 4279902236
-0.098540328 0.0075957803 1.4220001 4279902236
-0.07996285 0.0072539165 1.358 4280099615
-0.078784309 0.0072539165 1.358 4280625959
-0.077605769 0.0072539165 1.358 4281020717
-0.076370947 0.0072485749 1.3570001 4281020717
-0.075470336 0.0072752829 1.3620001 4280823338
-0.074397415 0.0072859665 1.3640001 4280757545
-0.073321015 0.0072966493 1.3660001 4280889131
-0.072558001 0.0073393821 1.3740001 4280823338
-0.071469456 0.0073500657 1.376 4280691752
-0.070428506 0.0073660901 1.3790001 4280625959
-0.069583178 0.0074034818 1.386 4280625959
-0.068479009 0.007414165 1.388 4280494373
-0.067322902 0.0074195066 1.3890001 4280494375
-0.066307865 0.007440873 1.393 4280560168
-0.065145679 0.0074462146 1.3940001 4280691754
-0.063981764 0.0074515566 1.3950001 4280691754
-0.062996097 0.0074782646 1.4000001 4280691754
-0.061825242 0.0074836067 1.401 4280757547
-0.060652651 0.0074889474 1.4020001 4280691754
-0.059647892 0.0075156554 1.4070001 4280560168
-0.058468353 0.0075209974 1.4080001 4280494375
-0.057287082 0.007526339 1.409 4280494375
-0.056143861 0.0075370218 1.411 4280691754
-0.05495825 0.0075423638 1.4120001 4280823340
-0.0537709 0.0075477054 1.4130001 4280889133
-0.15208752 0.0087778708 1.4150001 4279770653
-0.15085952 0.0087778708 1.4150001 4279704859
-0.14963152 0.0087778708 1.4150001 4279770651
-0.14861327 0.0087902779 1.4170001 4279770650
-0.14748754 0.0087964823 1.4180001 4279639064
-0.14646322 0.0088088885 1.4200001 4279507478
-0.14563999 0.0088337017 1.424 4279441685
-0.13698927 0.0088337017 1.424 4279704857
-0.13423422 0.008815092 1.4210001 4279639064
-0.13290741 0.0088088885 1.4200001 4279704857
-0.13130416 0.0087840743 1.416 4279704857
-0.12989156 0.0087716682 1.414 4279704857
-0.12848243 0.0087592611 1.4120001 4279770650
-0.12698665 0.0087406514 1.409 4279836444
-0.12567459 0.008734447 1.4080001 4279836445
-0.12445267 0.008734447 1.4080001 4279836445
-0.12314321 0.0087282434 1.4070001 4279770652
-0.12183549 0.0087220399 1.406 4279770652
-0.12061529 0.0087220399 1.406 4279770652
-0.11948002 0.0087282434 1.4070001 4279770652
-0.11825896 0.0087282434 1.4070001 4279770652
-0.11720425 0.0087406514 1.409 4279770652
-0.11622839 0.0087592611 1.4120001 4279704859
-0.11508445 0.0087654646 1.4130001 4279704859
-0.11401933 0.0087778708 1.4150001 4279770652
-0.10941574 0.0088026859 1.419 4279770652
-0.1082605 0.0088088885 1.4200001 4279770650
-0.1071789 0.0088212956 1.4220001 4279836443
-0.10594481 0.0088212956 1.4220001 4279902236
-0.10456346 0.0088088885 1.4200001 4279902236
-0.10311281 0.0087902779 1.4170001 4279836444
-0.10188306 0.0087902779 1.4170001 4279770651
-0.10058229 0.0087840743 1.416 4279902236
-0.099493749 0.0087964823 1.4180001 4279902236
-0.098401725 0.0088088885 1.4200001 4279968029
-0.09723781 0.008815092 1.4210001 4279902236
-0.084297791 0.0085049197 1.3710001 4279704859
-0.082926109 0.00848631 1.368 4279770652
-0.081559636 0.0084676994 1.365 4279704859
-0.079903968 0.008418072 1.3570001 4280033823
-0.078726292 0.008418072 1.3570001 4280494374
-0.077548623 0.008418072 1.3570001 4280889132
-0.076370947 0.008418072 1.3570001 4281020717
-0.075525746 0.0084552923 1.363 4280823338
-0.074451953 0.0084676994 1.365 4280823338
-0.073428363 0.00848631 1.368 4280889131
-0.072663613 0.0085359374 1.376 4280889131
-0.071573332 0.0085483445 1.378 4280823338
-0.070530653 0.0085669542 1.381 4280757545
-0.06963338 0.0086041754 1.3870001 4280625959
-0.068528347 0.0086165816 1.3890001 4280560166
-0.067371376 0.0086227851 1.3900001 4280494375
-0.066355459 0.0086475993 1.3940001 4280560168
-0.065192416 0.0086538028 1.3950001 4280625961
-0.063981764 0.0086538028 1.3950001 4280625961
-0.063041098 0.008691024 1.401 4280625961
-0.061913505 0.0087034302 1.4030001 4280625961
-0.060782433 0.0087158373 1.4050001 4280560168
-0.058551405 0.008746855 1.4100001 4280494375
-0.057409056 0.0087592611 1.4120001 4280560168
-0.056223441 0.0087654646 1.4130001 4280625961
-0.055230703 0.0088026859 1.419 4280625961
-0.15187258 0.0099832239 1.4130001 4279770653
-0.1506463 0.0099832239 1.4130001 4279704859
-0.14942004 0.0099832239 1.4130001 4279704858
-0.1485084 0.010004419 1.416 4279704857
-0.14738353 0.010011485 1.4170001 4279639064
-0.14636008 0.010025616 1.419 4279507478
-0.14420134 0.010046811 1.4220001 4279573271
-0.13423422 0.010039746 1.4210001 4279704857
-0.13290741 0.01003268 1.4200001 4279704857
-0.1311187 0.0099902889 1.414 4279704857
-0.12979969 0.0099832239 1.4130001 4279770650
-0.12839143 0.0099690929 1.411 4279836443
-0.12680641 0.0099408319 1.4070001 4279902237
-0.12558535 0.0099408319 1.4070001 4279836445
-0.12427588 0.009933766 1.406 4279836445
-0.12288065 0.009919636 1.404 4279836445
-0.12166218 0.009919636 1.404 4279836445
-0.12044373 0.009919636 1.404 4279836445
-0.11922527 0.009919636 1.404 4279770652
-0.11809085 0.0099267019 1.4050001 4279770652
-0.11695471 0.009933766 1.406 4279770652
-0.11598145 0.0099549629 1.409 4279704859
-0.11492155 0.0099690929 1.411 4279704859
-0.11377759 0.0099761579 1.4120001 4279770652
-0.10926152 0.010011485 1.4170001 4279770650
-0.10810802 0.01001855 1.4180001 4279770650
-0.10695278 0.010025616 1.419 4279836443
-0.1057958 0.01003268 1.4200001 4279902236
-0.10448983 0.010025616 1.419 4279902236
-0.10318558 0.01001855 1.4180001 4279770650
-0.10195497 0.01001855 1.4180001 4279704857
-0.10072435 0.01001855 1.4180001 4279836443
-0.099563912 0.010025616 1.419 4279902236
-0.098401725 0.01003268 1.4200001 4279968029
-0.084297791 0.0096864821 1.3710001 4279704859
-0.082926109 0.0096652871 1.368 4279836445
-0.081559636 0.0096440902 1.365 4279770652
-0.07996285 0.0095946342 1.358 4279968031
-0.078784309 0.0095946342 1.358 4280296996
-0.077605769 0.0095946342 1.358 4280823338
-0.076427229 0.0095946342 1.358 4281020717
-0.075525746 0.0096299602 1.363 4280889131
-0.074506499 0.0096511561 1.3660001 4280889131
-0.073428363 0.0096652871 1.368 4280954924
-0.072716422 0.0097288741 1.3770001 4280954924
-0.07162527 0.0097430041 1.3790001 4280823338
-0.070530653 0.0097571351 1.381 4280691752
-0.069683582 0.009806592 1.388 4280560166
-0.068528347 0.009813657 1.3890001 4280560166
-0.067371376 0.009820722 1.3900001 4280494375
-0.066355459 0.009848983 1.3940001 4280494375
-0.065192416 0.009856049 1.3950001 4280560168
-0.06402763 0.009863114 1.396 4280560168
-0.0630861 0.009905505 1.4020001 4280560168
-0.061957631 0.009919636 1.404 4280494375
-0.060825698 0.009933766 1.406 4280428582
-0.05859293 0.0099690929 1.411 4280494375
-0.057409056 0.0099761579 1.4120001 4280625961
-0.056223441 0.0099832239 1.4130001 4280625961
-0.15165761 0.011185128 1.411 4279770653
-0.15043306 0.011185128 1.411 4279704859
-0.14920853 0.011185128 1.411 4279639065
-0.14840351 0.011216836 1.4150001 4279573271
-0.14717551 0.011216836 1.4150001 4279573271
-0.14615379 0.011232691 1.4170001 4279573271
-0.13413976 0.011256472 1.4200001 4279704857
-0.13272022 0.011240618 1.4180001 4279704857
-0.1311187 0.01120891 1.414 4279704857
-0.12970783 0.011193056 1.4120001 4279770651
-0.12830044 0.011177202 1.4100001 4279836444
-0.12671627 0.011145493 1.406 4279836445
-0.12540682 0.011137567 1.4050001 4279836445
-0.12409911 0.011129639 1.404 4279836445
-0.1227056 0.011113784 1.4020001 4279836445
-0.12148888 0.011113784 1.4020001 4279836445
-0.12018637 0.011105858 1.401 4279836445
-0.11897051 0.011105858 1.401 4279770652
-0.1178387 0.011113784 1.4020001 4279770652
-0.11670516 0.011121712 1.4030001 4279704859
-0.11573451 0.011145493 1.406 4279704859
-0.11467721 0.011161347 1.4080001 4279704859
-0.11353586 0.011169274 1.409 4279770652
-0.10910731 0.011216836 1.4150001 4279704857
-0.10803178 0.011232691 1.4170001 4279770650
-0.10680203 0.011232691 1.4170001 4279770650
-0.1056468 0.011240618 1.4180001 4279836443
-0.10441618 0.011240618 1.4180001 4279902236
-0.10318558 0.011240618 1.4180001 4279836443
-0.084297791 0.010868045 1.3710001 4279770652
-0.082926109 0.010844263 1.368 4279836445
-0.081559636 0.010820482 1.365 4279770652
-0.080021724 0.01077292 1.3590001 4279902238
-0.078784309 0.010764993 1.358 4280231203
-0.077605769 0.010764993 1.358 4280823339
-0.076427229 0.010764993 1.358 4280954926
-0.075581163 0.010812555 1.3640001 4280889133
-0.074561045 0.010836337 1.3670001 4280889133
-0.073535718 0.010860117 1.3700001 4281020717
-0.072769225 0.010923535 1.378 4281020717
-0.071677215 0.010939389 1.3800001 4280823340
-0.070581727 0.010955243 1.3820001 4280560168
-0.069683582 0.011002805 1.388 4280494375
-0.068479009 0.011002805 1.388 4280560168
-0.067371376 0.01101866 1.3900001 4280494375
-0.066355459 0.011050368 1.3940001 4280428582
-0.065239154 0.011066223 1.396 4280428582
-0.064073496 0.011074149 1.3970001 4280560168
-0.063131101 0.011121712 1.4030001 4280560168
-0.062001761 0.011137567 1.4050001 4280560168
-0.060868952 0.01115342 1.4070001 4280362789
-0.05863446 0.011193056 1.4120001 4280494375
-0.05744971 0.011200983 1.4130001 4280625961
-0.056263231 0.01120891 1.414 4280625961
-0.15090524 0.012339641 1.404 4279770652
-0.14958015 0.012330852 1.4030001 4279704859
-0.14836256 0.012330852 1.4030001 4279639065
-0.14766936 0.012374797 1.4080001 4279573271
-0.14665546 0.012392376 1.4100001 4279573271
-0.14563806 0.012409952 1.4120001 4279573271
-0.14482178 0.012445108 1.416 4279639064
-0.1436943 0.012453898 1.4170001 4279704857
-0.1425651 0.012462687 1.4180001 4279704857
-0.13272022 0.012462687 1.4180001 4279770650
-0.13102597 0.012418742 1.4130001 4279770650
-0.12961598 0.012401164 1.411 4279704859
-0.12820944 0.012383587 1.409 4279770652
-0.12644589 0.012330852 1.4030001 4279770652
-0.12496053 0.012304486 1.4000001 4279704859
-0.12356877 0.012286908 1.3980001 4279770652
-0.12200543 0.012251752 1.3940001 4279836445
-0.12079564 0.012251752 1.3940001 4279770652
-0.11975744 0.01226933 1.396 4279836445
-0.11863083 0.012278119 1.3970001 4279770652
-0.1175025 0.012286908 1.3980001 4279704859
-0.1165388 0.012313275 1.401 4279704859
-0.11532294 0.012313275 1.401 4279770652
-0.11418853 0.012322064 1.4020001 4279770652
-0.11321354 0.01234843 1.4050001 4279770652
-0.11207393 0.012357219 1.406 4279770652
-0.11093257 0.012366008 1.4070001 4279770652
-0.10986746 0.012383587 1.409 4279770650
-0.10864466 0.012383587 1.409 4279770650
-0.10749809 0.012392376 1.4100001 4279770650
-0.10650054 0.012418742 1.4130001 4279770650
-0.10534878 0.012427531 1.414 4279770650
-0.10426892 0.012445108 1.416 4279836443
-0.092221662 0.012313275 1.401 4279770650
-0.091070764 0.012322064 1.4020001 4279836443
-0.089854039 0.012322064 1.4020001 4279836443
-0.084359273 0.012058396 1.3720001 4279836445
-0.082986727 0.01203203 1.3690001 4279836445
-0.081679143 0.012014451 1.3670001 4279704859
-0.080139495 0.011961718 1.3610001 4279836445
-0.078958355 0.011961718 1.3610001 4280231203
-0.077777214 0.011961718 1.3610001 4280757547
-0.076539785 0.011952928 1.36 4281020719
-0.075747393 0.012014451 1.3670001 4280954926
-0.074724674 0.012040818 1.3700001 4280954926
-0.073643073 0.012058396 1.3720001 4281086512
-0.072874844 0.012128707 1.3800001 4281086512
-0.071781091 0.012146286 1.3820001 4280757547
-0.0706328 0.012155074 1.383 4280428582
-0.069683582 0.012199018 1.388 4280560168
-0.068577684 0.012216597 1.3900001 4280560168
-0.067419842 0.012225386 1.391 4280494375
-0.06645067 0.01226933 1.396 4280362789
-0.065332614 0.012286908 1.3980001 4280362789
-0.064211085 0.012304486 1.4000001 4280494375
-0.062001761 0.01234843 1.4050001 4280560168
-0.060868952 0.012366008 1.4070001 4280296996
-0.059732683 0.012383587 1.409 4280296996
-0.058717508 0.012427531 1.414 4280362789
-0.15058279 0.013520692 1.401 4279704859
-0.14936693 0.013520692 1.401 4279639066
-0.14815107 0.013520692 1.401 4279639064
-0.1474596 0.013568945 1.406 4279573271
-0.14644744 0.013588247 1.4080001 4279639064
-0.14543179 0.013607549 1.4100001 4279704857
-0.1447195 0.013655802 1.4150001 4279704857
-0.14359289 0.013665453 1.416 4279704857
-0.1311187 0.013646152 1.414 4279770650
-0.12970783 0.01362685 1.4120001 4279704859
-0.12830044 0.013607549 1.4100001 4279704859
-0.12635577 0.013530343 1.4020001 4279704859
-0.12496053 0.013511041 1.4000001 4279704859
-0.12312682 0.013443486 1.393 4279770652
-0.1219179 0.013443486 1.393 4279770652
-0.12070899 0.013443486 1.393 4279704859
-0.11967166 0.013462787 1.3950001 4279704859
-0.11863083 0.013482088 1.3970001 4279704859
-0.1175025 0.01349174 1.3980001 4279704859
-0.11645561 0.013511041 1.4000001 4279704859
